0.018201218 0.018282484 0.018421264 0.018712196 0.019199211 0.019937149 0.020942248 0.022262452 0.023884048 0.025894816 0.028246626 0.031051726 0.034247441 0.037777056 0.041746768 0.04607609 0.050741143 0.05580081 0.06089866 0.066444383 0.072198214 0.077998729 0.083899248 0.089846695 0.095636408 0.10126782 0.10618894 0.11064891 0.11459695 0.11841925 0.12184707 0.12576007 0.1301209 0.1338089 0.13737516 0.14212488 0.14653301 0.15073357 0.15463459 0.15828634 0.16163137 0.16427187 0.16787917 0.17038155 0.17183068 0.17281638 0.17446861 0.17612097 0.17836017 0.17924631 0.17934467 0.17861599 0.17709248 0.17520636 0.17310923 0.17191123 0.17109874 0.17081869 0.1712114 0.17228632 0.17393203 0.17534039 0.17623903 0.17669067 0.17773844 0.17862821 0.17955214 0.17998405 0.18012996 0.18006764 0.17981529 0.17949707 0.1785965 0.17732559 0.17421023 0.17028038 0.16547664 0.16015647 0.15300825 0.14496677 0.13571664 0.12657983 0.11756634 0.10912237 0.10009788 0.090879234 0.081463902 0.072300034 0.063607243 0.055366667 0.047422854 0.040157587 0.03353853 0.027470066 0.021926598 0.01701526 0.012907025 0.0096577126 0.0073056891 0.0058600999 0.0055524044 0.0051874709 0.0048650472 0.0045392081 0.0042142116 0.0039007997 0.0036029121 0.0033109641 0.0030146911 0.0024046849 0.0083930457 0.020351077 0.037863934 0.060062643 0.086576619 0.11652191 0.14966342 0.18596578 0.22400116 0.26433264 0.30641978 0.3478066 0.38930581 0.43072378 0.47215204 0.5120501 0.54859897 0.58379098 0.6174879 0.64942135 0.68107041 0.70761944 0.72974159 0.74403413 0.75844436 0.76449768 0.76225054 0.76423809 0.76493654 0.76789454 0.769878 0.76830011 0.77067061 0.77338945 0.77124243 0.77287866 0.76740932 0.75633493 0.74252669 0.72287287 0.70391259 0.6829562 0.65843656 0.63006102 0.59993313 0.56711865 0.53260591 0.49824676 0.46611289 0.43244566 0.39975035 0.36720634 0.33471969 0.30458736 0.27533391 0.24794981 0.2231229 0.20074576 0.18282034 0.16854719 0.15931062 0.15524591 0.15773121 0.16111376 0.16208263 0.16336454 0.16480635 0.16719895 0.16874254 0.17034852 0.17195367 0.17355737 0.17569753 0.17841285 0.18222636 0.1861823 0.19139923 0.19766689 0.20459521 0.21214282 0.21973668 0.22726281 0.23448264 0.24046427 0.24629629 0.25163799 0.25628075 0.2601244 0.26221651 0.26378719 0.26387831 0.26282368 0.26133829 0.25867514 0.25581709 0.25296593 0.25056354 0.24921804 0.24860037 0.24873248 0.24874072 0.24968348 0.24955091 0.25019397 0.25016401 0.24990309 0.25001044 0.25001943 0.24825295 0.24504662 0.24032027 0.23437764 0.22675066 0.21851507 0.20941249 0.19965923 0.19052887 0.18079298 0.17004823 0.15860629 0.14542087 0.13136381 0.11778791 0.10814549 0.096242003 0.086841467 0.077622757 0.06532482 0.054449988 0.044687117 0.037534368 0.030628151 0.027174532 0.022695326 0.018761366 0.017891696 0.020591105 0.024015844 0.023926825 0.018305547 0.013000651 0.0096323512 0.007053105 0.0049715749 0.0091043772 0.017950399 0.030865375 0.048232408 0.07058158 0.095478346 0.12197549 0.14928606 0.17764362 0.20726758 0.23732595 0.2694278 0.30326068 0.33786262 0.37139115 0.40342258 0.43483003 0.46630108 0.49655694 0.52341017
0.021777017 0.02183274 0.022051889 0.022358947 0.022852338 0.023576813 0.024641357 0.025948454 0.027545935 0.029518597 0.031857792 0.034546354 0.037688561 0.041104375 0.044954129 0.049141551 0.053531009 0.058369716 0.063494831 0.068840721 0.07435708 0.080027044 0.085704381 0.091353409 0.097065966 0.10241629 0.10751202 0.1117201 0.11533487 0.11927968 0.12307889 0.1262868 0.13006435 0.13418718 0.13769917 0.14176853 0.14507405 0.1488929 0.15456017 0.15824016 0.1615673 0.16433451 0.16667522 0.16972047 0.17167401 0.17247273 0.17316474 0.1745246 0.17667708 0.17789451 0.17835442 0.17798487 0.17628073 0.17432635 0.17217176 0.1710016 0.17030202 0.17042005 0.17145303 0.17271466 0.1739592 0.17460881 0.17491886 0.17541062 0.17699012 0.17816322 0.17884785 0.1785026 0.17802843 0.17762651 0.17741032 0.17710542 0.17643137 0.17535848 0.17242128 0.16862662 0.16397921 0.159024 0.15233816 0.14486753 0.1359663 0.12698581 0.11774059 0.10908383 0.10008541 0.091054051 0.081923399 0.073196469 0.064792543 0.056847507 0.049263182 0.042110273 0.035631543 0.029701668 0.024356007 0.019499373 0.015440353 0.012230872 0.0098884424 0.0084999626 0.0080526868 0.0075426612 0.0070977478 0.0066956445 0.0063019359 0.0058915204 0.0054992773 0.0051242693 0.0047712866 0.0040714491 0.0097886236 0.021314694 0.038120789 0.059735491 0.085406646 0.11462996 0.14638408 0.18150893 0.21855 0.25706348 0.29666398 0.33832393 0.37827556 0.41726248 0.45771736 0.49789073 0.5316873 0.56655734 0.59999475 0.62879764 0.6583569 0.68550431 0.70501911 0.72180776 0.73468238 0.74138918 0.7382443 0.73901544 0.74378072 0.74716846 0.74781122 0.74963839 0.75078053 0.75145281 0.75250856 0.75263424 0.74955818 0.73594402 0.72383144 0.70597096 0.68880886 0.66909183 0.64530564 0.61737748 0.58877276 0.55714994 0.52353919 0.48973113 0.45792438 0.42456049 0.39422019 0.36184748 0.33107899 0.30070652 0.27234654 0.24575365 0.22091972 0.19999366 0.18234843 0.16809475 0.15973584 0.15541278 0.15639449 0.16078547 0.1623708 0.16381036 0.1653446 0.16782463 0.16948138 0.17113377 0.17277919 0.1744165 0.17660921 0.17934547 0.18295927 0.18693528 0.19217577 0.19833315 0.20522853 0.21284526 0.22020195 0.22774167 0.23481115 0.2407634 0.24660041 0.25227858 0.25659762 0.26006523 0.26260794 0.26388955 0.26425803 0.26383684 0.26274854 0.25985361 0.25777815 0.25463822 0.2525735 0.25153012 0.25104042 0.25126443 0.25135781 0.25222632 0.25211062 0.25208182 0.25228131 0.25205947 0.2519262 0.25245592 0.25064714 0.24737693 0.24245831 0.23621941 0.22835951 0.22031271 0.21205394 0.2023443 0.19352106 0.18345768 0.17222304 0.16005103 0.14836261 0.13527289 0.12105912 0.11144572 0.10051972 0.091921594 0.080769083 0.069477238 0.057815952 0.049036096 0.038082003 0.031718101 0.027981978 0.021931618 0.020660432 0.022479389 0.025844731 0.028806624 0.027863931 0.022143917 0.015793674 0.012424852 0.0094888283 0.0071129135 0.011082132 0.019708188 0.032811332 0.051148522 0.07496326 0.1005527 0.12603177 0.15350026 0.1827362 0.21301343 0.24221998 0.27156341 0.30073933 0.33150216 0.3640596 0.39686559 0.42809393 0.45783658 0.48611545 0.51160353
0.025611127 0.025704668 0.025986919 0.026319352 0.026834272 0.027635896 0.028542768 0.029932892 0.031508164 0.033468757 0.035758993 0.038408687 0.04134879 0.044777686 0.048352385 0.052397976 0.05675427 0.06139763 0.066137981 0.071316171 0.076626307 0.082159273 0.087787272 0.093180851 0.098832312 0.10386168 0.10858919 0.11302271 0.11640645 0.12005916 0.12390452 0.1273242 0.13096079 0.13510003 0.13862135 0.14225662 0.14560623 0.1493013 0.15290396 0.15814391 0.16139931 0.16424693 0.16662282 0.16843406 0.17083292 0.17204048 0.17239029 0.17286317 0.17458022 0.17581664 0.17643727 0.17609416 0.17436105 0.17228894 0.16991865 0.16871896 0.16805202 0.16849678 0.16993377 0.17124919 0.17206724 0.17204344 0.17191107 0.17260813 0.17433662 0.17561947 0.17593065 0.17512807 0.1741716 0.17349284 0.17324226 0.17304691 0.17238447 0.171579 0.16881446 0.16519881 0.16073702 0.15614609 0.15001465 0.14320034 0.13502246 0.1263543 0.11733217 0.1086664 0.09983252 0.091194576 0.082576624 0.074132773 0.066265237 0.058834266 0.051419539 0.044571906 0.038246974 0.032515791 0.027267456 0.02255312 0.018579425 0.015408175 0.013119626 0.011718822 0.011158832 0.010527918 0.0099265641 0.0094245551 0.0089333378 0.0084388926 0.007950003 0.0074970019 0.0070505388 0.0062775154 0.011688032 0.02264519 0.038722286 0.059549745 0.084284389 0.1122849 0.14276205 0.17648612 0.21213299 0.24852292 0.28661799 0.32537583 0.36320814 0.40211952 0.44049573 0.47753448 0.51214063 0.54517962 0.57857247 0.60715047 0.63424811 0.6593383 0.6792863 0.69395735 0.70596053 0.71166475 0.71306217 0.71261495 0.7157852 0.71740518 0.72022908 0.72339718 0.72479976 0.72503242 0.72868874 0.73119386 0.72717128 0.71747517 0.70301327 0.68627581 0.66801298 0.65015682 0.62665522 0.5998179 0.57282306 0.54309716 0.51024648 0.47903333 0.44824668 0.41778595 0.38706735 0.35635497 0.32554515 0.29557465 0.26801606 0.24227647 0.21857096 0.1978079 0.18087717 0.1676195 0.15908436 0.15493136 0.15716241 0.16032514 0.16264938 0.16424888 0.16584739 0.1683862 0.17021839 0.17191843 0.17363522 0.17530673 0.17751749 0.18028992 0.18377156 0.18777521 0.19298503 0.19913322 0.20604148 0.21339991 0.22058007 0.22806689 0.23517275 0.24103415 0.24701118 0.2523344 0.25687765 0.26057286 0.26329324 0.26490027 0.26555142 0.26530583 0.26458824 0.26194612 0.25983868 0.25697198 0.25535069 0.25552646 0.25516449 0.25468156 0.25478122 0.2552446 0.25538989 0.25547936 0.25576546 0.25555921 0.25537578 0.2554781 0.25374396 0.25042872 0.24575433 0.23921242 0.23152942 0.22361244 0.21528942 0.20621228 0.19689937 0.18681906 0.17561742 0.16163402 0.15000205 0.1387662 0.12498371 0.11480022 0.10419802 0.095121971 0.083338195 0.072251999 0.061377302 0.05460786 0.041232983 0.033193192 0.029865194 0.023933252 0.022254063 0.026238487 0.030915295 0.031359625 0.029362008 0.024523492 0.018076011 0.015170712 0.011893029 0.009747131 0.014462282 0.024311336 0.038506088 0.058639304 0.083407853 0.10475301 0.12679551 0.15253583 0.17889324 0.20618849 0.23600277 0.26907975 0.30032625 0.32858484 0.35720438 0.38932244 0.42044635 0.44803306 0.47475993 0.49935613
0.0294454 0.029717537 0.030127114 0.030514128 0.031054854 0.03179146 0.032862842 0.034143705 0.035674887 0.037563038 0.039827303 0.042341168 0.045176837 0.048402137 0.051891682 0.056106854 0.060172869 0.064522869 0.069272497 0.07420969 0.079345385 0.084556287 0.089940177 0.095247487 0.10063373 0.10577167 0.11018363 0.11398386 0.1178006 0.12115822 0.12468153 0.12824829 0.13194624 0.13574706 0.13912855 0.14241936 0.14588429 0.14964811 0.1530766 0.15647608 0.16108687 0.1638572 0.16624671 0.16796945 0.16930208 0.17085884 0.17145207 0.17150112 0.17224088 0.17308827 0.17374345 0.17342959 0.17172363 0.16945547 0.16689479 0.16572155 0.16514145 0.16589963 0.16739971 0.16863098 0.16896835 0.16833244 0.16802773 0.16874235 0.17051436 0.1714937 0.17160042 0.17058443 0.1694489 0.16844639 0.16812505 0.16789529 0.16743028 0.16676506 0.16418074 0.16068986 0.1562952 0.15190305 0.14609483 0.13974661 0.13227806 0.12436482 0.11608342 0.10799071 0.099692203 0.091392365 0.083327509 0.075499001 0.068000612 0.060969833 0.053984741 0.047329743 0.041274503 0.035623711 0.030691182 0.026020194 0.022256274 0.019182609 0.016935485 0.015438017 0.014863098 0.013960781 0.013230149 0.012604672 0.011997672 0.011401834 0.01085975 0.010305633 0.0096543102 0.0088893558 0.013931226 0.024302314 0.03956641 0.059275198 0.082840458 0.10940429 0.13858001 0.17067055 0.20459466 0.23997108 0.27538194 0.31205652 0.34843489 0.38445234 0.42185244 0.45803638 0.48955384 0.52121586 0.55306504 0.58293247 0.60743953 0.63208447 0.64850669 0.66263386 0.67311175 0.67953442 0.68091854 0.68136826 0.6829909 0.68638097 0.68963717 0.69397523 0.69634007 0.69770615 0.70051504 0.70356889 0.69990747 0.69281764 0.67818514 0.66268793 0.64615476 0.62591782 0.6035775 0.57951542 0.55278622 0.52496396 0.49620397 0.46599306 0.43653 0.40816188 0.37770172 0.34847053 0.31863226 0.29019096 0.26346971 0.23818894 0.21528598 0.19550832 0.17912905 0.16690386 0.15820605 0.15497871 0.15652697 0.15985535 0.16288902 0.16458972 0.16643669 0.16888385 0.1709539 0.17273313 0.17449135 0.17622791 0.17848675 0.18125943 0.18454432 0.18854791 0.19370518 0.19980222 0.20662146 0.21382361 0.22094662 0.22826258 0.23552716 0.24111972 0.24716014 0.25222154 0.25694683 0.26025145 0.26363801 0.26516343 0.26612332 0.26732267 0.26609432 0.26407849 0.2622127 0.25988239 0.25916348 0.25868679 0.25860538 0.2590478 0.25923728 0.25924005 0.25947 0.25901956 0.25952472 0.25943919 0.25942769 0.25929039 0.25735959 0.2541886 0.24953171 0.24315806 0.23534683 0.22772796 0.21850964 0.20961633 0.19946661 0.1895416 0.17861408 0.16457038 0.15329754 0.1409889 0.12897341 0.11893139 0.10769535 0.098657935 0.08749916 0.074063059 0.062762558 0.058108946 0.045661975 0.039386009 0.035013478 0.031718585 0.028633111 0.032057951 0.036042951 0.034501404 0.031186619 0.026190321 0.020200375 0.017498706 0.014466979 0.014032394 0.020216347 0.030792386 0.047099997 0.066979413 0.084402967 0.10612697 0.1316878 0.15781239 0.18223563 0.20624135 0.231214 0.26176528 0.29463822 0.32459798 0.35258368 0.38175307 0.41172511 0.43833059 0.46322507 0.48652367
0.033660499 0.033832148 0.03439159 0.034825658 0.035403675 0.036284844 0.037255416 0.038580759 0.040175499 0.042061095 0.044229966 0.046764217 0.049496503 0.052554515 0.05595977 0.059600019 0.063986482 0.068123028 0.072502158 0.077227259 0.082198246 0.087254728 0.092540356 0.097546478 0.10246659 0.10737781 0.11195436 0.1155835 0.11876407 0.12255398 0.12565237 0.12898083 0.13247626 0.13614944 0.1398113 0.14293441 0.14648768 0.14995313 0.15351117 0.1565814 0.15964114 0.16358555 0.16590549 0.16760854 0.16871099 0.16929156 0.1700588 0.17012206 0.17020957 0.17018956 0.17067208 0.17034102 0.16843458 0.16586579 0.16305335 0.16166251 0.16130221 0.16218017 0.16372404 0.16495946 0.16496742 0.16417011 0.16393679 0.16444003 0.16577065 0.16636014 0.16625094 0.16513574 0.16391697 0.16292155 0.16244165 0.16209881 0.16164397 0.16100715 0.15850765 0.15515921 0.15088113 0.14673865 0.14138456 0.13526537 0.1285401 0.12140856 0.11403492 0.10681828 0.099295277 0.091804041 0.084247408 0.076866562 0.069779055 0.063151017 0.056553897 0.050289881 0.04459404 0.039186568 0.034428472 0.030075067 0.026256628 0.023334095 0.021102442 0.019624521 0.018836347 0.018017776 0.017128148 0.01623213 0.015529119 0.01478829 0.014033675 0.013310126 0.012664948 0.011774203 0.016510874 0.026031949 0.040496114 0.059048544 0.081258364 0.10672758 0.13442372 0.16468002 0.19666295 0.22995984 0.26349456 0.29878134 0.33306798 0.36694844 0.40140184 0.43488594 0.46534445 0.49524382 0.52400977 0.55296853 0.57687287 0.59732392 0.61623257 0.6303687 0.64153439 0.64791605 0.64888264 0.64962794 0.6506953 0.6516369 0.65488157 0.65716532 0.66081956 0.66643376 0.6684388 0.67107889 0.66947916 0.66226924 0.64974882 0.63732487 0.62057435 0.6007795 0.57981839 0.55567854 0.53214579 0.50598983 0.47946306 0.45169881 0.42271906 0.39537121 0.3669125 0.33850836 0.31056027 0.28373168 0.2573183 0.23318304 0.21145386 0.19284594 0.17734197 0.16492361 0.15722246 0.15495076 0.15853203 0.15937688 0.16309027 0.16498515 0.16699121 0.16819161 0.17171837 0.17357769 0.17540867 0.17717991 0.17941892 0.1822084 0.18533647 0.18929856 0.19444218 0.20044009 0.20709823 0.21415049 0.2216998 0.22848365 0.23537557 0.24158802 0.24730689 0.25268183 0.25742162 0.26157442 0.26486204 0.2667358 0.26819268 0.26858204 0.26774341 0.26768894 0.26563895 0.26355501 0.26240142 0.26228025 0.26242672 0.26308098 0.26336768 0.26337595 0.26334399 0.26345949 0.26359289 0.26355183 0.26351848 0.26332781 0.26242516 0.25875784 0.2533218 0.24678851 0.23912733 0.23068739 0.221832 0.21229962 0.20292862 0.19203454 0.18091424 0.16849075 0.15676495 0.14431657 0.13254212 0.12176623 0.1106975 0.10040976 0.091373242 0.077304436 0.065088418 0.059247066 0.049260712 0.042364018 0.036574986 0.03327937 0.033266527 0.037409941 0.038686875 0.036897753 0.033680693 0.028618681 0.022853395 0.020630825 0.018865227 0.020333923 0.027364272 0.03876658 0.055478846 0.07087776 0.088867751 0.11146677 0.13387407 0.15595842 0.18116742 0.2078546 0.2326732 0.25920847 0.28992977 0.32084065 0.34879375 0.37609133 0.40338242 0.42946509 0.45289498 0.47504667
0.03801719 0.038183125 0.038635074 0.039237332 0.039972481 0.040876923 0.041850378 0.043187109 0.044759539 0.046689701 0.048900337 0.051220234 0.053790588 0.056686919 0.060133402 0.063658278 0.067419214 0.071560795 0.076059146 0.080375825 0.08517339 0.090180913 0.095045126 0.10004358 0.1046823 0.10921219 0.11331501 0.11749343 0.12000082 0.12319881 0.12697425 0.12993694 0.1332458 0.13664497 0.14007363 0.14342843 0.14708645 0.15055266 0.15380378 0.15698431 0.15967987 0.16274721 0.16545281 0.16709329 0.1681283 0.16840976 0.168197 0.16816351 0.16801352 0.16744348 0.16721875 0.16694981 0.16519474 0.16249168 0.15946812 0.15784414 0.15691275 0.15832895 0.15964643 0.16054844 0.16030392 0.15954649 0.15898186 0.15948356 0.16003613 0.16042101 0.16021736 0.15909683 0.15800785 0.15680273 0.15615934 0.1555942 0.1550324 0.15426386 0.1518275 0.1485465 0.14455917 0.14079228 0.13601391 0.1305952 0.12452828 0.11826968 0.11171297 0.10546762 0.098755674 0.091931246 0.084954142 0.078149104 0.071536057 0.065474147 0.059318459 0.053429176 0.047890388 0.042873863 0.038292894 0.034265566 0.030753606 0.027843619 0.025551581 0.023934869 0.023039149 0.022105508 0.021170263 0.020180456 0.019173879 0.018417435 0.017315208 0.016548345 0.015826236 0.014839223 0.019078485 0.028198698 0.041547154 0.058840565 0.079500301 0.10348017 0.12937405 0.15749205 0.18760119 0.2191561 0.25075873 0.28462657 0.31677009 0.34832666 0.38037632 0.41076425 0.44123527 0.46874788 0.49457359 0.52008137 0.54341174 0.56251429 0.58097335 0.59615568 0.60666317 0.61368965 0.61156495 0.61166787 0.61370681 0.61723817 0.61936651 0.62170059 0.62527471 0.63085073 0.63278254 0.63512821 0.63251232 0.6278949 0.61963813 0.60708051 0.59253323 0.57227117 0.5522854 0.5289072 0.50814472 0.48436425 0.46107899 0.43461331 0.40792103 0.3802992 0.35320067 0.32723176 0.30125416 0.27599709 0.25105551 0.22825974 0.20750808 0.19015581 0.17529198 0.16341754 0.15552139 0.1554801 0.1582336 0.16036856 0.16240708 0.16425314 0.16638722 0.16892789 0.17251197 0.17445235 0.17629558 0.17813246 0.18038338 0.18310223 0.18608887 0.19004839 0.19511088 0.20094655 0.20743742 0.21450122 0.22152183 0.22868405 0.23581265 0.24166207 0.24720025 0.25293349 0.25756532 0.26275366 0.26605594 0.26855339 0.26994267 0.27107624 0.27148585 0.27158595 0.26811562 0.26724066 0.26599369 0.26536365 0.26620711 0.26698938 0.2673945 0.26767826 0.26788289 0.26807086 0.26831437 0.26845692 0.26825117 0.26817279 0.26596337 0.26261704 0.25758468 0.25071501 0.24315413 0.233844 0.2252716 0.21479669 0.20485616 0.19548706 0.1836278 0.17165499 0.16025836 0.1480928 0.13580363 0.12402087 0.11140095 0.1013408 0.092985406 0.079760459 0.070745612 0.061327738 0.050528429 0.043402152 0.039447564 0.037286764 0.038057856 0.042283466 0.040931879 0.038413845 0.035371368 0.030199658 0.025256413 0.024748928 0.025574104 0.029760327 0.037708009 0.047596486 0.062262389 0.078880113 0.094582991 0.1145446 0.13474205 0.15685617 0.17954227 0.20575356 0.23255086 0.25712298 0.28460692 0.3148744 0.3446815 0.36999741 0.39485867 0.42004647 0.44347996 0.46430296
0.042324311 0.042775007 0.043173726 0.043818367 0.044679152 0.045508059 0.046677075 0.047892583 0.049477801 0.051237412 0.053369373 0.055710922 0.058258903 0.06115904 0.064134805 0.067631681 0.071505284 0.075295806 0.079456657 0.083764015 0.088411787 0.092951498 0.097350725 0.10221536 0.10701622 0.11131847 0.11522403 0.11867948 0.12178202 0.12486528 0.12823506 0.13137671 0.13462767 0.13779126 0.14111319 0.14440679 0.14771229 0.15109728 0.15429422 0.15715103 0.15986753 0.16205604 0.16392466 0.16526808 0.16608479 0.16745808 0.16705889 0.16590888 0.16485235 0.16456651 0.16397653 0.16288443 0.1614059 0.15839952 0.15529414 0.15314932 0.15228702 0.15334972 0.15437398 0.15500303 0.15476402 0.15414026 0.15347879 0.15338417 0.1537883 0.15347052 0.15321431 0.15214236 0.15111726 0.1500071 0.14917926 0.14851431 0.14806606 0.1473135 0.14511867 0.14204433 0.13840588 0.13506004 0.13088072 0.12641684 0.12077651 0.11522683 0.10940044 0.10400823 0.097920419 0.091914738 0.085506519 0.079267572 0.07327676 0.067776669 0.062048411 0.056567249 0.051356678 0.046675506 0.042445252 0.038552599 0.035288323 0.032479762 0.030328574 0.028447659 0.027456661 0.026347394 0.025257397 0.024214336 0.023199737 0.022214425 0.020901407 0.019914465 0.019075291 0.017964338 0.021811602 0.030166015 0.042453391 0.058422373 0.077889431 0.10024247 0.12440438 0.15043364 0.17816586 0.20747159 0.23746722 0.26810974 0.29893007 0.32835398 0.35750339 0.38617841 0.41406441 0.43984596 0.46418414 0.48713549 0.50955299 0.52846402 0.54546654 0.5611934 0.5710044 0.57633257 0.5756453 0.57505261 0.57745125 0.5802039 0.58352066 0.5862188 0.58892139 0.59357984 0.59401091 0.59586195 0.59574692 0.59173976 0.58407778 0.57438292 0.56105308 0.54320161 0.5225542 0.50183559 0.4820093 0.46219662 0.44010623 0.41545863 0.38971277 0.36448523 0.33926066 0.31424181 0.29038789 0.26738046 0.24423765 0.2230166 0.20348273 0.18719716 0.17320479 0.16197638 0.15512148 0.15512841 0.15780535 0.15981281 0.16165831 0.1649413 0.16708614 0.16966161 0.17333456 0.17532643 0.17721307 0.17905462 0.18131099 0.183967 0.18688459 0.19076511 0.19575051 0.20155611 0.2079337 0.21457097 0.2215169 0.22895252 0.23549807 0.2409363 0.24643413 0.2517921 0.25692351 0.26291861 0.26595934 0.26912803 0.27206259 0.27293954 0.2732266 0.27351155 0.27283562 0.26994875 0.27087073 0.27043073 0.27059739 0.27052259 0.27111053 0.27170127 0.27211888 0.27244647 0.27260857 0.27252553 0.27187047 0.27140582 0.26923478 0.26647778 0.26089032 0.25376475 0.24599539 0.23749412 0.22848263 0.21766523 0.20771092 0.19848113 0.18555064 0.17330892 0.16290641 0.15051832 0.13788247 0.12644308 0.11436591 0.10446055 0.094018769 0.081890816 0.073701453 0.065291959 0.056431072 0.047011086 0.044272837 0.043175067 0.042578864 0.046321662 0.044556735 0.042694267 0.039043265 0.034465685 0.029499356 0.030780592 0.035228279 0.03977748 0.04437045 0.053217521 0.06858328 0.084246704 0.10110696 0.12239103 0.1441882 0.16447543 0.18354252 0.20743442 0.2328124 0.25726286 0.28208844 0.31031633 0.33913638 0.36449623 0.38689351 0.40935324 0.43288499 0.45390512
0.046900608 0.0473798 0.04782506 0.048535679 0.049383465 0.050361241 0.051514903 0.052732517 0.05428921 0.056020962 0.058200641 0.060439887 0.062901856 0.065595142 0.068631645 0.071812921 0.075153871 0.078937044 0.082833378 0.086830901 0.090935314 0.095091457 0.099297264 0.10454626 0.10915424 0.1130463 0.11695769 0.12058661 0.1236596 0.12666007 0.12988805 0.13290427 0.13584907 0.1389806 0.1420577 0.14582043 0.14897575 0.15178418 0.15465618 0.15740975 0.15987494 0.16204889 0.16371104 0.1647784 0.16527931 0.16543854 0.16550496 0.1639626 0.1628058 0.16090554 0.16060535 0.15892236 0.15741916 0.15460767 0.15150306 0.14901236 0.1479913 0.14844738 0.14888609 0.14889211 0.1484919 0.14758476 0.14716335 0.14654913 0.1465877 0.14612293 0.14550959 0.14499084 0.1440618 0.14301499 0.14207652 0.14135905 0.14093647 0.1404275 0.13851624 0.13555774 0.13249406 0.1296091 0.12599882 0.12212922 0.11759294 0.11219252 0.10709507 0.10239212 0.097058514 0.091846438 0.086109643 0.080375975 0.074800509 0.069616971 0.064537981 0.059593397 0.054892197 0.050487553 0.046582611 0.042966917 0.039795572 0.037205858 0.034877289 0.033010629 0.031807992 0.030559547 0.029362357 0.028175871 0.027053363 0.026066726 0.024329813 0.023430083 0.02233733 0.02109287 0.024556541 0.03219217 0.043342338 0.058130344 0.075910685 0.09654922 0.11903366 0.14329204 0.16873766 0.1952886 0.22374819 0.25309157 0.28091501 0.30872429 0.33596516 0.36186449 0.38742648 0.41204425 0.43455261 0.45254065 0.47579128 0.49399704 0.5104904 0.52457814 0.5327325 0.53550211 0.53514258 0.53644632 0.53996403 0.54196753 0.54646413 0.5492615 0.55089086 0.5545059 0.55537688 0.55682863 0.55742922 0.55404873 0.54962647 0.54182779 0.52730001 0.51256107 0.49370427 0.47397846 0.45663648 0.43861127 0.41728778 0.39657701 0.37237271 0.34780502 0.32463678 0.30144321 0.2796069 0.2582882 0.23712194 0.21761138 0.19995001 0.18404481 0.17090833 0.16021007 0.15687298 0.15467879 0.15718886 0.15901028 0.16220283 0.16420126 0.16772058 0.17042332 0.17415584 0.17620017 0.17813063 0.17997742 0.18217639 0.18479315 0.18755134 0.19136519 0.19614633 0.20195704 0.20817569 0.21463688 0.22209828 0.22857415 0.23479241 0.24005551 0.24531015 0.25068733 0.25591872 0.26210017 0.26556786 0.27005476 0.27204781 0.27420636 0.27475662 0.27456888 0.27463778 0.27467779 0.27340001 0.27275205 0.27364116 0.27350594 0.2743105 0.27528341 0.27590265 0.27696422 0.27566364 0.27522209 0.27481419 0.27388737 0.27200554 0.26824313 0.26293835 0.25670255 0.2485937 0.2393532 0.23025463 0.21929372 0.20881682 0.1990285 0.18670841 0.17550657 0.16434413 0.15194578 0.14003283 0.1288788 0.11649747 0.10714813 0.09532573 0.08469655 0.077322206 0.067387214 0.058835443 0.050405962 0.047438164 0.046942047 0.046229934 0.048385748 0.047011106 0.045874396 0.042422097 0.038611285 0.035401661 0.040215385 0.043764328 0.045694802 0.050266463 0.060403683 0.07387008 0.091170999 0.10665797 0.12644909 0.14521885 0.16274708 0.18390543 0.20774254 0.23414755 0.25976327 0.28148712 0.30641306 0.33466441 0.35976036 0.38037051 0.40143075 0.42329973 0.4442505
0.051629134 0.052052401 0.05251543 0.053311808 0.054209925 0.055228524 0.056448193 0.057666072 0.059243098 0.060958542 0.06307868 0.065266851 0.067625865 0.070220722 0.073009932 0.076048261 0.079222143 0.082803867 0.086387982 0.090217348 0.094457733 0.098357201 0.10226283 0.10720642 0.11116112 0.11512518 0.11912345 0.1224656 0.12539162 0.12836805 0.13152096 0.13416182 0.13728166 0.14025424 0.14311374 0.14605064 0.14955535 0.15260865 0.15518351 0.15769178 0.1599615 0.16184143 0.16337403 0.16417237 0.16445004 0.16452499 0.16353015 0.16252125 0.16077841 0.15877919 0.15639365 0.15507197 0.1532055 0.1507959 0.14795757 0.14520071 0.14387628 0.14384765 0.14379028 0.14328994 0.14276388 0.14180215 0.14113593 0.140147 0.13972211 0.13892868 0.13839482 0.13797359 0.13720635 0.1363899 0.13553156 0.13472516 0.1343468 0.13395459 0.13224176 0.13011643 0.12706976 0.12470974 0.12159512 0.11813627 0.11402474 0.10943913 0.10495396 0.10085736 0.096044679 0.091530251 0.086469133 0.081361544 0.076020586 0.071488866 0.066934298 0.062572796 0.058364068 0.054351836 0.0506992 0.047355566 0.044497734 0.041599882 0.039407523 0.037580113 0.03612029 0.034732865 0.033419885 0.032102489 0.030882366 0.029255717 0.027834685 0.026683373 0.0255725 0.02438795 0.027258078 0.034111608 0.044232546 0.0577893 0.074219614 0.092742094 0.11320608 0.13528768 0.1585792 0.18324233 0.20952738 0.23572982 0.26153989 0.28756911 0.31300646 0.33643222 0.36048432 0.38214804 0.4040173 0.42378818 0.44242183 0.45900435 0.47370147 0.48541813 0.49460612 0.49752965 0.49727274 0.4999781 0.50224982 0.50422275 0.5080326 0.51060525 0.5138336 0.51731717 0.5192935 0.52144735 0.52128111 0.51802308 0.51409449 0.50647635 0.49344579 0.47941546 0.46470227 0.44722085 0.43136517 0.41324482 0.39470127 0.37577752 0.35421624 0.33181098 0.31067 0.28967716 0.26935546 0.24981378 0.2304131 0.21232415 0.19577581 0.18082575 0.16870811 0.15936968 0.15620181 0.15409967 0.15641588 0.15934389 0.16268022 0.16481921 0.16838172 0.17118285 0.174976 0.17710397 0.17904817 0.18090055 0.18306981 0.18570387 0.18836043 0.1922023 0.19700319 0.20393955 0.20976778 0.21554103 0.22161412 0.22787041 0.23390917 0.23899071 0.24414957 0.24952378 0.2547841 0.26063496 0.26649692 0.2695139 0.27162007 0.27499313 0.27540289 0.27609551 0.27579223 0.276616 0.27643359 0.27660245 0.2768327 0.27672531 0.27681112 0.27760392 0.27803806 0.27827887 0.27862552 0.27812514 0.2773513 0.27584897 0.27325341 0.26930088 0.26443446 0.25835966 0.24993826 0.24066051 0.23035162 0.21997521 0.20951279 0.19924227 0.18733613 0.17689202 0.16574685 0.15287622 0.141326 0.12990984 0.11813055 0.10840626 0.096068435 0.087522479 0.079483238 0.06996468 0.060207005 0.053173695 0.049997767 0.049334369 0.049827798 0.051261484 0.049234498 0.048091519 0.045241584 0.041886483 0.040904526 0.047489194 0.049963261 0.050283485 0.053905131 0.063361645 0.076969229 0.092856985 0.10715743 0.12513145 0.14440099 0.16414016 0.1865401 0.2091872 0.23150758 0.25708537 0.27943869 0.30176515 0.32822104 0.35349216 0.3748873 0.39523765 0.41521775 0.43479661
0.055883947 0.056526837 0.057252832 0.058083443 0.059049515 0.060193326 0.061396253 0.062751471 0.064184137 0.066058266 0.068021811 0.070075533 0.072358427 0.074817288 0.077514642 0.080355556 0.083417043 0.086719814 0.090282731 0.093936815 0.097648018 0.10151791 0.10526815 0.10975816 0.11371883 0.11750537 0.12101183 0.12421414 0.12704237 0.12986556 0.1328232 0.13568485 0.1384522 0.14148608 0.14461892 0.14753263 0.15028382 0.15280736 0.15588285 0.15805663 0.16002701 0.16162557 0.16290534 0.16357289 0.16363841 0.163425 0.16208285 0.1602285 0.15879922 0.15666749 0.15413794 0.15187096 0.14984634 0.14749367 0.14472697 0.14201949 0.14024932 0.13977624 0.13947912 0.13876662 0.13806776 0.13694571 0.13599064 0.13461841 0.13383265 0.13276983 0.13237922 0.13201372 0.13142874 0.13082638 0.13030004 0.12953943 0.12917634 0.12898614 0.1276597 0.12558868 0.12328421 0.12115039 0.11826223 0.11514733 0.11148054 0.10771214 0.10339925 0.099740809 0.095536885 0.091425319 0.086924637 0.082198604 0.077592533 0.073530168 0.069442689 0.065550866 0.061787583 0.058140425 0.054735728 0.051569211 0.0487757 0.046269497 0.04390088 0.04201457 0.0404204 0.038775252 0.037327156 0.035932457 0.03427966 0.032779185 0.031237211 0.029947545 0.028746386 0.027251156 0.029821576 0.036002435 0.045076903 0.057363261 0.07197669 0.088919821 0.10751816 0.12727459 0.14898003 0.17133292 0.1946653 0.21824783 0.24238614 0.2669667 0.29017435 0.31174724 0.33346812 0.35324104 0.37289637 0.39181415 0.40860623 0.42441584 0.43700909 0.44843558 0.45454723 0.45907244 0.4597523 0.46132215 0.46515586 0.46683371 0.47002249 0.47198059 0.47673802 0.47897694 0.48149329 0.48494671 0.48538642 0.48167965 0.477357 0.47010174 0.46019402 0.44793397 0.43460281 0.42031875 0.40477951 0.3888502 0.37207965 0.35368038 0.33467581 0.31537032 0.29669715 0.27750529 0.25886865 0.24064605 0.22295701 0.20609498 0.1911623 0.17797103 0.16709668 0.15995502 0.15533734 0.15339474 0.15548813 0.15966995 0.16318161 0.16546281 0.16906992 0.17194013 0.17579492 0.17800736 0.17999639 0.18188503 0.18408324 0.18672705 0.18948302 0.19326981 0.19801371 0.20415917 0.20977677 0.21531543 0.22109658 0.2269475 0.2327859 0.23777375 0.24322088 0.24878831 0.25430333 0.26106287 0.26571389 0.26948425 0.27268324 0.27500016 0.27590397 0.27709986 0.27768423 0.27774571 0.27825287 0.27871919 0.27890997 0.27893821 0.27893929 0.27907488 0.2795579 0.27976113 0.27963008 0.27850833 0.2778593 0.27644448 0.27484409 0.27053438 0.26469101 0.25745818 0.24930739 0.24009298 0.23060054 0.21976493 0.20931408 0.19891907 0.18771459 0.17682923 0.16610397 0.1529499 0.14208546 0.13010443 0.1187855 0.10804296 0.097482332 0.088859221 0.079533146 0.069602859 0.059735941 0.054397555 0.052480999 0.051043089 0.051509732 0.053052645 0.05187656 0.049634769 0.046608001 0.04388094 0.046676606 0.053219696 0.053484521 0.050512859 0.055990413 0.071127038 0.081849352 0.094151651 0.1086287 0.12602536 0.14625351 0.16708896 0.18789853 0.20684904 0.22894518 0.25343788 0.27531967 0.29766124 0.32104237 0.34399669 0.3652187 0.3857451 0.40631288 0.42575381
0.060303658 0.061310338 0.061880892 0.062763119 0.063753829 0.065267357 0.06645513 0.067770697 0.068790713 0.070562333 0.072292093 0.074489168 0.076663371 0.079038534 0.081566238 0.084454162 0.087575242 0.090791379 0.093922348 0.097351497 0.10124767 0.10475025 0.10840596 0.11258158 0.11639879 0.11983089 0.12303392 0.12610268 0.12879683 0.13142289 0.13406809 0.13734344 0.13996279 0.14325059 0.14566942 0.14866096 0.15108077 0.15365176 0.15611338 0.15859446 0.16017632 0.16144741 0.16240103 0.16286384 0.16283772 0.16227068 0.16077475 0.15878724 0.1565854 0.15457445 0.15176635 0.14913332 0.14650179 0.14414754 0.14149516 0.13882113 0.13668294 0.135694 0.13519592 0.13450715 0.13383991 0.13266449 0.13170074 0.1302619 0.12954444 0.1290185 0.12812177 0.12765788 0.12710533 0.12640755 0.12581343 0.1253748 0.12456549 0.12442687 0.12346337 0.12202357 0.11981549 0.11796672 0.11563481 0.11317372 0.11003524 0.10673851 0.10319902 0.099423028 0.095691289 0.091843439 0.087536536 0.083486418 0.079443918 0.075802604 0.072107157 0.068577268 0.065161687 0.061840941 0.05871254 0.055715276 0.053079332 0.05057787 0.048402039 0.046433522 0.044508734 0.042759641 0.041187963 0.03935027 0.037752071 0.036132862 0.034450904 0.033000031 0.031633641 0.030151859 0.032162425 0.037633954 0.045814565 0.056832126 0.069885052 0.084993826 0.10175587 0.11982678 0.13929348 0.15931244 0.1800839 0.20165647 0.22377027 0.24555396 0.267148 0.28686771 0.30649202 0.32566164 0.34239413 0.35891726 0.3747034 0.38769205 0.39979935 0.4103128 0.41619227 0.42049431 0.42311003 0.42490685 0.42811666 0.43055387 0.43304047 0.43681217 0.43971754 0.44156055 0.4447088 0.44949042 0.44938848 0.44740551 0.44235665 0.43678409 0.42798286 0.41704827 0.40602685 0.39238085 0.37948878 0.3645815 0.34987268 0.33420178 0.31690183 0.30019016 0.28294298 0.26601924 0.24830949 0.23126933 0.2156829 0.20087605 0.18693635 0.17517397 0.16550277 0.15842225 0.15431602 0.15354413 0.15580755 0.16007869 0.16373729 0.16613201 0.16978538 0.17272579 0.17664329 0.17891039 0.18097527 0.1829004 0.18515541 0.18780439 0.19060495 0.19434609 0.1989011 0.20447699 0.20984164 0.21515375 0.22058015 0.2260462 0.23146424 0.23684782 0.24232647 0.2482853 0.25487026 0.26059599 0.26498873 0.26870525 0.27200295 0.27465103 0.27627112 0.27686647 0.2785666 0.27902674 0.27985507 0.28037545 0.28078619 0.28068902 0.27980846 0.28024285 0.28006627 0.28004586 0.28020243 0.2795689 0.27887683 0.27746681 0.27453194 0.26987917 0.26425276 0.25588827 0.24733484 0.23886772 0.22855312 0.21758054 0.20765892 0.19777376 0.18572908 0.175476 0.16545982 0.15246727 0.14100896 0.12885155 0.11818459 0.10628033 0.095617357 0.087676352 0.078524604 0.070001488 0.062118741 0.056371082 0.054655136 0.054831742 0.054160274 0.054545762 0.052734881 0.049898317 0.047442559 0.045759592 0.050895118 0.056553996 0.054476637 0.05268346 0.062944752 0.075291692 0.080612811 0.094253318 0.11326356 0.1286229 0.14702909 0.16674296 0.18611734 0.20637142 0.22703424 0.24908337 0.27076438 0.29214313 0.31498718 0.33648285 0.35672227 0.37694587 0.39795855 0.41700416
0.064944981 0.065717446 0.066772859 0.067452593 0.068434369 0.069501381 0.070735155 0.07211645 0.073498913 0.075433532 0.077149753 0.079224733 0.081297359 0.083517148 0.085935095 0.088886513 0.091782939 0.094749248 0.09791154 0.1011184 0.10442935 0.10801459 0.11149874 0.11475932 0.11861468 0.12200389 0.12505213 0.12806541 0.13069142 0.13329827 0.13590927 0.13851098 0.14153178 0.14429415 0.14715669 0.14970626 0.15214706 0.15472479 0.15685201 0.15880438 0.16059199 0.16153645 0.16216591 0.16186256 0.16198571 0.16119882 0.15963097 0.15737751 0.15495901 0.15224197 0.14975818 0.14673824 0.14394842 0.1410968 0.13848132 0.13590364 0.1335356 0.13212851 0.13131911 0.13058265 0.13028373 0.12922909 0.12826074 0.12682936 0.12625395 0.1258307 0.12538864 0.12469798 0.12408862 0.12340386 0.12257904 0.12191073 0.12132343 0.12067484 0.11973908 0.11850007 0.1168843 0.11511151 0.11289189 0.11079993 0.10814764 0.10528961 0.10216255 0.099082302 0.095584225 0.091986596 0.088569601 0.084937396 0.081410229 0.078215764 0.074890388 0.071655116 0.068498591 0.065432635 0.062540532 0.059726363 0.057070337 0.054604643 0.052464378 0.050416165 0.048530817 0.046455555 0.044676969 0.042843365 0.041012039 0.03927429 0.037426813 0.035861902 0.034332106 0.0327438 0.034328153 0.038912544 0.046320129 0.055816692 0.067610835 0.080964647 0.095989062 0.11227723 0.12954256 0.14754113 0.16636206 0.18580885 0.20514171 0.22517507 0.24473313 0.26321479 0.28134241 0.29798764 0.31297735 0.32774687 0.34163735 0.35362806 0.36362044 0.37216284 0.37920935 0.38440018 0.38646316 0.38780294 0.39139426 0.39462333 0.39748399 0.40068187 0.40286563 0.40507254 0.40931681 0.41277561 0.41348579 0.411703 0.40797104 0.40191192 0.39510904 0.385133 0.3757515 0.36517871 0.35294386 0.33988003 0.32751859 0.31313722 0.29869209 0.28362507 0.26849927 0.25325238 0.23772494 0.22256442 0.20871668 0.1952256 0.18271177 0.17220235 0.1638797 0.15777337 0.15432812 0.15377193 0.15662416 0.16057041 0.16434752 0.16682719 0.17049782 0.17347934 0.17749068 0.17984355 0.18195411 0.18394648 0.18616566 0.18885369 0.19160537 0.19520265 0.19953055 0.20480318 0.20997708 0.21520201 0.22037175 0.22571782 0.23181505 0.23724538 0.2432342 0.24905195 0.25486777 0.259802 0.26364744 0.26728313 0.27057864 0.27326575 0.27533602 0.27711843 0.27814356 0.27880856 0.27917579 0.27948718 0.28004058 0.28029486 0.28054336 0.28067053 0.27972689 0.27953556 0.27922149 0.27859819 0.27773573 0.27630028 0.27289254 0.26781346 0.26170726 0.25342909 0.24522245 0.23588798 0.22512147 0.21471824 0.20421878 0.19427707 0.18372743 0.17339888 0.16289845 0.15016605 0.13918328 0.12771933 0.11703363 0.10463202 0.093939591 0.08615478 0.078502485 0.070004537 0.063730541 0.058838895 0.056971234 0.056973374 0.05544359 0.0554301 0.052304035 0.04964771 0.047645348 0.048137944 0.054824402 0.058363886 0.055463729 0.057911702 0.067607756 0.075903209 0.083103305 0.097818667 0.11376367 0.12751434 0.14599823 0.16517722 0.18521989 0.20460567 0.22418056 0.24467191 0.26520827 0.28663553 0.30896206 0.32987191 0.3497294 0.36908474 0.38927122 0.408337
0.069590815 0.070408189 0.071283346 0.072239073 0.073277822 0.074358284 0.075628599 0.076972561 0.078469759 0.08007322 0.081788263 0.083632763 0.085738196 0.087975197 0.090455895 0.093022183 0.095906645 0.098798658 0.10169425 0.10480593 0.10792726 0.11108222 0.11454932 0.1177393 0.12097444 0.12437503 0.12740376 0.13037482 0.13294327 0.13537062 0.13782981 0.14029915 0.14276995 0.1459257 0.14869336 0.15103938 0.153354 0.1557233 0.15775934 0.15939607 0.16073399 0.16179249 0.16215298 0.16173675 0.1612521 0.16030361 0.15850416 0.15613997 0.15359584 0.15057811 0.14741845 0.1445744 0.14130156 0.13837169 0.13536267 0.13283308 0.13053858 0.12893477 0.12793833 0.127068 0.12651199 0.12565694 0.12474169 0.12381776 0.12302817 0.12272464 0.12235596 0.12208739 0.12150398 0.12079675 0.12005319 0.11938386 0.11860997 0.11805332 0.11688556 0.11565409 0.11418147 0.11290756 0.11059886 0.10870421 0.10631099 0.10398048 0.10092031 0.098762719 0.095715223 0.092331022 0.089524585 0.086554663 0.083339472 0.080500108 0.077571946 0.074662319 0.071775863 0.068956771 0.066247955 0.063574597 0.060858644 0.058378443 0.056142295 0.0540153 0.052000946 0.049849104 0.047841026 0.045876106 0.044014233 0.042135602 0.040161046 0.038446231 0.036833471 0.035155061 0.036347428 0.040156485 0.046399354 0.054967949 0.065236689 0.077144829 0.090313077 0.1046811 0.12006 0.13601192 0.15286095 0.17004226 0.18760793 0.20513907 0.22279776 0.2392501 0.2554874 0.27008834 0.28426686 0.29712311 0.30922861 0.32066419 0.33028003 0.3374077 0.3436021 0.34791642 0.35013404 0.35275056 0.35548032 0.35790525 0.36096833 0.36332554 0.36604171 0.36937729 0.37272259 0.37684469 0.37723977 0.37666235 0.37423132 0.36924555 0.36285847 0.35427014 0.34586722 0.33656613 0.32648836 0.31546172 0.30503782 0.29275076 0.28057927 0.2671564 0.25366077 0.24055592 0.22713756 0.21414794 0.20157175 0.18911559 0.17868161 0.16995318 0.16303407 0.15731046 0.15437685 0.15449353 0.15731267 0.16114528 0.16504262 0.16763905 0.17126817 0.17426145 0.17830663 0.18074581 0.18290251 0.18493183 0.18714612 0.18981121 0.19249478 0.19602053 0.20006609 0.20493475 0.20989226 0.21484646 0.21998659 0.22582999 0.23133013 0.2367856 0.24198121 0.24810017 0.25306733 0.25820404 0.26204708 0.26549902 0.26841738 0.27094664 0.27318058 0.27525662 0.27651799 0.27780436 0.2781636 0.27860432 0.27909037 0.27973216 0.27956891 0.27944689 0.27889412 0.27776999 0.27690144 0.27598945 0.27477751 0.27356561 0.27011992 0.26412617 0.25794795 0.2500376 0.24137689 0.23100828 0.22106118 0.21083245 0.20007563 0.19035319 0.1798459 0.16976862 0.15890281 0.146766 0.13586937 0.12561365 0.11554266 0.10391689 0.09378546 0.085092903 0.076684892 0.068930677 0.062858344 0.059446201 0.058112894 0.057134237 0.055168704 0.055824017 0.052747215 0.050039752 0.048818945 0.051303815 0.057655985 0.059086699 0.056668576 0.062523188 0.070403044 0.074325588 0.085806844 0.099216047 0.11284094 0.12804067 0.14618882 0.16416813 0.18229266 0.20188542 0.22199414 0.24173412 0.26083078 0.28086675 0.30235683 0.32228015 0.34183506 0.36151782 0.3810723 0.40073287
0.074246367 0.075066094 0.076036777 0.076995988 0.077801012 0.078940311 0.080222073 0.081630616 0.082938636 0.084522416 0.086793795 0.088575689 0.090532398 0.09248487 0.094865689 0.097216058 0.09986243 0.10243457 0.10538163 0.10856662 0.11136844 0.11447524 0.11764696 0.12081324 0.12394321 0.12698904 0.12991381 0.13210253 0.13484539 0.13723153 0.13975474 0.14214409 0.14443813 0.14761993 0.15030825 0.15243957 0.15458223 0.15683473 0.15838729 0.15966589 0.1611167 0.16183168 0.16221701 0.16180257 0.160965 0.15940943 0.15731807 0.15498341 0.15205752 0.14900809 0.14580587 0.14245942 0.13957046 0.13592226 0.13303362 0.13027307 0.12791483 0.12623678 0.12507831 0.1239185 0.12302277 0.12194392 0.12092252 0.1200353 0.11957429 0.11914382 0.11888917 0.11883569 0.11865295 0.11833292 0.11784786 0.11709603 0.11637676 0.11555185 0.1143691 0.11297094 0.11153475 0.11021506 0.10841893 0.1067593 0.1047596 0.10270085 0.10050249 0.098702091 0.096037249 0.093093266 0.090219966 0.087833707 0.085220002 0.082635403 0.080052306 0.077513098 0.075078039 0.07231449 0.069717971 0.067118297 0.064417755 0.061887285 0.059563632 0.057330703 0.055121369 0.052910096 0.050763975 0.048668785 0.046626669 0.04469458 0.042574484 0.04078772 0.039084352 0.037365521 0.038051055 0.041241625 0.046498811 0.053915206 0.062830513 0.073173542 0.084546442 0.097117265 0.11069846 0.1247039 0.13971168 0.15539162 0.17079896 0.18632069 0.20163437 0.21620568 0.23036303 0.24345204 0.25610237 0.26689024 0.27847269 0.28815196 0.29713883 0.30412208 0.30982851 0.31331045 0.31518467 0.31838711 0.32096766 0.3234352 0.32503638 0.32728762 0.33104613 0.33369564 0.33706791 0.34141788 0.3428882 0.34233804 0.34023002 0.33683905 0.33135424 0.32392163 0.31735872 0.30850002 0.30156447 0.29187394 0.28279608 0.27262284 0.26205068 0.25088084 0.2393547 0.22781866 0.21627315 0.20472983 0.19422737 0.18354182 0.17637191 0.16801959 0.16165047 0.15756212 0.15482304 0.15496868 0.15852579 0.16201189 0.16573283 0.16856772 0.17206615 0.17501169 0.17912177 0.1816479 0.18382044 0.18588668 0.18809563 0.19070234 0.19333811 0.19668549 0.20056651 0.20525741 0.20998025 0.21478874 0.22059336 0.2256037 0.23130517 0.23541233 0.24131151 0.24655269 0.25150018 0.2559713 0.2596394 0.26312003 0.26625679 0.26869884 0.27068797 0.27300608 0.2746993 0.27585168 0.2759721 0.2761125 0.27724132 0.27767937 0.27772613 0.27703521 0.27642045 0.27613859 0.27453173 0.2726915 0.27114452 0.26956942 0.266392 0.26053256 0.25353351 0.2453055 0.23597884 0.22649475 0.21657998 0.20673287 0.19650803 0.18612131 0.17624031 0.16589917 0.1551061 0.14321665 0.13259775 0.12271127 0.11210664 0.1011904 0.092030837 0.084239056 0.075926681 0.068873614 0.063127935 0.05974708 0.058357283 0.057393454 0.055438368 0.055502745 0.052682341 0.050802796 0.049680087 0.053050571 0.059584998 0.059149181 0.057318947 0.066066481 0.071051836 0.074511877 0.085616039 0.098490354 0.11256533 0.12806835 0.14424426 0.16134108 0.17878498 0.19816343 0.21803485 0.23684384 0.25572289 0.27626704 0.29581682 0.31505912 0.33489885 0.35414912 0.37384558 0.3932962
0.078799005 0.07960904 0.080886228 0.081816293 0.082595678 0.083757712 0.084971381 0.086033377 0.087522457 0.089376503 0.091004647 0.09279759 0.095105482 0.097062053 0.099118744 0.10132412 0.10363462 0.10631301 0.10892574 0.11185476 0.11466383 0.11774629 0.12056424 0.12357622 0.12643794 0.12932421 0.1322286 0.13478221 0.13700604 0.13935909 0.14171345 0.1441388 0.14627489 0.14927634 0.1512561 0.1537486 0.15570489 0.15785318 0.15927232 0.16046321 0.16147592 0.16215363 0.16244805 0.16165466 0.16045345 0.15834913 0.15652456 0.15387222 0.1511537 0.1479118 0.14470404 0.141272 0.13818459 0.13432197 0.13116729 0.1282599 0.12575836 0.12381883 0.1224474 0.12091919 0.11957672 0.11817252 0.11696075 0.11606648 0.11566117 0.11547452 0.11522754 0.11524511 0.11519525 0.1150592 0.11488993 0.11429854 0.11362604 0.11281171 0.11175836 0.11024948 0.1088898 0.1075949 0.10623514 0.10487137 0.10328738 0.10148618 0.10004783 0.09848304 0.096943799 0.09453416 0.092040228 0.089941079 0.087343844 0.08509325 0.082902316 0.080602717 0.078408732 0.075544458 0.072932534 0.070373648 0.067764998 0.065098913 0.062696053 0.060314974 0.057960262 0.055644304 0.053339639 0.051122923 0.048988766 0.046988571 0.044741079 0.042837549 0.041032211 0.039245947 0.039554772 0.042073893 0.046300569 0.052630602 0.060383178 0.069245201 0.07912346 0.090053554 0.10178929 0.11410388 0.1271421 0.14055221 0.15422696 0.16742026 0.1810226 0.19446182 0.20638959 0.21788211 0.22911151 0.23932514 0.24910483 0.25790025 0.26579363 0.27245125 0.27749643 0.28133245 0.28297255 0.28478721 0.28679338 0.28896755 0.29201 0.29386097 0.29719943 0.3006289 0.30406704 0.30800829 0.30991331 0.31004023 0.30816037 0.30533051 0.30194354 0.29637212 0.29077145 0.2842137 0.2774155 0.26981292 0.26223367 0.25373397 0.24424593 0.23507153 0.22543618 0.21565566 0.20602572 0.19601056 0.18866184 0.17984009 0.17229522 0.16549532 0.16083417 0.15734971 0.15617179 0.15613902 0.1597882 0.16305058 0.16653824 0.16967314 0.17292245 0.17582131 0.17993629 0.18248879 0.18467731 0.18675003 0.18895252 0.19147568 0.19410947 0.19752613 0.2018041 0.20604173 0.21024031 0.21576862 0.2204155 0.22603377 0.23042207 0.23557678 0.23988884 0.24447794 0.24895222 0.25326496 0.25673148 0.2601244 0.26340925 0.26585024 0.2678946 0.27001356 0.27166979 0.27323729 0.27318698 0.2732648 0.27387851 0.27449422 0.274347 0.27411698 0.27425494 0.27297108 0.27113412 0.26862573 0.2657417 0.26410389 0.26105646 0.25571792 0.24786756 0.23940424 0.22966626 0.22052715 0.2110867 0.20175972 0.19137995 0.18059074 0.17060039 0.16048463 0.15036295 0.13978825 0.12937517 0.11942857 0.10878283 0.098505706 0.090208668 0.082866678 0.075052165 0.069334491 0.06408025 0.059740123 0.057811134 0.056131495 0.055145408 0.055171625 0.053525246 0.052224528 0.05056881 0.053475187 0.060050482 0.059661934 0.05835828 0.067669016 0.072261993 0.075669451 0.088457085 0.10036593 0.11237148 0.12646688 0.14190562 0.15875725 0.17525594 0.19427587 0.21357558 0.2320563 0.25091266 0.27082527 0.28992701 0.30896847 0.32831779 0.34747963 0.36671034 0.38566613
0.083333667 0.084137408 0.085016059 0.086268392 0.087346195 0.088469477 0.089341601 0.0907274 0.092188718 0.093691004 0.09585217 0.097482743 0.099164561 0.10101313 0.10306179 0.10556374 0.10780479 0.109945 0.11255265 0.1153663 0.11815473 0.12083017 0.12372818 0.12632518 0.12911229 0.1317534 0.1345112 0.1370042 0.13933176 0.14154669 0.143826 0.14626775 0.14820734 0.15099122 0.15285365 0.15470962 0.15710023 0.15897477 0.16028265 0.16149658 0.16210423 0.16258335 0.16283047 0.16176028 0.16023837 0.15801001 0.15590972 0.15317771 0.15041675 0.14711229 0.14403378 0.14065519 0.13723464 0.13294432 0.12991727 0.12646098 0.12374028 0.12168872 0.11982836 0.11831921 0.11671749 0.11505699 0.11345832 0.11271873 0.11226787 0.11212027 0.1116809 0.11165675 0.11165371 0.11168113 0.1116202 0.11109063 0.11038184 0.1096978 0.10861344 0.1075479 0.10623197 0.10530372 0.10427486 0.10316724 0.10189974 0.10052091 0.099439586 0.098233448 0.096846867 0.095007764 0.092829036 0.09116915 0.088959819 0.086920831 0.0850093 0.082849829 0.080749762 0.078120656 0.075928712 0.073276348 0.070712767 0.067991098 0.065492409 0.063005833 0.060484823 0.058101613 0.055693965 0.053337883 0.051082215 0.048938537 0.04657826 0.044593441 0.042682082 0.040794366 0.040639084 0.042422073 0.045865011 0.051182528 0.057675344 0.065315772 0.073741573 0.083159708 0.093436794 0.10400288 0.11542124 0.12679501 0.13864341 0.15014337 0.16185098 0.17367924 0.18430861 0.19371787 0.20375528 0.21320016 0.22149057 0.22939413 0.23595154 0.2419603 0.24653835 0.24998997 0.25203084 0.25353648 0.25541314 0.25776849 0.26042348 0.26266167 0.26646226 0.26997636 0.27300163 0.27557151 0.27817684 0.2785393 0.27814264 0.27591645 0.27342317 0.26844437 0.26424007 0.25926778 0.25394869 0.24762898 0.24171603 0.23446666 0.22776964 0.22032244 0.21183151 0.2035577 0.19737003 0.18938943 0.18212732 0.17458424 0.16857011 0.16370499 0.15984877 0.157851 0.15689526 0.15729857 0.16071712 0.16396395 0.16757853 0.17071483 0.17380674 0.17672058 0.18068928 0.1832989 0.18550371 0.18749121 0.1896884 0.19236445 0.1956663 0.19933355 0.20308674 0.20644434 0.21156727 0.21563315 0.22135987 0.22524067 0.23098888 0.23436702 0.23835339 0.24229781 0.24647543 0.25050007 0.25364253 0.25670992 0.25973268 0.26218024 0.26463784 0.26683357 0.26803403 0.26988544 0.27066701 0.2705278 0.27035658 0.27052066 0.27078663 0.27031452 0.27026582 0.26875432 0.26562007 0.2626621 0.25998095 0.257943 0.25394437 0.24857629 0.24102564 0.23223043 0.22319705 0.21398392 0.20512315 0.19579648 0.18556793 0.17461645 0.16466373 0.15508595 0.14507809 0.1351867 0.12510451 0.11569078 0.10539065 0.095736908 0.088273618 0.081663048 0.073700661 0.068266461 0.063318487 0.05932888 0.056832206 0.05504721 0.055116795 0.055346509 0.054003396 0.053282433 0.05237675 0.054221657 0.060252468 0.061171742 0.059599605 0.068624444 0.074351761 0.078927664 0.090410191 0.1014189 0.11306274 0.12772768 0.14198594 0.15643475 0.17193044 0.19016645 0.20849879 0.22676688 0.24514774 0.26483072 0.28397112 0.30310054 0.32249192 0.34129228 0.36002018 0.37794318
0.087557663 0.088526471 0.08969395 0.090675763 0.092018499 0.092945536 0.09390065 0.095259302 0.096662631 0.098140444 0.099878956 0.10141473 0.10324052 0.10532942 0.10722712 0.10923694 0.11183568 0.11381999 0.11623641 0.11875517 0.12145072 0.1241029 0.12658219 0.12929383 0.13188999 0.13445519 0.13693099 0.13929101 0.14149606 0.14378511 0.1458535 0.14848639 0.15032442 0.15263239 0.15454677 0.15631758 0.15850998 0.16030414 0.16168671 0.16241473 0.16300119 0.1628261 0.16260183 0.16208781 0.16035454 0.15803083 0.15551881 0.15279747 0.15004132 0.14667866 0.14327933 0.13997679 0.13674048 0.1322555 0.12854714 0.12518406 0.12197614 0.11966354 0.11768143 0.11587191 0.11398299 0.11218101 0.11060809 0.1099395 0.10945784 0.10928807 0.10910877 0.1087587 0.10861248 0.10867846 0.10865873 0.10797925 0.10727882 0.10680129 0.10596864 0.10513409 0.10441795 0.10358427 0.10268191 0.10166205 0.10075167 0.099822971 0.098930576 0.097916746 0.096969799 0.095361476 0.093998999 0.092265122 0.090203408 0.088634658 0.087002506 0.084859126 0.082847487 0.080795085 0.078118916 0.075782021 0.073228024 0.070479898 0.067967732 0.065329717 0.062651026 0.060151709 0.057678908 0.055229293 0.052859939 0.050620496 0.04805332 0.045956012 0.043654538 0.041693008 0.041306501 0.042530489 0.045239463 0.049568698 0.055039321 0.061489416 0.068830596 0.076878524 0.085498798 0.09469278 0.10415013 0.11406736 0.12417197 0.13410006 0.14432151 0.15400135 0.16322149 0.17177648 0.17993683 0.18796124 0.19601724 0.20237154 0.2084813 0.21370577 0.21802177 0.221547 0.22311144 0.22501745 0.22706263 0.22957471 0.23208946 0.23448369 0.23788009 0.24073492 0.24399687 0.24683354 0.24882864 0.24984928 0.24983029 0.24929165 0.24734082 0.24472231 0.24127156 0.2372796 0.23336508 0.22880512 0.22385118 0.2185314 0.21251244 0.20654403 0.20040977 0.19432283 0.18789934 0.18123644 0.17560746 0.17023751 0.16568595 0.1620924 0.15971625 0.15800385 0.15741335 0.15809675 0.16140353 0.16525742 0.16858468 0.17187365 0.17493062 0.17819454 0.18147213 0.18404791 0.18623863 0.18820225 0.19136705 0.19464902 0.19753271 0.20090622 0.20358821 0.2082767 0.21150858 0.2171721 0.22168644 0.22613209 0.22974605 0.23325828 0.2364218 0.23978266 0.24366312 0.24714205 0.2503582 0.25312841 0.25601641 0.25814593 0.26067815 0.26248785 0.26419038 0.26575741 0.26639762 0.26628463 0.26638701 0.26671433 0.26634481 0.26528675 0.26439234 0.26262796 0.25947855 0.25611016 0.25328398 0.25032175 0.24550876 0.23948554 0.23262779 0.22437355 0.21582387 0.20674021 0.19841554 0.18873114 0.17811116 0.1675899 0.15796609 0.14875424 0.13944733 0.13010985 0.12038713 0.11168253 0.10215331 0.092704817 0.085246311 0.079082796 0.071684837 0.066080597 0.061224086 0.058133148 0.055898859 0.054433567 0.054250609 0.054782629 0.053735988 0.05245378 0.052891629 0.055056862 0.059315959 0.061630591 0.061750566 0.06917154 0.074012365 0.077451998 0.087756598 0.098964958 0.11162064 0.12741047 0.14135516 0.15555672 0.17100071 0.18813043 0.2052803 0.22262099 0.24050578 0.25914682 0.27781426 0.29654129 0.31610747 0.33501324 0.35276618 0.36982498
0.091955666 0.093104779 0.093984184 0.095321482 0.096161535 0.097027938 0.098317839 0.099644925 0.10092757 0.1024076 0.10409694 0.10581861 0.10747484 0.1092488 0.11117965 0.11325735 0.11557404 0.11791843 0.11996356 0.12236615 0.12482857 0.12732273 0.12970935 0.13218422 0.13470358 0.13721009 0.13950332 0.14176479 0.1439902 0.1461064 0.14814687 0.15036922 0.15226657 0.15454996 0.15620536 0.1581413 0.15988308 0.16133439 0.1625768 0.16348561 0.16368666 0.16363269 0.16321852 0.16264283 0.16066157 0.15813 0.15563043 0.15270684 0.14942701 0.14640828 0.14301213 0.13952427 0.13610688 0.13130224 0.12766667 0.1241214 0.12066226 0.11799114 0.11585439 0.11379547 0.11173278 0.10980126 0.10846756 0.10774263 0.1073492 0.10711941 0.10705039 0.10670922 0.10621836 0.10596088 0.10591507 0.1055187 0.10463151 0.10400727 0.10354104 0.10293749 0.10205742 0.10192143 0.10106029 0.10033428 0.099755989 0.099148459 0.098700738 0.097816871 0.097116372 0.095730341 0.094699408 0.09327078 0.091382463 0.089869048 0.088248737 0.08648122 0.084594485 0.082483247 0.080347437 0.077809693 0.075411123 0.072554339 0.070022021 0.06730316 0.064481599 0.061854055 0.059283732 0.056765879 0.054317211 0.052037697 0.049318543 0.04671525 0.04470149 0.042576906 0.04164426 0.042396759 0.044673279 0.047943548 0.052507409 0.057759303 0.063792658 0.07038906 0.077837831 0.085798528 0.093810784 0.10219025 0.11073114 0.11936618 0.12785159 0.13617114 0.14406923 0.15136044 0.15861103 0.16529847 0.17212157 0.17797409 0.18343981 0.18792127 0.19211583 0.19474242 0.19715206 0.19892854 0.20095628 0.20268077 0.20526692 0.20798527 0.21037196 0.21349215 0.21621567 0.21905257 0.22107795 0.22256802 0.22329031 0.22332021 0.22257317 0.22120333 0.21934643 0.21651566 0.21320983 0.20973647 0.20588219 0.20170746 0.19725239 0.19263788 0.18807526 0.18349842 0.17945066 0.17527316 0.17118665 0.16753789 0.16415991 0.16126298 0.15923484 0.15816602 0.15865838 0.15984778 0.1626424 0.16589377 0.16967655 0.1729695 0.17647483 0.17930359 0.18234579 0.18482723 0.18746197 0.19092918 0.19383936 0.19657658 0.19934694 0.20267323 0.20579319 0.20850198 0.21379594 0.2192291 0.22198986 0.22515755 0.22899655 0.2315601 0.2345251 0.23771499 0.24084123 0.24401025 0.24692347 0.24951957 0.25291868 0.25478861 0.25666979 0.25772631 0.25950081 0.26077182 0.26148597 0.26155806 0.26157702 0.26148665 0.26083749 0.25866462 0.25668368 0.25456115 0.25172838 0.24788547 0.24531504 0.24114331 0.23614328 0.22999055 0.22312298 0.21581092 0.20781963 0.19843412 0.19002758 0.18003824 0.16948907 0.15937432 0.15039008 0.14179245 0.13290315 0.12391362 0.11468082 0.10685017 0.098056812 0.089793338 0.082022815 0.075524424 0.069080623 0.063986915 0.059390512 0.056482635 0.054186321 0.052905034 0.052606999 0.053055656 0.052503737 0.05219487 0.053283088 0.054719696 0.05785989 0.06137186 0.063064675 0.067516647 0.072152251 0.077494595 0.086455754 0.097691825 0.1095501 0.12307966 0.13673265 0.15092655 0.16592702 0.18310656 0.20008988 0.21668773 0.23476695 0.25322319 0.27123759 0.29014277 0.30942873 0.32772415 0.34509683 0.36196478
0.096101175 0.096940762 0.098198613 0.098924422 0.10006428 0.10157035 0.1023898 0.10376473 0.10512249 0.10671039 0.10805731 0.10990008 0.11156677 0.11332218 0.11505276 0.11696714 0.11921207 0.12143096 0.12372169 0.12567667 0.12843592 0.13072145 0.13296056 0.13531503 0.1376511 0.13990088 0.14212622 0.14445604 0.14635541 0.14842271 0.15047909 0.15260888 0.15410552 0.15617185 0.1583711 0.15997029 0.16148496 0.16313864 0.16403912 0.16439574 0.16473224 0.16443529 0.16401259 0.16274657 0.16088785 0.1585463 0.1559372 0.15293475 0.14941025 0.14603517 0.14264516 0.13913088 0.13563373 0.13080583 0.12706642 0.12316662 0.11974122 0.11668727 0.11445531 0.11214729 0.1102636 0.10782035 0.10648964 0.10572541 0.10553563 0.10531115 0.10523439 0.105037 0.10476409 0.10462856 0.1045275 0.10406986 0.10353589 0.10242242 0.10176708 0.10127181 0.10075331 0.10070956 0.10043223 0.099352787 0.099058716 0.098832113 0.098686099 0.098115353 0.097556803 0.096916542 0.095588024 0.094393505 0.092483099 0.090846924 0.089431421 0.087814927 0.086051814 0.084060429 0.08200895 0.079779096 0.076937954 0.074211986 0.071606539 0.068897719 0.065960892 0.063226591 0.060535263 0.057909372 0.054989495 0.05253681 0.049946241 0.047730204 0.045205375 0.042728928 0.041421343 0.042223806 0.043684551 0.046159154 0.049865219 0.054195663 0.059168901 0.064758157 0.070775106 0.077230427 0.084155134 0.091271982 0.09837159 0.10572593 0.11291711 0.12002087 0.12682127 0.13291877 0.13905286 0.14482448 0.15030911 0.15568435 0.1601408 0.16448985 0.16783012 0.17098718 0.17262793 0.17453967 0.17646588 0.17847367 0.18054198 0.18324429 0.18555257 0.18852129 0.19122159 0.19419087 0.19644854 0.19824279 0.19926327 0.19966644 0.19985842 0.19911337 0.19840265 0.1970725 0.19458557 0.19219008 0.18984714 0.1868954 0.18403559 0.18101949 0.17781365 0.17472041 0.17108989 0.16828516 0.16645226 0.16329486 0.16116903 0.15950863 0.15852609 0.15794213 0.15840474 0.15990289 0.16448972 0.16661556 0.17219372 0.17454237 0.17753459 0.18089606 0.18331019 0.18655124 0.19033374 0.19332006 0.19573532 0.19829655 0.20117459 0.20392106 0.20761269 0.21125873 0.2141251 0.21885944 0.22141377 0.22496994 0.22774336 0.22990734 0.23251057 0.23543121 0.23807186 0.2409534 0.24347502 0.24589191 0.24934792 0.25098211 0.25260506 0.2542274 0.25481822 0.25548962 0.25582786 0.25584837 0.25569226 0.25502452 0.25417617 0.25055527 0.24788738 0.24521493 0.24262045 0.23914762 0.23644787 0.23279234 0.22727342 0.22046953 0.21327291 0.20554545 0.19782315 0.18916426 0.18044099 0.17073564 0.16057042 0.15071029 0.14259976 0.13466381 0.12622164 0.11756029 0.10890697 0.10097525 0.092924276 0.085373216 0.078568888 0.072368612 0.066315782 0.061573843 0.05737523 0.05470235 0.052333883 0.050946722 0.050652888 0.051108904 0.051160296 0.051771568 0.052815968 0.054139152 0.056601044 0.060378371 0.062931874 0.066227897 0.071218137 0.077254501 0.08652834 0.096201456 0.10706269 0.11934743 0.13231492 0.14586037 0.16079167 0.17727534 0.19374011 0.20996932 0.22820035 0.24637311 0.2642514 0.28346344 0.30197148 0.31950205 0.33697082 0.35401914
0.10029084 0.10095947 0.10222643 0.10337713 0.10434228 0.10543283 0.10657057 0.10777372 0.10933044 0.11076151 0.11228289 0.11392457 0.11554288 0.11731356 0.1193356 0.12112798 0.12306661 0.12527915 0.12731451 0.12920614 0.13195302 0.13395824 0.13631693 0.13842841 0.14048349 0.14257752 0.14487178 0.14726549 0.14897361 0.15089847 0.15266658 0.1548568 0.15646246 0.15808545 0.16020382 0.16201271 0.16294321 0.16440403 0.16513828 0.16566858 0.1657447 0.16523569 0.16438153 0.16342664 0.16137059 0.15882342 0.15642753 0.15332317 0.14964437 0.14615195 0.14255548 0.13905814 0.13556007 0.13059358 0.12696318 0.12306705 0.11944583 0.11640473 0.11391359 0.1112933 0.1092519 0.10689206 0.10562229 0.10466095 0.10449097 0.1042544 0.10404109 0.10393319 0.10373255 0.10344819 0.10334017 0.10288618 0.1023988 0.10165556 0.10091469 0.10050783 0.1002002 0.10022816 0.10025566 0.10026715 0.1001766 0.1000651 0.09890782 0.098560265 0.098180793 0.097454938 0.096429681 0.095242218 0.093647534 0.091816861 0.090464381 0.088980821 0.087253507 0.085371113 0.083337215 0.08114083 0.078755081 0.075922803 0.073124634 0.070023879 0.067104794 0.064253813 0.06142267 0.057907822 0.055226457 0.052967194 0.050437541 0.047407689 0.044627485 0.042699247 0.040962702 0.040957073 0.042173614 0.044051826 0.046949211 0.05045546 0.054428538 0.058984181 0.063909047 0.069422814 0.075255869 0.081219707 0.087274973 0.093543705 0.09956418 0.10543821 0.11114869 0.11637649 0.12138402 0.12641483 0.13110877 0.13577492 0.13961317 0.14377697 0.14690044 0.14912702 0.15068196 0.15237201 0.15414339 0.15618075 0.15857622 0.16079139 0.16331042 0.16558291 0.16855431 0.17088924 0.17340608 0.17533243 0.17656601 0.17750301 0.17818875 0.17858164 0.17882025 0.17853312 0.17716836 0.17556676 0.17407264 0.17246202 0.17093536 0.16931072 0.16747281 0.16561606 0.16442038 0.16329036 0.16125598 0.15932719 0.15842266 0.15790983 0.15766207 0.15808878 0.15911137 0.16279306 0.16527603 0.17105071 0.17363413 0.17698051 0.17919554 0.18179133 0.18527713 0.18934167 0.192534 0.19506948 0.1973284 0.20023628 0.20246775 0.20726807 0.20932868 0.21180556 0.21466519 0.21973634 0.22183199 0.22407916 0.22645648 0.22816041 0.23049717 0.23313384 0.23556762 0.23785206 0.23986811 0.24206691 0.24599628 0.24767421 0.24888211 0.24931057 0.2496922 0.24995179 0.24984639 0.24964216 0.24910247 0.24707085 0.2453467 0.24216527 0.23890022 0.23551067 0.23282173 0.23041889 0.22722372 0.22387719 0.21802628 0.21071928 0.20304029 0.19518024 0.18743225 0.17890795 0.17025852 0.16091044 0.1513342 0.14206724 0.13409614 0.12685711 0.11878317 0.11069036 0.10294388 0.095369331 0.087929642 0.081149226 0.075220547 0.069186359 0.063337319 0.058815408 0.055107512 0.052501372 0.050313753 0.048949318 0.049227837 0.049560678 0.049956901 0.051105554 0.052121625 0.053541624 0.055763439 0.059167268 0.061977127 0.064902587 0.069864139 0.07657407 0.083775182 0.09302148 0.10389305 0.11591433 0.12844454 0.14171178 0.15621684 0.1720368 0.18798424 0.20414578 0.22179578 0.23944271 0.25719576 0.27563551 0.29358457 0.31073503 0.32830793 0.34568402
0.10417571 0.10499241 0.10606863 0.10747013 0.10866979 0.1093534 0.11044808 0.11172388 0.11345257 0.11483394 0.11622635 0.11805176 0.11959382 0.12117464 0.12279848 0.12479589 0.12660217 0.12893575 0.13065663 0.13276612 0.13538141 0.13731384 0.13935054 0.14140412 0.14333478 0.1455332 0.14735392 0.14934066 0.15150367 0.15344276 0.15496449 0.15677263 0.15850271 0.16016206 0.16210872 0.16361988 0.16439244 0.16564269 0.16632281 0.16664915 0.16652871 0.16574762 0.16499479 0.16364608 0.16189977 0.15941885 0.15665992 0.15396518 0.15018917 0.14663742 0.14293676 0.13927911 0.13581508 0.13133009 0.12745007 0.12356718 0.12000314 0.11678315 0.11407074 0.11125373 0.10914703 0.10730564 0.10539819 0.10442105 0.10421907 0.1039741 0.10376102 0.10364416 0.10352941 0.10335201 0.10350633 0.10280683 0.10226048 0.10160667 0.10082382 0.10075284 0.10042332 0.10058981 0.10069768 0.10078654 0.10079682 0.1005176 0.10060769 0.09926766 0.098989696 0.098504101 0.097397334 0.096372034 0.095081303 0.093067744 0.091438174 0.090014314 0.088352483 0.086469357 0.084419686 0.082196297 0.079789089 0.076906479 0.074171376 0.071123074 0.067953374 0.064927432 0.061321365 0.05855909 0.055779528 0.05314591 0.049623982 0.046223892 0.044138363 0.041836539 0.040597104 0.040457064 0.040790154 0.042146152 0.044315131 0.047085424 0.050243129 0.053905679 0.057897473 0.062160685 0.066743655 0.071734098 0.076899803 0.081969071 0.087226418 0.092473811 0.097490271 0.10163099 0.10582143 0.10981587 0.11390412 0.11787141 0.12149428 0.12484967 0.12768063 0.12968027 0.1311389 0.13283292 0.1348697 0.13669301 0.13888109 0.14118114 0.14355191 0.14561432 0.14824599 0.15102418 0.15330232 0.15518735 0.1568994 0.15835196 0.15947938 0.160607 0.16129192 0.16176905 0.16121449 0.160691 0.16135172 0.16109066 0.16059668 0.16006598 0.15952362 0.15884699 0.15772355 0.15751761 0.15728978 0.1571601 0.15718278 0.1574209 0.1579596 0.15873329 0.15988811 0.16269253 0.1654759 0.17129042 0.17409157 0.17851729 0.18157703 0.18368449 0.18800298 0.19133949 0.19412375 0.19645234 0.19922902 0.2014234 0.2037735 0.20786629 0.21002659 0.21260088 0.21538948 0.21934862 0.22134283 0.2232897 0.225182 0.22643823 0.22838076 0.23046833 0.23280573 0.23482637 0.23673157 0.23894955 0.24206488 0.24340053 0.24424531 0.24432827 0.24442446 0.2439707 0.2431813 0.24196022 0.24104161 0.23889256 0.23676898 0.23347866 0.2303681 0.2271661 0.22408142 0.22071752 0.21690822 0.21384 0.20807404 0.20158567 0.19332611 0.18518266 0.17691502 0.1688187 0.16022886 0.15143143 0.14228654 0.13351349 0.12575842 0.11841242 0.11102777 0.1037919 0.096537297 0.089874476 0.082965439 0.076600341 0.070898689 0.065537407 0.060309535 0.056203104 0.052851619 0.050355145 0.04815368 0.046979245 0.047312118 0.047907049 0.048829613 0.049803964 0.050695467 0.052106206 0.053993456 0.056968365 0.060015107 0.062778553 0.067828649 0.073583233 0.08120651 0.089977643 0.10037748 0.11195966 0.12406188 0.13637526 0.15035571 0.16568296 0.18189894 0.19825929 0.21566535 0.23290373 0.25016391 0.26758645 0.28524769 0.30233265 0.3199567 0.33804397
0.10835042 0.10906023 0.10991071 0.11111525 0.11260476 0.11326228 0.11434601 0.11542017 0.11689081 0.11898825 0.12034016 0.12195546 0.12341514 0.12488975 0.1263981 0.12805907 0.1302557 0.1326114 0.13427211 0.13624365 0.13794185 0.14054764 0.14242777 0.14467316 0.14637563 0.14804852 0.14997694 0.15212227 0.15388706 0.15587204 0.1573346 0.15886904 0.1604966 0.1621056 0.16360849 0.16507996 0.1659502 0.16709108 0.16797103 0.16796606 0.16772877 0.1670196 0.16599753 0.16435735 0.16251364 0.1601442 0.1573975 0.15425222 0.15074069 0.14736992 0.14369814 0.1400537 0.13631004 0.13218815 0.12832198 0.12467973 0.12111162 0.1178596 0.11507322 0.11242259 0.10990119 0.10805412 0.10660361 0.10559546 0.10534499 0.1050754 0.10483568 0.10468939 0.10436997 0.10419498 0.10410587 0.10359923 0.10313227 0.10243627 0.10196847 0.10169367 0.1015725 0.10175779 0.10165322 0.10173224 0.10182717 0.10185352 0.10184167 0.10166167 0.10149701 0.09973167 0.099019203 0.097555878 0.096190663 0.094386121 0.092540623 0.090923953 0.089268209 0.087381792 0.085273917 0.082968399 0.080495376 0.077539175 0.074720761 0.071719834 0.068317098 0.064871448 0.061575683 0.058550878 0.055217472 0.052701474 0.049757743 0.046040547 0.043849428 0.041429843 0.040158462 0.039303467 0.039173866 0.039875908 0.041456748 0.043559418 0.04606479 0.04917384 0.052233402 0.055660296 0.059677838 0.063768779 0.067995426 0.072267659 0.076587588 0.080904193 0.085202592 0.088853078 0.092086597 0.095603857 0.099167069 0.10263724 0.1055558 0.10837437 0.11091623 0.11280738 0.11429996 0.11600062 0.11791446 0.11982677 0.12186885 0.12409121 0.12599862 0.12853377 0.13098193 0.13359176 0.13584512 0.1380506 0.13986607 0.1416257 0.14333168 0.14489351 0.14570952 0.14721881 0.14797624 0.14861514 0.14932746 0.14990257 0.15045238 0.15097867 0.1513672 0.15174904 0.15267114 0.15206943 0.15279164 0.15369139 0.15476567 0.15595793 0.15723386 0.1587474 0.16105133 0.16354252 0.16954717 0.17276505 0.17748434 0.18082896 0.18440733 0.18636306 0.18984704 0.1929105 0.19531671 0.19841556 0.20030869 0.20261812 0.20491073 0.20861093 0.21097188 0.21359531 0.21595457 0.21905006 0.2208067 0.22243552 0.22395813 0.22477316 0.22628557 0.22790838 0.23007734 0.23184507 0.23352665 0.23531818 0.23772497 0.23841587 0.23903859 0.23843902 0.23853712 0.23736315 0.23624188 0.23404349 0.23215818 0.23030494 0.22814265 0.22517988 0.22220622 0.21853281 0.21440113 0.21051016 0.20666918 0.20325562 0.19790979 0.19139558 0.18343449 0.17508924 0.16620053 0.15809764 0.14979416 0.14152666 0.13333093 0.12490153 0.11721614 0.11011135 0.10341727 0.096794498 0.090140936 0.084092592 0.077946082 0.072112338 0.066713633 0.061921024 0.057116352 0.053206172 0.050211729 0.047777837 0.045894007 0.045047287 0.045344996 0.045846181 0.047002445 0.047962141 0.048778928 0.050286409 0.052160185 0.054911762 0.057708538 0.059805072 0.063957775 0.06985466 0.076801144 0.08608522 0.096075203 0.10740124 0.11948094 0.1319704 0.14518363 0.16012927 0.17584145 0.1919658 0.20945514 0.22670825 0.24370675 0.26069525 0.27777209 0.29498438 0.31293171 0.33158241
0.112626 0.11328032 0.11384908 0.114798 0.1160635 0.11709745 0.1180789 0.11923694 0.1206927 0.12217602 0.12423001 0.12555474 0.12695681 0.12806935 0.1299432 0.13144897 0.133079 0.1353541 0.13772839 0.13939862 0.14126097 0.14327851 0.1453393 0.14721316 0.14912846 0.15084401 0.15255146 0.15453523 0.15642622 0.15774344 0.1594289 0.16098948 0.16240257 0.16406582 0.16556503 0.16671132 0.16753144 0.16865416 0.16914666 0.16949101 0.16901743 0.16793081 0.16699185 0.16541515 0.16341945 0.16110633 0.158277 0.15521068 0.15152632 0.14824394 0.14470673 0.14116431 0.13744354 0.1337025 0.12995684 0.12638526 0.12299305 0.11973026 0.11700758 0.11428683 0.11203791 0.11015602 0.1086648 0.10745046 0.10711669 0.1067961 0.10652861 0.10634886 0.10596417 0.10610065 0.10584194 0.10529026 0.10482953 0.10417909 0.10367964 0.10339736 0.1032605 0.10342 0.10356341 0.10316517 0.1032679 0.10314264 0.10317556 0.10292625 0.10273694 0.10182746 0.10024461 0.098990875 0.097408937 0.095669061 0.093680815 0.091894791 0.08997958 0.088049505 0.085861796 0.083463403 0.080889982 0.077836697 0.074890166 0.071759057 0.067994607 0.064936226 0.06189915 0.058467933 0.054776502 0.051921732 0.049417991 0.045957895 0.043736422 0.041212234 0.039244478 0.037978438 0.037525954 0.038116306 0.039185031 0.040700942 0.042620661 0.044766975 0.047263683 0.050001809 0.053290482 0.056652991 0.060219281 0.06382504 0.067464736 0.071182214 0.074689298 0.077646622 0.080457869 0.083296728 0.086487249 0.089404885 0.092091019 0.094555645 0.096790859 0.09833803 0.099845689 0.10153569 0.1033061 0.10522499 0.10729063 0.10947971 0.1118347 0.11417303 0.11671513 0.11923409 0.12166791 0.12384868 0.12597092 0.12807351 0.13009367 0.13105828 0.13300222 0.13420509 0.13632822 0.13782521 0.13925427 0.14064033 0.14195083 0.14331824 0.14464312 0.14580542 0.14771325 0.14936218 0.15097313 0.15260124 0.1542915 0.1560618 0.15787406 0.15976427 0.16175342 0.16751953 0.17104739 0.17599717 0.1797152 0.18230189 0.18600263 0.18801225 0.19147817 0.19390249 0.19742543 0.19940104 0.20151383 0.20363858 0.20621919 0.20968107 0.21222751 0.21441795 0.21634268 0.21882779 0.22034076 0.22166057 0.22280374 0.22322095 0.22428337 0.22559772 0.22722905 0.2286239 0.23039882 0.23170517 0.23313791 0.2331426 0.23386312 0.23288516 0.23233558 0.23100882 0.22859257 0.22588898 0.22352355 0.22213155 0.2201253 0.21680348 0.2136492 0.20940585 0.20487964 0.20052249 0.1962667 0.19252779 0.1878568 0.18165256 0.17398577 0.16539389 0.15584512 0.14744519 0.13919253 0.1317041 0.12406987 0.11612751 0.10878968 0.1021191 0.096017413 0.090401974 0.083833986 0.078025501 0.072688869 0.067205552 0.062350464 0.057989325 0.053966052 0.050442572 0.047331417 0.045060614 0.043506676 0.042520701 0.042808974 0.043496089 0.044705747 0.045568125 0.046405005 0.047861538 0.049535256 0.052171167 0.054876939 0.056786479 0.060391119 0.065603315 0.072552786 0.081602444 0.091473661 0.10275133 0.11483715 0.12689537 0.13972778 0.15421906 0.16943044 0.18582555 0.20282753 0.2199653 0.23677528 0.25391543 0.27114805 0.28902821 0.3069581 0.32528691
0.11634482 0.11679246 0.11738987 0.11832724 0.11945612 0.12068007 0.12166074 0.12296735 0.124108 0.125644 0.1269129 0.12797179 0.12978163 0.13124412 0.13281835 0.13470803 0.13647691 0.13822044 0.14018542 0.14249717 0.14412495 0.14616807 0.1477039 0.14968809 0.15132901 0.15272956 0.15492956 0.15665556 0.15831256 0.15993158 0.16147701 0.16293949 0.16459023 0.16572439 0.16701471 0.16791776 0.16887938 0.17009228 0.17018094 0.17056157 0.16998371 0.16910792 0.16807432 0.16657152 0.16452578 0.16235045 0.15940019 0.15619139 0.15317172 0.14980308 0.14641617 0.14286758 0.13934988 0.1355822 0.13190227 0.12842928 0.12509407 0.12198217 0.11927781 0.11687147 0.11435588 0.11246636 0.11104172 0.11010096 0.10974927 0.1094181 0.10912216 0.1089231 0.10880428 0.10861721 0.1086138 0.10810281 0.1072983 0.10660373 0.10605706 0.10567806 0.10545869 0.10553889 0.10562178 0.10564118 0.10503194 0.1047682 0.10481019 0.10432948 0.10397025 0.10292403 0.10120687 0.10035736 0.098764733 0.096835655 0.094782495 0.092794969 0.090738136 0.088819385 0.08655746 0.08404667 0.081293755 0.078066997 0.074902115 0.0713703 0.06793122 0.064820544 0.061369474 0.058116677 0.055148888 0.0520583 0.049381604 0.045509852 0.042857344 0.040060063 0.03800986 0.036363881 0.035705149 0.035706608 0.036589807 0.037867614 0.038873401 0.040817385 0.042809168 0.044992932 0.047790912 0.050413997 0.053432469 0.056596389 0.059648841 0.062991162 0.066024776 0.068318055 0.070864406 0.073258999 0.076063789 0.078578737 0.080964384 0.083236558 0.085283711 0.087033264 0.088518148 0.090174238 0.091966548 0.09384656 0.095959108 0.097744047 0.099985239 0.10235511 0.10483276 0.10739149 0.10979794 0.11219516 0.11449885 0.11696042 0.11882806 0.12067123 0.12291701 0.12438598 0.1274492 0.12950436 0.13153789 0.13355722 0.13552556 0.1375635 0.13950023 0.1413633 0.14390049 0.1463558 0.14872617 0.15114336 0.15352819 0.15597644 0.15842975 0.16070391 0.16295682 0.1675343 0.17127317 0.17635086 0.18016781 0.18308975 0.18778637 0.18994762 0.19413517 0.19648149 0.19853768 0.20092211 0.20280462 0.20518304 0.20883472 0.21140357 0.21360094 0.21536501 0.21720769 0.21893248 0.22015486 0.22112108 0.22194895 0.22211889 0.22276712 0.22367768 0.22461105 0.22568343 0.22708576 0.22811139 0.22864548 0.22788251 0.22785646 0.22740206 0.22651033 0.22435726 0.22185369 0.21892558 0.215986 0.21430087 0.21182082 0.20800502 0.20433411 0.19967891 0.19584626 0.1916291 0.18731208 0.18335463 0.17835498 0.17197972 0.16432231 0.15587397 0.14679543 0.13789148 0.12904389 0.1214556 0.1141738 0.10746864 0.10125843 0.095394039 0.089793967 0.084403412 0.078261667 0.07226775 0.067208276 0.062157744 0.0576306 0.053844995 0.050397447 0.047432486 0.044516101 0.042196101 0.040454547 0.039558609 0.040122811 0.041312584 0.042218876 0.042822905 0.043755748 0.045051666 0.046956156 0.049367526 0.051690368 0.053306132 0.056940588 0.062048952 0.06879593 0.077335028 0.086870108 0.097960977 0.10963899 0.12160345 0.13458449 0.14881514 0.16391614 0.18005839 0.1967632 0.2137369 0.23040484 0.24752521 0.26475319 0.28304344 0.30091409 0.31883694
0.11975079 0.12052639 0.12130719 0.12226181 0.12324116 0.12441528 0.12574706 0.12648782 0.12781352 0.12900732 0.13042434 0.13163791 0.13307142 0.13432132 0.1357893 0.13744798 0.13978136 0.14135163 0.14299119 0.14470647 0.14624877 0.14854544 0.15053064 0.15197361 0.15370502 0.15521385 0.1572214 0.15879215 0.16057109 0.16214157 0.16387236 0.16482579 0.16655119 0.16789693 0.16871216 0.16924543 0.17028555 0.17139635 0.17148765 0.17174776 0.17132378 0.17064609 0.16947581 0.16790207 0.16585355 0.16372216 0.16090004 0.15792817 0.15498382 0.15168069 0.14852818 0.14498739 0.1413796 0.1379048 0.13430091 0.13114898 0.12794492 0.12514113 0.12256141 0.12017076 0.1181665 0.11600903 0.11443601 0.11353699 0.11312746 0.11278248 0.11245126 0.11222757 0.11208971 0.11189347 0.11180391 0.11148192 0.1103959 0.10963128 0.10904292 0.10857685 0.10820886 0.10801246 0.10787566 0.10781328 0.10760485 0.10723861 0.1069734 0.1059471 0.10490801 0.10412218 0.10319931 0.10126465 0.099535961 0.097798691 0.095754976 0.093576337 0.091383431 0.089313812 0.087022039 0.08442749 0.081547073 0.078050195 0.074605356 0.071131719 0.067651815 0.064404968 0.060979645 0.057636665 0.054465004 0.051204004 0.048209464 0.045203503 0.042499686 0.039324517 0.037143234 0.035316985 0.034423357 0.034073052 0.034300359 0.03492803 0.036066755 0.03723652 0.038748234 0.04076278 0.04297071 0.045303098 0.047858846 0.050479843 0.053281119 0.056004982 0.058774121 0.060934303 0.06295813 0.065182503 0.067621971 0.069883997 0.07207387 0.074190762 0.076149183 0.077887995 0.079393204 0.081021538 0.082806489 0.084795009 0.086836429 0.088969539 0.091241043 0.093623406 0.096087328 0.098656433 0.10121844 0.10378979 0.10638172 0.10892091 0.11035457 0.11297024 0.11485493 0.11859996 0.12102364 0.12345625 0.12588283 0.12835416 0.13086013 0.13333254 0.13574813 0.1393198 0.14253678 0.14558353 0.1485893 0.15158483 0.1546208 0.15761519 0.16062154 0.16357887 0.16752888 0.17031168 0.17433491 0.17834904 0.1816344 0.18660023 0.18920943 0.19139123 0.19506959 0.1972596 0.19994376 0.20212031 0.20413791 0.20778242 0.21043074 0.21275239 0.21448962 0.21632942 0.21792761 0.21889584 0.21985293 0.22042789 0.22104449 0.22089499 0.22115444 0.22167394 0.22191818 0.22238747 0.2234105 0.22412455 0.22430763 0.2232402 0.22233709 0.22147247 0.22003779 0.2175415 0.21498209 0.211703 0.20853058 0.20591799 0.20256733 0.19816655 0.19472775 0.19018117 0.18717297 0.18344509 0.1793366 0.17457618 0.16940857 0.1624502 0.15507768 0.14663625 0.13773298 0.12866313 0.119808 0.11219526 0.10568489 0.09980198 0.094350662 0.089095881 0.083426983 0.077992331 0.072257187 0.06655653 0.061839332 0.057371925 0.053249823 0.049953467 0.046761787 0.044238854 0.041296156 0.039146231 0.03766509 0.03660281 0.036946316 0.038086003 0.038861541 0.03969322 0.040866373 0.042494182 0.044463234 0.045828974 0.047811602 0.049917191 0.053438723 0.058530865 0.065221297 0.073326899 0.08253509 0.09295864 0.10448091 0.11647783 0.12948913 0.14365015 0.15887188 0.17481632 0.19110677 0.20779893 0.22429251 0.24111082 0.25821849 0.27623863 0.29422263 0.31203174
0.12387088 0.12451211 0.12524496 0.12604972 0.1270115 0.12789419 0.12969862 0.13046824 0.13133002 0.1324704 0.1336768 0.13506464 0.13604013 0.1374734 0.13865561 0.14011417 0.14164326 0.14407634 0.1457772 0.14739365 0.14903978 0.15050686 0.15278358 0.15464746 0.15609159 0.1577132 0.15951234 0.16100878 0.16295203 0.16442481 0.16592105 0.16695442 0.16832791 0.1696684 0.17028864 0.17080195 0.17200657 0.17311431 0.17267993 0.17277914 0.17235707 0.17172413 0.17080986 0.1691792 0.16731549 0.16520557 0.16248942 0.15970607 0.15688166 0.15375818 0.15060409 0.14767362 0.14434045 0.14101637 0.13714662 0.13414097 0.13136056 0.12871625 0.12598433 0.1237866 0.12189244 0.12006862 0.11830699 0.11772386 0.11722104 0.11720297 0.11641649 0.11619242 0.11601594 0.11579801 0.11567184 0.11528395 0.11466975 0.11365016 0.11303651 0.11251041 0.11211661 0.11178935 0.11150911 0.11105531 0.11061359 0.10992931 0.10932797 0.10834433 0.10664228 0.10550097 0.10441482 0.10262288 0.10093175 0.098717226 0.096537206 0.09425177 0.091928897 0.089672922 0.087225154 0.084569257 0.081625924 0.077818374 0.074400343 0.070948969 0.067410011 0.063921104 0.060443829 0.057020582 0.053529834 0.050426811 0.047358817 0.044132231 0.041085451 0.038240609 0.03548099 0.033842291 0.032800531 0.032322323 0.032271235 0.03284155 0.033270098 0.034222541 0.035429056 0.037070835 0.038889616 0.04095983 0.043109231 0.045419156 0.047872367 0.050668766 0.052812825 0.054805967 0.056750135 0.058826354 0.060920692 0.063043412 0.065162165 0.067230873 0.069191783 0.070996935 0.072631997 0.074354767 0.076224479 0.078428526 0.080496558 0.082706905 0.085027268 0.087425614 0.089999529 0.092624141 0.095308474 0.098031879 0.10078695 0.10363018 0.10641195 0.10758806 0.11160785 0.1142395 0.11688035 0.11957584 0.12226472 0.12500033 0.12778719 0.13058779 0.13435735 0.13722412 0.14080655 0.14421514 0.14755913 0.15088079 0.15427932 0.15767379 0.16103317 0.16420896 0.16726692 0.17189961 0.17720524 0.17963296 0.18476392 0.18769376 0.19032959 0.19437066 0.19700061 0.19857495 0.20105193 0.2033175 0.2068419 0.20928131 0.21171652 0.21358674 0.21542644 0.21720201 0.21803922 0.21895012 0.21932386 0.21968639 0.22010978 0.21982353 0.21953052 0.21965253 0.21928284 0.21924241 0.21972715 0.21995586 0.22007958 0.21901912 0.21746324 0.21573921 0.21338437 0.21060056 0.20820175 0.2050411 0.20161626 0.19774995 0.19332385 0.18898657 0.18560527 0.18172203 0.17928142 0.17620565 0.17212222 0.1667306 0.16051219 0.15273336 0.14534432 0.13722865 0.12867001 0.11978091 0.11163451 0.10415196 0.097958939 0.092619204 0.087321234 0.082621553 0.077381959 0.071919797 0.066524745 0.061716326 0.057201139 0.052735399 0.048691137 0.045620526 0.042911906 0.040697423 0.037706036 0.035913271 0.034609807 0.03372525 0.033939598 0.034708081 0.035368383 0.036145969 0.037831193 0.039475214 0.041412579 0.042735963 0.04465306 0.04666119 0.050093906 0.055049178 0.061659902 0.069548492 0.078109731 0.087982432 0.099404715 0.11169838 0.12495637 0.13938924 0.15462891 0.17022473 0.18631252 0.20283673 0.21917013 0.23567224 0.25209247 0.26963467 0.28786657 0.30551843
0.12821708 0.12849687 0.12905178 0.12978708 0.13103719 0.13151515 0.1323686 0.13420725 0.13501901 0.13597408 0.13733082 0.13827631 0.1393601 0.14078273 0.14190969 0.1431165 0.1446847 0.14633509 0.14840853 0.15003497 0.15157624 0.15318224 0.15551961 0.15717979 0.15861933 0.16017016 0.16171012 0.16314402 0.16457934 0.16642031 0.16766373 0.16905241 0.17034759 0.17131434 0.17191115 0.17275439 0.17375975 0.17434624 0.17401815 0.17448888 0.17361602 0.17301297 0.17184746 0.17056571 0.1687263 0.16686496 0.16459459 0.16199504 0.15904823 0.15614332 0.15308368 0.15008497 0.14719578 0.14426258 0.14111098 0.13757107 0.13493349 0.13246161 0.13002835 0.12799481 0.12625253 0.12431107 0.12334962 0.12230818 0.12191643 0.12191924 0.12139863 0.12071769 0.12053566 0.12069307 0.12123951 0.12106213 0.12057829 0.11878023 0.11800476 0.11734514 0.11676462 0.11596565 0.11515642 0.11437125 0.11363735 0.11285034 0.11192393 0.11081637 0.10964571 0.10707642 0.10578175 0.10423276 0.10218849 0.10005041 0.097649603 0.094781637 0.09234285 0.089938174 0.087312409 0.084487168 0.081477322 0.077609796 0.074099848 0.070538749 0.066952942 0.063396598 0.059733329 0.056102225 0.052837148 0.049483747 0.046219325 0.043151054 0.040202829 0.037187307 0.034642011 0.032671362 0.031325912 0.030630001 0.030357397 0.030361802 0.030869598 0.031583636 0.032561379 0.033951982 0.03558045 0.037451833 0.039424668 0.04153178 0.043788171 0.046270672 0.048323331 0.050070939 0.052003358 0.053813976 0.055844391 0.058054057 0.060178204 0.062282409 0.064338552 0.066269854 0.068067794 0.070011173 0.072310009 0.07454961 0.077061259 0.079489072 0.082013457 0.08461015 0.087270769 0.090090989 0.092970905 0.095888052 0.098817361 0.10183409 0.10487057 0.10792614 0.1092454 0.11325067 0.11610665 0.11896759 0.12182148 0.12470901 0.12766149 0.13059893 0.13350123 0.13758841 0.14135648 0.14495202 0.14838211 0.15178143 0.1553576 0.15895703 0.16250624 0.16603884 0.17048908 0.1740624 0.17737091 0.18239823 0.18561194 0.18857685 0.19286119 0.19597105 0.19806386 0.19955986 0.20206201 0.20604529 0.20819988 0.21050223 0.21247781 0.21439535 0.21639236 0.2170797 0.21829846 0.21862721 0.21903428 0.21921582 0.2197872 0.21882143 0.21785338 0.21761429 0.21718628 0.21671098 0.21655439 0.2164194 0.21615147 0.21481339 0.21293026 0.21052574 0.2074604 0.20431688 0.20187128 0.1983983 0.19459516 0.19023998 0.18581394 0.18176356 0.1781075 0.17442765 0.17227222 0.16884308 0.16424974 0.15846429 0.15144954 0.14337156 0.13586697 0.12748054 0.11938584 0.11189953 0.10484065 0.097517619 0.091173695 0.085741515 0.080352842 0.075752887 0.070917873 0.065737057 0.060752405 0.056531513 0.05271913 0.048132131 0.04412663 0.041378455 0.039097054 0.037044084 0.03466653 0.033038513 0.032027593 0.031326789 0.03159679 0.032117122 0.03259146 0.033401177 0.034545527 0.036473413 0.038477823 0.040612554 0.04290826 0.044911638 0.047708653 0.05219998 0.058394163 0.066331473 0.074649601 0.084258421 0.095977223 0.10844109 0.12173985 0.13602788 0.15075375 0.16605258 0.18183279 0.19809217 0.21413606 0.23037777 0.24652344 0.26371366 0.28179305 0.29923659
0.13145688 0.13254346 0.13285729 0.13339867 0.13414924 0.13538023 0.13596622 0.13658673 0.13878595 0.13952677 0.14064122 0.14148069 0.14265313 0.1437259 0.14480817 0.14624546 0.14783276 0.14939963 0.15101736 0.15235375 0.1540718 0.15584888 0.15752914 0.15935198 0.16089774 0.16253812 0.16422681 0.16545529 0.16699784 0.16816945 0.16962767 0.17041994 0.17162502 0.17302745 0.17347532 0.17419341 0.17515525 0.17572162 0.17588791 0.17572805 0.17534598 0.17442618 0.17321311 0.17204524 0.17026105 0.1684837 0.16662604 0.16411067 0.16136845 0.15856587 0.15571606 0.15304559 0.15032434 0.14734738 0.14455676 0.14154885 0.1383728 0.13619935 0.13392818 0.13258183 0.13077657 0.12921514 0.12796115 0.1271522 0.12679582 0.1263833 0.12600777 0.12549055 0.12532544 0.12520935 0.12563508 0.12538171 0.12483471 0.12376169 0.122569 0.12178005 0.12077066 0.11971411 0.1187367 0.11766179 0.11659272 0.11545171 0.11431314 0.11296905 0.11157416 0.10899888 0.10707824 0.10531639 0.10337878 0.10101099 0.098488223 0.095733294 0.092970391 0.090222741 0.087420753 0.084464638 0.081308542 0.077143605 0.07385048 0.070076523 0.066417029 0.06281239 0.059145465 0.05549427 0.0520322 0.048573981 0.04529531 0.042224352 0.03899051 0.035917901 0.033349214 0.031385748 0.030047886 0.029119055 0.028440921 0.028256587 0.028413337 0.028919647 0.029823164 0.030903824 0.032229849 0.033778977 0.035646685 0.03759764 0.039681413 0.041879053 0.043780244 0.045389555 0.047152938 0.048852151 0.05085394 0.052987209 0.05512378 0.057246691 0.059367397 0.061547131 0.063602538 0.065423834 0.067930226 0.070333739 0.073015875 0.075696613 0.078405759 0.081218261 0.084091918 0.087219481 0.0898402 0.09294474 0.096032438 0.099296149 0.10210876 0.10536899 0.10864962 0.11247745 0.1144634 0.11739552 0.12036599 0.12338511 0.12648568 0.12952188 0.13362152 0.13681917 0.14081341 0.14453702 0.14821637 0.153329 0.1563306 0.15905551 0.16261444 0.1661792 0.17014419 0.17374831 0.17876402 0.18302771 0.18634885 0.19083875 0.19424554 0.19725475 0.1988386 0.2003419 0.20476488 0.20722041 0.20930443 0.2110888 0.21322673 0.21536424 0.21715972 0.21733894 0.21910699 0.2184446 0.21858147 0.21925154 0.21906075 0.21744913 0.21611938 0.21557662 0.21496238 0.2141961 0.21369556 0.21379075 0.21275498 0.21277466 0.20928802 0.20586837 0.2020775 0.19883422 0.19585989 0.19210788 0.18838406 0.18407146 0.1797465 0.17560053 0.17169943 0.16772252 0.16462716 0.16077646 0.15588573 0.15000587 0.14269814 0.13499479 0.12761325 0.1191438 0.11111392 0.10427857 0.097947253 0.090993355 0.084703857 0.079485204 0.074340605 0.069818739 0.064973558 0.060276092 0.055643202 0.051955706 0.048693881 0.044454747 0.040201869 0.037432432 0.035156903 0.033018586 0.031183489 0.03003219 0.029191386 0.02845035 0.028460119 0.02883212 0.029511128 0.030082554 0.031023496 0.032623842 0.034625659 0.037141825 0.040201068 0.042600269 0.045690454 0.049824949 0.055278195 0.062488436 0.070760018 0.080575047 0.092614148 0.10513298 0.11823545 0.13223671 0.14650208 0.16158707 0.17744711 0.19314286 0.20895044 0.22519238 0.24162921 0.25844941 0.27586781 0.29313976
0.13399077 0.13556487 0.13670592 0.13708195 0.13799062 0.13844089 0.13965652 0.1402226 0.14143048 0.14304035 0.14386602 0.14466433 0.14576018 0.14685662 0.14791563 0.14905631 0.15064731 0.1517153 0.15336394 0.15491023 0.15663495 0.15829895 0.16000878 0.16182046 0.16328832 0.16476425 0.16632077 0.16784014 0.16932055 0.17032227 0.17111756 0.17183932 0.17330788 0.17415347 0.17533948 0.17566072 0.17642646 0.17684623 0.17713506 0.17721917 0.17675147 0.17617345 0.17489008 0.17342602 0.1718387 0.17010795 0.16880378 0.16614733 0.16376903 0.16109864 0.15832265 0.15583423 0.15335929 0.15054016 0.14783983 0.14557222 0.14332879 0.14081387 0.13868249 0.13671642 0.13495314 0.13381096 0.13290125 0.13162989 0.13124262 0.13129041 0.1313353 0.1313779 0.13146925 0.13003318 0.13006587 0.12978033 0.12914318 0.12822676 0.12674221 0.12580477 0.12456418 0.12343355 0.1221599 0.12092806 0.11954201 0.11815015 0.11676854 0.11504054 0.11342342 0.11129644 0.10896353 0.10686989 0.10464346 0.10205622 0.099280325 0.096364436 0.093390847 0.090637051 0.087590072 0.084463244 0.080964365 0.077255049 0.073358963 0.069739208 0.065969407 0.062310327 0.058633233 0.054945574 0.05122996 0.047917925 0.044485939 0.04118542 0.038053637 0.034962195 0.032394493 0.030266218 0.028742664 0.027502704 0.026716179 0.026271852 0.026214464 0.02659186 0.027177069 0.027994571 0.0290458 0.030319958 0.0319678 0.033711112 0.035622693 0.037621546 0.039348506 0.040713315 0.042440329 0.044143718 0.046145458 0.04810455 0.05038844 0.052531195 0.054712942 0.056899526 0.058988231 0.061251483 0.063665068 0.066223873 0.069057184 0.071860368 0.0747931 0.077804602 0.080872453 0.083952128 0.087071129 0.089824929 0.093065886 0.096696317 0.099692831 0.10271278 0.10629163 0.1094051 0.11253277 0.11566349 0.11880555 0.1219901 0.125219 0.12848003 0.13265763 0.13606699 0.14012199 0.14410462 0.14853246 0.15251982 0.15549542 0.15917923 0.16282203 0.16659733 0.1711668 0.17461967 0.17928561 0.18258807 0.18745669 0.19093034 0.19466921 0.1974806 0.19997443 0.20295874 0.20572786 0.20813219 0.20966471 0.21153789 0.21398534 0.21531469 0.21635259 0.2170985 0.21879251 0.21794336 0.21869387 0.21855421 0.2176642 0.21583787 0.21428805 0.21352453 0.21271766 0.21179168 0.21094185 0.20992847 0.20866521 0.20790458 0.20452239 0.20133136 0.19804781 0.19448143 0.19104448 0.1869386 0.18283108 0.17824005 0.17406795 0.16990149 0.16554925 0.16100482 0.15728251 0.15259807 0.14733632 0.14169027 0.1344664 0.1275106 0.12019699 0.11204972 0.10430331 0.097280882 0.091272509 0.084848983 0.078480623 0.073239036 0.068566639 0.064107064 0.059437451 0.055202565 0.050513581 0.047174386 0.043977352 0.040021206 0.036312454 0.033530448 0.031037516 0.029031096 0.027224927 0.026183754 0.02574646 0.025061255 0.025082838 0.025622721 0.026409892 0.027230773 0.028201967 0.029383415 0.031072715 0.033853056 0.037202254 0.0401911 0.043654671 0.047544203 0.052638154 0.059627038 0.067868666 0.077546079 0.089075267 0.10131881 0.11440063 0.12836585 0.14244015 0.157467 0.17267177 0.18815303 0.2041753 0.22042328 0.23697454 0.25379801 0.27069889 0.28773448
0.13779234 0.13783945 0.13949356 0.14072291 0.14113209 0.14214826 0.14337715 0.14374807 0.14430895 0.14541126 0.14618475 0.14700017 0.14784908 0.14981368 0.15091358 0.15195198 0.15330844 0.15436675 0.15594819 0.15749241 0.15908295 0.16067032 0.16226283 0.16394341 0.1651232 0.16694196 0.16857648 0.17019753 0.17133456 0.17226788 0.17284885 0.17370152 0.17506844 0.17576187 0.17688398 0.17709574 0.17748069 0.17808202 0.17818652 0.17833563 0.1780899 0.17741601 0.17616071 0.17490786 0.1733858 0.17171833 0.17029176 0.16811919 0.16588502 0.16354159 0.16103495 0.15874013 0.15637989 0.1539058 0.15158011 0.14944394 0.14724927 0.1451399 0.14313491 0.14134582 0.13923779 0.13820358 0.13734933 0.13629811 0.13564279 0.13569113 0.13573695 0.13578052 0.13587485 0.13535758 0.13445621 0.13411249 0.13340602 0.13241343 0.13138042 0.12992927 0.12873996 0.12693002 0.12559199 0.12398497 0.12252943 0.12080205 0.11918438 0.11701371 0.11519056 0.11284076 0.1105636 0.10820195 0.10550991 0.10299953 0.10009308 0.097226394 0.09408389 0.090894578 0.087860534 0.084517634 0.081127089 0.077237998 0.073747834 0.069229474 0.065496581 0.061799867 0.058291444 0.054466275 0.050651095 0.047279664 0.043808648 0.040539187 0.037387727 0.034237169 0.031570936 0.029258457 0.027425874 0.02612679 0.025049919 0.024468616 0.024256196 0.024287996 0.024612516 0.025184166 0.02599269 0.027134415 0.028401981 0.029938884 0.031660015 0.033507956 0.035046224 0.036296977 0.037801157 0.039487287 0.041322016 0.043370856 0.045488947 0.047796376 0.05002424 0.052238393 0.054405759 0.056862385 0.059434662 0.062184537 0.065142035 0.0680763 0.071149278 0.074270676 0.077530529 0.080784642 0.084117875 0.0874944 0.090858345 0.094226918 0.096769894 0.10125757 0.10457359 0.10786494 0.11113162 0.11442836 0.11773667 0.1210993 0.12449663 0.12790593 0.13128064 0.13577783 0.13909681 0.14342652 0.14767798 0.15184968 0.15487942 0.15863122 0.16243628 0.16608571 0.17113707 0.17488245 0.17975482 0.18370657 0.18734858 0.19141728 0.19451234 0.19726495 0.20055613 0.20363957 0.20639945 0.20823705 0.20980764 0.21205373 0.21364846 0.2149586 0.21586469 0.21890034 0.2185604 0.21814562 0.21809861 0.21722427 0.21609203 0.21423805 0.21250685 0.21146894 0.21036617 0.20924869 0.20804917 0.20697747 0.20492766 0.20332134 0.19988004 0.19794913 0.19427545 0.1904652 0.18691035 0.18264977 0.17819593 0.17365061 0.16905154 0.16408382 0.15928432 0.15433169 0.14976135 0.1447798 0.13950782 0.13437266 0.12756455 0.12075412 0.11319742 0.10556913 0.09821723 0.090769422 0.085106338 0.078987913 0.072332558 0.067188479 0.06313199 0.059245775 0.05467642 0.04993781 0.045900525 0.042296189 0.038838271 0.035238208 0.03190912 0.029042863 0.026884701 0.025275566 0.02356685 0.022282626 0.021838062 0.021483419 0.021547169 0.022115924 0.0232356 0.024319934 0.025874474 0.026713449 0.028238432 0.030929321 0.034238688 0.037442273 0.041253655 0.045468894 0.050948813 0.057743071 0.06557589 0.074887147 0.086200185 0.097969822 0.11059655 0.12407012 0.13798128 0.15327084 0.16861077 0.18432832 0.20027468 0.21603485 0.23253085 0.24941103 0.26622159 0.28279991
0.14109323 0.14145046 0.14157953 0.14322007 0.14445988 0.1449152 0.14597423 0.14514674 0.14594692 0.14770227 0.14907355 0.14984119 0.15055374 0.15167066 0.15362491 0.15378278 0.15493558 0.15631655 0.15749181 0.1587289 0.16133511 0.16245731 0.16484431 0.1659731 0.16714188 0.16860996 0.17079244 0.17186776 0.17309647 0.17410495 0.17461341 0.17532864 0.17654668 0.17739247 0.17791908 0.17833855 0.17861026 0.17899833 0.17921864 0.17925713 0.17919456 0.17864463 0.17769288 0.17643372 0.17542122 0.1738859 0.17237367 0.17018994 0.16789802 0.16575521 0.16346921 0.1615858 0.15962581 0.15685607 0.15516016 0.152874 0.15073095 0.14877727 0.14683232 0.14512407 0.1433514 0.14238794 0.14162083 0.14066208 0.1400919 0.14014103 0.1401624 0.14020687 0.14030413 0.13995001 0.13950662 0.13839298 0.13756441 0.13651887 0.13542078 0.13361474 0.13230038 0.13051871 0.12908028 0.12716179 0.12530441 0.12353503 0.12151085 0.11915837 0.11685954 0.11462475 0.11212554 0.10950387 0.10667591 0.10404668 0.10112673 0.097926618 0.094784662 0.091395805 0.087997177 0.084790757 0.081387038 0.076836832 0.073653015 0.06948601 0.065731404 0.06167404 0.057901628 0.054053525 0.05041442 0.046749933 0.043340867 0.040047313 0.036828354 0.033539966 0.030689542 0.0283371 0.026334235 0.024787044 0.023647157 0.022888168 0.022396307 0.02187431 0.022007705 0.022403185 0.023033322 0.023897513 0.024976419 0.026357982 0.027818646 0.029534634 0.030968967 0.032027999 0.033425631 0.034978451 0.036785575 0.038761493 0.040898704 0.043158092 0.045609883 0.047943566 0.050205925 0.052650742 0.055328023 0.058132396 0.061091181 0.064285625 0.067504989 0.070755936 0.074041735 0.077436938 0.080903519 0.084429465 0.087965901 0.091933388 0.095417216 0.098859117 0.10227958 0.10568446 0.10907612 0.11247345 0.11598777 0.11942998 0.12292639 0.12647746 0.13081419 0.13432087 0.13857592 0.14383922 0.14738074 0.15056784 0.15455084 0.15833732 0.16208213 0.16676589 0.17091011 0.17464381 0.17928604 0.18319746 0.18755764 0.1909634 0.19394699 0.19751266 0.2008441 0.20386377 0.20610346 0.20791583 0.21002818 0.21125053 0.2130761 0.21425191 0.21583781 0.2176121 0.21740233 0.2175954 0.21684375 0.21582174 0.21452707 0.21230947 0.21059004 0.20939046 0.20806562 0.20674455 0.20509402 0.20311054 0.20264028 0.19918843 0.19736731 0.19414686 0.1908728 0.18690742 0.1831726 0.17922188 0.17472488 0.16959096 0.16385227 0.15848204 0.15297875 0.14763535 0.14315842 0.13829264 0.13319206 0.12814578 0.12189091 0.11498189 0.10672814 0.099228811 0.092479599 0.084840977 0.079643904 0.074244535 0.067257834 0.061794856 0.058326871 0.055114764 0.050736883 0.045892193 0.042218441 0.038694608 0.035255514 0.031765774 0.028584187 0.025942056 0.023675203 0.022072532 0.02048243 0.019190187 0.018874936 0.018557594 0.018660793 0.019356139 0.020590185 0.021855054 0.023366324 0.024150849 0.025890509 0.0283451 0.031239865 0.034393297 0.038356918 0.042868562 0.048589234 0.055472514 0.06338031 0.072424859 0.082910914 0.093978891 0.10588082 0.11890145 0.13312468 0.14877693 0.16428342 0.1803939 0.19659929 0.21252676 0.22913897 0.24578259 0.26234887 0.27844088
