0.75472345 0.75598267 0.76041084 0.7619411 0.75712864 0.75506253 0.75646497 0.7548455 0.75095735 0.7495459 0.74815666 0.74531004 0.74271879 0.73924541 0.73902752 0.73919685 0.73223422 0.72906142 0.72629629 0.72242461 0.72192733 0.72229962 0.72355544 0.7217002 0.71818303 0.71427626 0.71212602 0.71067585 0.70905907 0.70966263 0.71310897 0.71796521 0.72252761 0.7276519 0.73307543 0.73644581 0.73622426 0.73910035 0.74205047 0.74625352 0.74935359 0.75476689 0.7612128 0.76671039 0.76825596 0.76846126 0.77000461 0.77369588 0.78024707 0.79021431 0.79955684 0.80943927 0.81855635 0.82733105 0.83673473 0.84795053 0.85899524 0.87290614 0.8883048 0.90226955 0.91317745 0.9199475 0.919978 0.917567 0.9190319 0.9246475 0.9331319 0.9410059 0.9464384 0.9515351 0.9537326 0.9533663 0.9498261 0.9430202 0.9358481 0.9320942 0.9333456 0.9365196 0.93713 0.9352988 0.9350851 0.9353904 0.9386559 0.9377098 0.9321553 0.9256852 0.9189404 0.9154306 0.9104559 0.9046267 0.8978209 0.8912287 0.8859794 0.88081015 0.87668161 0.87175889 0.8676865 0.8601803 0.84993961 0.83916287 0.83142021 0.82396051 0.81864276 0.81664875 0.81531528 0.8149221 0.81271642 0.8097327 0.80452354 0.79626947 0.78654798 0.77804488 0.77386139 0.76919747 0.76904232 0.77002876 0.77244553 0.77632612 0.77855208 0.77929443 0.78094584 0.78112874 0.78031611 0.78090677 0.78115088 0.78071845 0.77993696 0.78094177 0.78145302 0.78273449 0.78308862 0.78231763 0.78048407 0.77858353 0.77930984 0.78258579 0.78902313 0.79436184 0.79647361 0.79704841 0.79848091 0.80288971 0.80552918 0.80910668 0.81130628 0.81318696 0.81248782 0.81043327 0.80801989 0.80806183 0.80906953 0.8135307 0.81913397 0.81988687 0.82059266 0.82251127 0.82355892 0.82506731 0.82637558 0.83142691 0.83705383 0.84190546 0.84058186 0.836019 0.831197 0.8291522 0.8271989 0.8251846 0.8212171 0.8179516 0.8163645 0.8163645 0.814747 0.8145639 0.8112678 0.8094671 0.8047671 0.8010743 0.7930477 0.7829458 0.7737594 0.7681744 0.7600561 0.7520601 0.7452847 0.7436978 0.7427822 0.7417445 0.7396691 0.7367393 0.7340536 0.7313374 0.7289263 0.7255997 0.7207471 0.71508146 0.71023872 0.70602361 0.70176341 0.69780635 0.69565114 0.69213739 0.68631478 0.68093876 0.67522702 0.67086182 0.66712458 0.66288086 0.65874583 0.66009988 0.66509834 0.67403637 0.68355725 0.69152171 0.69844594 0.7044106 0.71351831 0.72110069 0.72880316 0.73458586 0.73840439 0.74133432 0.74364503 0.74335806 0.74129103 0.73759471 0.73361767 0.73046518 0.72732536 0.72425136 0.72128529 0.71825104 0.71463923 0.71021531 0.70524834 0.7039169 0.70235885 0.69931616 0.6957412 0.68805773 0.6797195 0.67359686 0.66843385 0.66416106 0.65940839 0.65308457 0.64491319 0.63629498 0.62817182 0.62083325 0.61472308 0.60896963 0.60406104 0.59615882 0.5884269 0.58045251 0.57306056 0.56681072 0.56461049 0.56461778 0.56429534 0.56449599 0.56452772 0.56577147 0.56551154 0.5625343 0.5587499 0.5574376 0.5596655 0.5621986 0.5645486 0.5652506 0.5671733 0.5687908 0.5697064 0.5704694
0.75675743 0.75667538 0.75926474 0.75834413 0.75524647 0.75410078 0.75505184 0.75308181 0.74957519 0.74943584 0.74513402 0.74283934 0.74098653 0.7398132 0.73762638 0.7353592 0.73128252 0.72800904 0.72426334 0.72098595 0.72110731 0.72262092 0.72209983 0.71955121 0.71422799 0.7094189 0.70663341 0.70615885 0.70500741 0.7061847 0.70909631 0.71473332 0.71864228 0.72463646 0.7278366 0.73211407 0.73264035 0.73474026 0.73743941 0.74288668 0.74734049 0.75342567 0.75778076 0.76230209 0.76452329 0.7647019 0.76639661 0.76976003 0.77489002 0.78166066 0.7893636 0.79921863 0.80897263 0.81922088 0.82902553 0.8390952 0.8492932 0.86225462 0.8777811 0.89328316 0.90361198 0.9098761 0.9118904 0.9137521 0.9207715 0.9283099 0.9347494 0.9409754 0.9451566 0.9484221 0.948178 0.9469267 0.9423183 0.9373436 0.9348105 0.9359702 0.9394799 0.9421657 0.9421657 0.9405176 0.9412806 0.942654 0.944302 0.9407007 0.9320637 0.9243423 0.9181468 0.9160105 0.9141793 0.9109138 0.9047793 0.8966917 0.8900079 0.88322631 0.87692796 0.86998904 0.86430622 0.85729141 0.84946156 0.84112527 0.83485623 0.82816156 0.82323773 0.81960469 0.81755187 0.81650422 0.81348688 0.80974364 0.80351437 0.79506742 0.78562434 0.77861034 0.77466893 0.77028253 0.76976121 0.77047132 0.77115319 0.77282271 0.77452172 0.77553261 0.77767655 0.77835631 0.77833878 0.78083489 0.78166476 0.78223424 0.78143729 0.78209346 0.78201488 0.78223653 0.78183272 0.7800454 0.77796135 0.7759641 0.77751431 0.78235281 0.78999422 0.79601114 0.79801214 0.7982572 0.79844743 0.80200464 0.80414519 0.80815381 0.81108276 0.8143384 0.81394731 0.81184515 0.80933422 0.80954376 0.81089262 0.81446818 0.81893462 0.81893957 0.81991386 0.8226783 0.82535047 0.828404 0.83062403 0.83613294 0.84281868 0.8481702 0.8472744 0.8423671 0.8385217 0.8363547 0.8336996 0.8308308 0.8282366 0.8269243 0.827382 0.8274431 0.8260392 0.8237808 0.818745 0.8170055 0.8127632 0.80846 0.7995178 0.7896295 0.7806262 0.7748275 0.7660685 0.7578588 0.7529146 0.7529451 0.7533724 0.7523042 0.7491912 0.7449796 0.7409815 0.7372581 0.7338094 0.7294146 0.7249893 0.71946175 0.71550309 0.71193817 0.70788379 0.70420854 0.70234655 0.6992387 0.69459572 0.69116661 0.6878501 0.68557916 0.68345466 0.67984936 0.67523904 0.67484779 0.67824273 0.68657895 0.69588403 0.70390947 0.71069763 0.71630427 0.72389829 0.72978165 0.73605552 0.73997921 0.7417263 0.74294048 0.74356163 0.74331226 0.74216309 0.73973386 0.73576645 0.73178153 0.72799701 0.72461297 0.72101583 0.71701673 0.71259523 0.70705126 0.70087846 0.69898118 0.69671755 0.69315651 0.68898378 0.68139169 0.6734036 0.66730236 0.66172288 0.6571304 0.65241842 0.64669755 0.63952632 0.63158847 0.62408335 0.61654866 0.609608 0.60267678 0.59655613 0.58887556 0.58152265 0.57362582 0.56667771 0.56135357 0.55960577 0.55892794 0.55809984 0.5575123 0.55729565 0.55798497 0.55695966 0.5546603 0.5516389 0.5510285 0.5537447 0.5562168 0.5583837 0.5595739 0.5616798 0.5632363 0.5649453 0.5657083
0.75737779 0.75740717 0.75591581 0.75486549 0.75289109 0.75468765 0.75455236 0.75118872 0.74954273 0.74726246 0.74629561 0.74206266 0.7400113 0.73926475 0.73722389 0.73391613 0.73039987 0.72654492 0.72297782 0.71912371 0.71924117 0.71939287 0.71776856 0.71547411 0.70953583 0.70535103 0.70342781 0.70361191 0.70313047 0.70489834 0.70996361 0.71446252 0.71813307 0.72269882 0.72422682 0.72711033 0.72914336 0.7309956 0.73445546 0.73995135 0.74458502 0.75030055 0.75361988 0.75727366 0.75996341 0.76069091 0.76254165 0.76548993 0.76873003 0.77407627 0.78166431 0.79262328 0.80234612 0.81287397 0.82155524 0.83058868 0.84238004 0.85486609 0.86795896 0.88109428 0.89243024 0.9009644 0.9069768 0.9131722 0.9230605 0.9300799 0.9352683 0.9403955 0.9423793 0.9425319 0.9402735 0.9373741 0.9333456 0.9307819 0.9342917 0.9410975 0.946591 0.9490631 0.9490631 0.9464689 0.9471098 0.9487884 0.9471709 0.9410975 0.9313618 0.9250442 0.9210767 0.9201001 0.919978 0.9173228 0.9108222 0.9016053 0.8946774 0.88756813 0.88004638 0.87053744 0.86390762 0.85625687 0.84902686 0.84163759 0.83684441 0.83126615 0.82596527 0.8211306 0.81811023 0.8162411 0.81282453 0.80892255 0.80208613 0.79289208 0.78442409 0.77896817 0.77603542 0.77175992 0.77138186 0.77110597 0.77039248 0.76950527 0.77034493 0.77152525 0.77386836 0.77487369 0.77565548 0.77916246 0.7808256 0.78228798 0.78202728 0.78193463 0.78104705 0.78044294 0.78043093 0.77973443 0.77864118 0.77714147 0.77919383 0.78461945 0.79246497 0.79864797 0.80077541 0.80088541 0.80016508 0.80317177 0.80448219 0.8089795 0.81314663 0.81680168 0.81659491 0.81393964 0.81065885 0.81003572 0.81111266 0.81288567 0.81610465 0.8162218 0.81767711 0.82102866 0.82472359 0.82923172 0.8334598 0.84047539 0.84809528 0.85348814 0.85283646 0.8478911 0.8448086 0.8425197 0.839132 0.8360801 0.8350119 0.8347067 0.8347678 0.832784 0.8303729 0.828023 0.8230483 0.8228041 0.8206983 0.8172496 0.809284 0.801349 0.7929561 0.7866997 0.7770555 0.7674114 0.7619178 0.7608497 0.7615821 0.7601477 0.7562107 0.7504425 0.7439419 0.7385705 0.7341146 0.7301471 0.7278581 0.72414369 0.72091778 0.71727427 0.71258602 0.70827344 0.70524787 0.70168811 0.6977806 0.69569517 0.69422147 0.69334582 0.69287171 0.69064884 0.68696687 0.68664454 0.68947635 0.69736293 0.70694537 0.7153971 0.72267941 0.72797735 0.73502287 0.74023121 0.74627274 0.74946067 0.74955358 0.74889315 0.74740331 0.74610355 0.74416324 0.74204406 0.73760855 0.73303791 0.72877119 0.72492964 0.72056475 0.71550012 0.71001704 0.7036276 0.69617549 0.69392869 0.69172174 0.68845201 0.68488605 0.67675752 0.66871 0.6620455 0.6562594 0.65146851 0.64714686 0.64166431 0.63406571 0.62643384 0.61921722 0.61165003 0.60402706 0.59614488 0.58876004 0.58146891 0.5743806 0.56708625 0.56100002 0.55664708 0.55474718 0.55322796 0.55180253 0.55100809 0.55122215 0.55221596 0.5511585 0.5490447 0.5466032 0.5467863 0.5496246 0.5519746 0.5530428 0.5529207 0.5548739 0.5567051 0.5583532 0.558933
0.75535256 0.75472918 0.75553442 0.75289927 0.75311212 0.75356319 0.75106206 0.75286193 0.74922564 0.7480499 0.74369053 0.74341854 0.74112476 0.73796207 0.73689958 0.73499955 0.73052903 0.72796721 0.72180543 0.71947573 0.71715615 0.71634848 0.71414046 0.71182581 0.70651904 0.7042696 0.70278194 0.70303552 0.70304401 0.70548671 0.70857226 0.71395006 0.71737395 0.72065626 0.72207538 0.72455429 0.72581929 0.72959015 0.73337509 0.73780197 0.74315979 0.74723374 0.75102594 0.75523531 0.75855229 0.75996982 0.76143151 0.76335305 0.76666317 0.77350058 0.78193526 0.7918142 0.7991566 0.808164 0.81707975 0.82725328 0.8384553 0.84909346 0.858746 0.86944956 0.88160873 0.8909845 0.8975462 0.9061832 0.9183605 0.9269975 0.9348105 0.9396325 0.9403955 0.937252 0.9342611 0.9307514 0.9290118 0.931026 0.9402124 0.9487884 0.9532442 0.9532747 0.9515351 0.9483916 0.9477812 0.948941 0.9445767 0.9376488 0.9300494 0.9271806 0.9265397 0.9266313 0.9253189 0.9219007 0.9150949 0.9056644 0.8980346 0.89047269 0.88252245 0.87218459 0.8653058 0.8562266 0.84910755 0.84294732 0.83852912 0.83484385 0.82920352 0.82327173 0.81814501 0.81535188 0.81171771 0.80808309 0.80037392 0.78988114 0.78261356 0.77901944 0.77702104 0.77360905 0.77342929 0.77203287 0.77038991 0.76719226 0.76682158 0.7681761 0.77079335 0.77235224 0.77316973 0.77579789 0.7781902 0.78005336 0.78137595 0.78122286 0.78020742 0.77955003 0.78019701 0.78079909 0.78122844 0.78039019 0.78231726 0.78715026 0.79437005 0.80048091 0.80386395 0.80569159 0.80579808 0.80878236 0.80938356 0.81370356 0.81804274 0.8210677 0.82021378 0.81660843 0.81200269 0.80957174 0.80890046 0.80961973 0.81263836 0.81328884 0.81449517 0.81824423 0.82364159 0.83032709 0.83678663 0.84507627 0.85352615 0.85880214 0.85775295 0.8526827 0.8496917 0.8474944 0.8447171 0.8427333 0.8429469 0.8425197 0.8410547 0.8369651 0.8333028 0.8300372 0.8257034 0.8271074 0.8271989 0.8257034 0.8196301 0.8136178 0.8053165 0.7978087 0.7875236 0.7775743 0.7708295 0.7674114 0.7656717 0.7616737 0.755112 0.7477263 0.7396386 0.7333516 0.7292315 0.7276445 0.7287127 0.72790811 0.72575011 0.72166571 0.71607737 0.7102877 0.70605689 0.70232056 0.69942185 0.69800539 0.69735454 0.6962729 0.69615778 0.69517566 0.69319866 0.69415342 0.6968497 0.70491842 0.71522293 0.7237355 0.73103338 0.73635212 0.74396927 0.75027365 0.75682903 0.76038162 0.76015282 0.75803174 0.75387041 0.75053487 0.74696598 0.74433591 0.7393789 0.73451563 0.72954591 0.72505405 0.72023199 0.71451308 0.70828023 0.70141025 0.69325007 0.69053195 0.68818674 0.68555343 0.68196761 0.67352953 0.66526482 0.65793454 0.65223654 0.64694353 0.64247826 0.63699025 0.62892312 0.62055448 0.61351659 0.60601658 0.59715482 0.58862255 0.58183925 0.57572959 0.56877955 0.56210039 0.55647859 0.55275383 0.55048155 0.54832517 0.54559023 0.5449995 0.54640002 0.5480351 0.5471303 0.5450162 0.5430934 0.543887 0.5461454 0.5469389 0.5470304 0.5457792 0.5481291 0.5503266 0.5506928 0.5506012
0.75565236 0.75542018 0.75320266 0.75020334 0.75116956 0.74912893 0.75184231 0.75454239 0.74956256 0.74891612 0.74599247 0.74105729 0.73861713 0.73634747 0.73689052 0.73753366 0.7322013 0.72969021 0.72310143 0.71655923 0.71418986 0.71167216 0.71040201 0.70742653 0.70390038 0.70178533 0.70068709 0.70095981 0.70197545 0.70404306 0.70827045 0.71242924 0.71653654 0.71880357 0.71989792 0.72192104 0.72260917 0.72538298 0.72781492 0.73178481 0.73806636 0.74371284 0.74876847 0.75309036 0.75705806 0.75973503 0.76117373 0.76291579 0.76625701 0.77394699 0.78221946 0.7899647 0.79677872 0.80501922 0.81294821 0.82126935 0.8302015 0.84028838 0.84932187 0.85927364 0.87121591 0.8819813 0.8911371 0.9016663 0.9146982 0.9236404 0.9309955 0.9340475 0.9350546 0.9328267 0.9297748 0.9264787 0.9276079 0.9338033 0.9439663 0.9516572 0.9550754 0.953702 0.9500092 0.9452481 0.9419215 0.9425929 0.9382287 0.9339254 0.9295611 0.9312092 0.9331014 0.9338644 0.9301715 0.9251053 0.9177501 0.9072514 0.8978514 0.88992472 0.88197422 0.87392302 0.86664158 0.85755887 0.84834377 0.84106513 0.83649181 0.83234247 0.82671065 0.82078134 0.81497491 0.81175847 0.80772406 0.80291212 0.79458341 0.78476353 0.77876847 0.77669765 0.77498539 0.77216309 0.77222755 0.77073537 0.76849602 0.76488495 0.76356687 0.76482443 0.76727619 0.76949725 0.77057614 0.7719794 0.7743631 0.77656411 0.7786168 0.77864557 0.77867744 0.77867829 0.78025249 0.7815131 0.78333656 0.78340902 0.78553963 0.78986204 0.79684549 0.80321224 0.80774907 0.81187018 0.81340851 0.81635857 0.81616765 0.81959327 0.82331921 0.82624908 0.82546596 0.82102434 0.81497569 0.80957365 0.80688403 0.80689171 0.81031648 0.81158089 0.81348681 0.81763465 0.82428757 0.83170823 0.83961833 0.84856661 0.85712488 0.86134015 0.85867132 0.8528352 0.8503632 0.8486541 0.846945 0.8467314 0.847769 0.8488372 0.8482879 0.845297 0.8412073 0.8359275 0.8309528 0.8315938 0.8324482 0.8323262 0.8290301 0.824086 0.8145334 0.8051028 0.7939633 0.7838003 0.7762315 0.7711958 0.7672893 0.7619178 0.7528841 0.7442776 0.7351523 0.7286516 0.7258744 0.7275835 0.7311848 0.73289458 0.73201738 0.7277659 0.72142511 0.7134509 0.70688434 0.70181851 0.69955025 0.69898236 0.69883804 0.69715891 0.69647958 0.69587223 0.69500467 0.69704649 0.70064866 0.70952415 0.72042635 0.72910256 0.73618422 0.74170192 0.74982287 0.75689357 0.76442028 0.76913252 0.76949719 0.76715628 0.7620056 0.75692074 0.75182983 0.74814915 0.74281054 0.73729468 0.7313536 0.72599028 0.72050559 0.71452322 0.7078182 0.70044486 0.69180317 0.68918968 0.68701302 0.68523707 0.68011508 0.67115111 0.66228322 0.65455582 0.64846016 0.6424522 0.63714732 0.63067462 0.62264387 0.6142671 0.60733939 0.60002443 0.59058868 0.58192124 0.57634797 0.57097309 0.56465184 0.55860023 0.55290332 0.5494286 0.54680827 0.54414824 0.54136306 0.54100411 0.54267643 0.54437465 0.54389809 0.5418422 0.53995 0.5401331 0.5408655 0.5408655 0.5399805 0.5387292 0.53995 0.5416285 0.5414759 0.5416591
0.75535565 0.75429689 0.75359602 0.75156628 0.75077665 0.75125975 0.74873 0.75018017 0.7495002 0.74529678 0.74414551 0.74182139 0.73895811 0.73761138 0.73578322 0.73562501 0.73195625 0.72845784 0.72301731 0.71946066 0.7147333 0.71348166 0.71002023 0.70706735 0.70252359 0.70042175 0.70024654 0.69963059 0.70076134 0.70304356 0.70689123 0.71067267 0.71397668 0.71636355 0.71542491 0.71633532 0.71721033 0.71850399 0.72195865 0.72656654 0.73376558 0.74012418 0.74574579 0.7507812 0.75570383 0.75939134 0.76199243 0.76349329 0.76554109 0.77184319 0.77899543 0.78632247 0.79296758 0.80049903 0.80832269 0.81624416 0.82367604 0.83421787 0.84264154 0.85105048 0.86054688 0.872093 0.8851553 0.8974547 0.909754 0.9185131 0.9241592 0.9273027 0.9291644 0.9289202 0.9275774 0.9271501 0.9315754 0.9405176 0.951291 0.9572728 0.9569981 0.9508332 0.944302 0.9399072 0.9351462 0.9347494 0.9319721 0.9298053 0.9286456 0.9329793 0.9363365 0.9382897 0.9337118 0.9282793 0.9202832 0.9099982 0.8992553 0.88891862 0.87931788 0.87337338 0.86630368 0.85803676 0.84919917 0.84015717 0.83420547 0.82969279 0.82461601 0.81912788 0.81254268 0.80782224 0.80264859 0.7969738 0.78883527 0.78145163 0.77734786 0.77616756 0.77381319 0.77135184 0.77103947 0.76916312 0.7668799 0.76294976 0.76057927 0.76073604 0.76359901 0.76678115 0.7679891 0.76884176 0.77085944 0.77304347 0.77547797 0.77660366 0.77808885 0.77880834 0.78046553 0.78189227 0.78440185 0.78568958 0.78848578 0.79283364 0.79978294 0.80581474 0.81143757 0.81717837 0.82016894 0.82382941 0.82308458 0.82543242 0.82827195 0.83112625 0.8299364 0.82497129 0.81825208 0.81151621 0.80835048 0.80783882 0.81108452 0.81264358 0.81467497 0.81894212 0.82585975 0.83329262 0.84161227 0.85069399 0.85800973 0.86039153 0.85616267 0.850058 0.8486846 0.8470976 0.8458158 0.8469145 0.8489898 0.8518891 0.8536288 0.8519502 0.8473418 0.8407496 0.8352255 0.8345236 0.835958 0.8370567 0.8350729 0.8303424 0.8193554 0.8091009 0.797473 0.7874931 0.7800464 0.7749497 0.769273 0.762223 0.7511445 0.7415003 0.7319172 0.7252945 0.7243179 0.7281634 0.7321919 0.73500638 0.73519757 0.73133422 0.72454885 0.71623942 0.70871969 0.70346441 0.70131214 0.70059732 0.69980403 0.6974515 0.69605348 0.69512591 0.69440912 0.69654184 0.70113367 0.71135604 0.72451772 0.73425012 0.74141516 0.74492145 0.75177024 0.75902736 0.76785186 0.77447911 0.77631763 0.77485571 0.76997781 0.76415487 0.75833205 0.7535867 0.74802242 0.74149015 0.7345462 0.72796232 0.72156031 0.71518386 0.70835145 0.70114421 0.69264191 0.68986092 0.68728906 0.68540759 0.67902757 0.66950838 0.65975661 0.65128031 0.64475766 0.63802945 0.63136318 0.62390121 0.61582576 0.60718407 0.6000446 0.59317903 0.58425249 0.57646665 0.57119986 0.56644194 0.56102152 0.55529989 0.54966924 0.54616199 0.54381042 0.54116647 0.53890952 0.53856772 0.54002134 0.54092682 0.54002394 0.5378136 0.536135 0.5359824 0.5355856 0.5348532 0.5334493 0.5322896 0.5318928 0.5327168 0.5331441 0.5336629
0.75439013 0.7536591 0.75365248 0.75261479 0.75159572 0.7497605 0.74780759 0.74723878 0.74629325 0.74277701 0.74329914 0.74129742 0.73856584 0.73816838 0.73629604 0.73440401 0.73063386 0.72686125 0.72275684 0.71918383 0.71643406 0.71235504 0.71002365 0.70588794 0.70384962 0.69926946 0.69944016 0.69777838 0.7008644 0.70395413 0.70827858 0.71034794 0.71255032 0.71482939 0.71241979 0.7118981 0.71105835 0.71283899 0.71782927 0.72186707 0.72877671 0.73704146 0.74378326 0.74987505 0.75412233 0.75894746 0.7626413 0.76605927 0.76727401 0.77158911 0.7772479 0.78416347 0.79083404 0.79806602 0.80595311 0.81335375 0.81963874 0.82845055 0.83553625 0.84297602 0.85170624 0.863517 0.8777696 0.890954 0.9025209 0.9117378 0.9180248 0.9220228 0.9234573 0.9234267 0.9232741 0.9264482 0.9346884 0.945065 0.954526 0.959226 0.9563877 0.9484527 0.940304 0.9359092 0.9318806 0.930965 0.9274553 0.9265702 0.9281267 0.9342001 0.9375267 0.9380455 0.9328877 0.9284319 0.9220228 0.9117683 0.8997131 0.8867211 0.87516526 0.86955913 0.86416638 0.85730087 0.84888151 0.83894873 0.83204021 0.8269003 0.82134364 0.81566923 0.80801888 0.80254623 0.79671313 0.79200033 0.78635524 0.7818168 0.77846702 0.77659615 0.77336906 0.77052269 0.76916512 0.76611454 0.76381798 0.76111855 0.75867579 0.75951612 0.76183562 0.76486487 0.76598645 0.76714162 0.76884419 0.77096577 0.77246973 0.77378085 0.7758794 0.77764142 0.7795978 0.78114618 0.78399827 0.78638044 0.79041371 0.79575012 0.80291788 0.80885101 0.81452024 0.82003152 0.82320763 0.82756017 0.82739548 0.83015894 0.83283859 0.83565895 0.83396807 0.82899858 0.82239956 0.81604754 0.81299629 0.81198678 0.81461671 0.81622581 0.81801278 0.82231292 0.82869147 0.83594053 0.84367082 0.85133579 0.85685136 0.85711843 0.8527964 0.8470671 0.8463041 0.8452054 0.8447171 0.8468229 0.8494781 0.8532931 0.8559177 0.8551853 0.850882 0.8441982 0.8385522 0.8361411 0.8375756 0.8389794 0.8368431 0.8307697 0.8183788 0.8076054 0.7963743 0.787371 0.7808399 0.7761094 0.7696698 0.7615516 0.7501068 0.7405847 0.7315815 0.7261186 0.726088 0.7295367 0.7321919 0.73479827 0.73508052 0.73154563 0.7251684 0.718522 0.71145577 0.70619243 0.70303047 0.70167144 0.70075602 0.69814454 0.69594806 0.69423214 0.6930035 0.69507089 0.70074433 0.71251771 0.72801141 0.73882975 0.74648348 0.74847183 0.75405673 0.76043375 0.76962895 0.7767401 0.77908196 0.77821469 0.77447008 0.7694848 0.76443231 0.7600326 0.75451555 0.7474081 0.73902043 0.73050977 0.722928 0.71598972 0.70904276 0.70175231 0.69371979 0.6907179 0.6879992 0.68565025 0.67820458 0.66807032 0.65775933 0.64867282 0.64152847 0.63443328 0.62732977 0.6186465 0.61025432 0.60210999 0.5951312 0.58836905 0.57939175 0.57286809 0.5675203 0.56289782 0.55782215 0.55236702 0.54719158 0.54392304 0.54189019 0.53961375 0.53751738 0.53710432 0.53815935 0.5383949 0.53639299 0.5336019 0.5317402 0.5311298 0.5304279 0.529085 0.527559 0.5260026 0.5251786 0.5251175 0.5254837 0.5266435
0.75016696 0.7491826 0.75136057 0.7520931 0.74852246 0.74867856 0.74723594 0.74472906 0.74488498 0.74506661 0.74318199 0.74294871 0.74134679 0.73956441 0.73594002 0.73358972 0.73035535 0.72562066 0.72350787 0.72173152 0.71895488 0.71654001 0.71382774 0.71011537 0.70583177 0.70209317 0.69928277 0.69881149 0.70034307 0.70376895 0.70727333 0.70950944 0.71125152 0.71075251 0.70871388 0.70676487 0.70647429 0.70951317 0.71346785 0.71761131 0.7248053 0.733271 0.74167668 0.74882795 0.75356048 0.75744643 0.76210306 0.76594982 0.76769129 0.77144358 0.77532677 0.78009556 0.78545 0.79261918 0.80147479 0.8087745 0.81455072 0.82143504 0.82815634 0.83762209 0.84720666 0.8589086 0.8724592 0.8861625 0.8968443 0.9054508 0.9132027 0.9186962 0.9217787 0.9217482 0.923091 0.928493 0.9406397 0.9517488 0.960691 0.9630104 0.9573643 0.9472319 0.9394189 0.9358481 0.9315754 0.9296222 0.92538 0.9263871 0.930141 0.9363059 0.9385033 0.9376183 0.931667 0.9268449 0.9216566 0.9119514 0.8987365 0.88424904 0.87153289 0.86482942 0.86032459 0.85459213 0.84699865 0.8379075 0.83066033 0.8257778 0.81987322 0.81337379 0.80589847 0.80029941 0.79523795 0.79054051 0.785946 0.7829386 0.78062375 0.77870553 0.77587855 0.77241636 0.76868127 0.76460334 0.76150199 0.75836211 0.756516 0.75775548 0.76003795 0.76288276 0.76417929 0.76519221 0.76670878 0.76847853 0.76992147 0.7717326 0.77418226 0.77703139 0.77952918 0.78091293 0.78340874 0.78680906 0.7926052 0.79934613 0.80675359 0.81262061 0.81807099 0.8227871 0.82599303 0.83090871 0.83254191 0.8356316 0.83779818 0.83914222 0.83644321 0.83178563 0.82727968 0.82342495 0.82122259 0.8198812 0.82118329 0.82166856 0.82344473 0.82833911 0.83398507 0.84027886 0.84633785 0.851704 0.85435055 0.85262513 0.84793625 0.8428249 0.8436794 0.8455716 0.8475859 0.8507294 0.8527132 0.8561924 0.8574132 0.8560398 0.8509125 0.844595 0.8403528 0.8386437 0.8394983 0.8395288 0.8364158 0.8288775 0.816395 0.8049808 0.7945431 0.7874321 0.7824269 0.7780321 0.7703412 0.7609412 0.7493438 0.740188 0.733138 0.7302082 0.7309711 0.7329243 0.7336568 0.73449906 0.73346631 0.72962174 0.72408476 0.71959487 0.71395777 0.70912875 0.70554888 0.70368629 0.70221299 0.69947838 0.69638846 0.69407788 0.69258693 0.69459812 0.7008533 0.71386252 0.73096071 0.74330163 0.75150286 0.75235693 0.75622669 0.76075474 0.76930771 0.77655435 0.7799105 0.77980527 0.7770433 0.77297725 0.76923515 0.76565256 0.76091203 0.753713 0.74453858 0.73417822 0.72482536 0.71670213 0.70922016 0.70168556 0.69382202 0.69067417 0.68803371 0.68539351 0.67758758 0.66710554 0.65691485 0.64763183 0.63967435 0.63164054 0.62382707 0.61461522 0.60652289 0.59872547 0.59173216 0.58455363 0.57584051 0.56975551 0.56448141 0.55917515 0.55384873 0.5487793 0.54424946 0.54160418 0.54007498 0.53838477 0.53616372 0.53566301 0.53620547 0.53613701 0.53306489 0.5292681 0.5272844 0.5263383 0.5254532 0.5234084 0.521211 0.5198071 0.5192883 0.5193493 0.5198987 0.5221571
0.7485175 0.74899895 0.7496956 0.75050621 0.74871272 0.74574612 0.7457605 0.74491117 0.74441125 0.74565916 0.74322564 0.74410852 0.74054134 0.73798207 0.737626 0.73480103 0.73081725 0.7254765 0.72623371 0.72483061 0.72051078 0.71804372 0.71651329 0.713813 0.70802466 0.70324446 0.69960412 0.69763408 0.69927838 0.70095572 0.70476264 0.70804107 0.70835455 0.70763061 0.70497528 0.7028003 0.70335343 0.70657312 0.71096973 0.71573167 0.72280234 0.73061733 0.7389093 0.74645593 0.75140218 0.75565527 0.76147328 0.76498329 0.76692295 0.76975004 0.77232093 0.77524895 0.77938342 0.78539666 0.79380337 0.80156119 0.80645897 0.81278888 0.82123335 0.83370489 0.8449094 0.8568638 0.8708417 0.8847586 0.8944638 0.9020936 0.9101202 0.9154306 0.9202222 0.9207105 0.9242202 0.9300189 0.9434475 0.9550754 0.9641091 0.9649637 0.9587988 0.9486968 0.9403955 0.9360617 0.9300799 0.9277605 0.9255021 0.9284014 0.9334981 0.9389306 0.9396631 0.9368247 0.9305988 0.9241287 0.9171092 0.907404 0.8944333 0.88147109 0.87064991 0.86412655 0.85909837 0.85260753 0.84471754 0.83782531 0.83164205 0.82614091 0.81935297 0.81180039 0.80518977 0.79971827 0.7950224 0.7897587 0.78496885 0.78319327 0.78075971 0.77791127 0.77587593 0.77262309 0.76759478 0.76355993 0.75877468 0.75549413 0.75454914 0.75574505 0.7586132 0.76170046 0.76282922 0.76386926 0.76530073 0.76629535 0.76709796 0.76847621 0.77096392 0.77527126 0.77952979 0.78215536 0.7853474 0.7898214 0.7961675 0.80277994 0.80938278 0.81485569 0.81971193 0.82438175 0.82863349 0.83469799 0.83777786 0.84003323 0.84090364 0.84119837 0.83876678 0.83579478 0.83345809 0.8309923 0.82859193 0.82648711 0.82729153 0.82774404 0.83066871 0.83587431 0.83991015 0.84432534 0.84829327 0.85194148 0.85312957 0.84957259 0.84473153 0.8414515 0.8445035 0.8496917 0.8529268 0.8574437 0.8593969 0.8631203 0.8635781 0.8615333 0.8553379 0.8482574 0.8446255 0.8428249 0.8426113 0.8403528 0.835256 0.8263749 0.8138009 0.802173 0.7917354 0.7847769 0.7801074 0.7756821 0.7682964 0.7593848 0.7499847 0.7422633 0.7377464 0.7366782 0.7375633 0.7378991 0.7369224 0.73526861 0.73255499 0.72879588 0.7244898 0.72151329 0.71678914 0.71160032 0.70802911 0.70509161 0.70276678 0.70019025 0.69737517 0.69538938 0.69399907 0.6957063 0.70195682 0.71505575 0.73209584 0.74528065 0.75402376 0.75518966 0.75836033 0.7620817 0.76928143 0.77598996 0.779514 0.7797913 0.7778785 0.77493228 0.77239836 0.76958394 0.76575954 0.75904034 0.75019951 0.73899676 0.72811738 0.7179064 0.70840175 0.69986342 0.69179957 0.68882673 0.68646214 0.68393751 0.67654252 0.66610726 0.65621913 0.64618151 0.63719799 0.62863476 0.62042581 0.61110995 0.60311742 0.5956789 0.58855625 0.58123215 0.57329371 0.56753949 0.56192827 0.55591028 0.5505725 0.54601144 0.54225136 0.53982312 0.53826732 0.53653213 0.53503171 0.5341974 0.53397788 0.53283865 0.52933841 0.5253922 0.5229812 0.5216688 0.5202649 0.5180675 0.5160227 0.5154428 0.5147714 0.5146188 0.5157785 0.5185253
0.74822738 0.7489921 0.74689601 0.7462247 0.74612512 0.74729791 0.74422963 0.74592143 0.74550513 0.74610047 0.74437497 0.74070415 0.73916318 0.73796303 0.73761897 0.73646236 0.73256135 0.72824877 0.72716423 0.72569521 0.72120094 0.7189434 0.71891703 0.71625134 0.70990673 0.70441896 0.70062096 0.6993218 0.69868281 0.7002584 0.70116543 0.70333891 0.70350869 0.70312715 0.70215084 0.70069656 0.70087438 0.7045338 0.70912663 0.7158578 0.72194558 0.72877421 0.73552492 0.74062613 0.74512299 0.75011717 0.75601337 0.76073523 0.76376229 0.76608589 0.76768103 0.76982975 0.77348933 0.77941778 0.7867189 0.79275754 0.79841502 0.80593469 0.81687354 0.83137665 0.84441548 0.856406 0.8707502 0.8855826 0.8946774 0.9026735 0.9114326 0.9164988 0.9210462 0.9221449 0.9281877 0.9338338 0.9443631 0.9529696 0.9617286 0.9634683 0.9582494 0.9501923 0.9411891 0.934139 0.926204 0.9254105 0.9258072 0.9299579 0.9340475 0.9367942 0.9361839 0.9320637 0.9256852 0.9187878 0.9091436 0.898767 0.8879021 0.88031277 0.87273069 0.8676032 0.86012514 0.8504708 0.84050144 0.83474527 0.82956081 0.82402724 0.81650333 0.80853668 0.80302594 0.79811271 0.79441702 0.79001504 0.78610362 0.78350161 0.77923596 0.77486533 0.7736123 0.77104777 0.76538689 0.76174787 0.75716767 0.75421046 0.75331381 0.75405696 0.75761945 0.76094337 0.76223691 0.76277514 0.76316275 0.76387318 0.76527918 0.76702323 0.77000002 0.77605325 0.78199608 0.78615507 0.78986558 0.79424419 0.79961035 0.80563089 0.81114363 0.81650966 0.82151497 0.82658753 0.83304556 0.84059725 0.84523164 0.84605433 0.84505263 0.8436065 0.84174076 0.84079909 0.83943922 0.83712585 0.83388531 0.8308174 0.8318393 0.83348088 0.83747397 0.84243583 0.84485344 0.84665197 0.84790041 0.8494762 0.85032231 0.84624518 0.84128251 0.8395593 0.8451138 0.8528963 0.8568943 0.8626015 0.8652872 0.8679729 0.8675761 0.8647378 0.8579931 0.8507599 0.8486236 0.8475859 0.8453275 0.8403833 0.8339132 0.8246963 0.8123665 0.7996094 0.7881951 0.7803516 0.7754685 0.7715315 0.7660074 0.7588964 0.7516633 0.7453153 0.7426906 0.7422938 0.7428737 0.7422633 0.7401575 0.73680006 0.73231449 0.72845823 0.72410565 0.72170739 0.71818064 0.71400441 0.70954652 0.70511593 0.7020123 0.70021039 0.69836965 0.6967667 0.69566583 0.69721222 0.70291035 0.7158417 0.73235579 0.74657647 0.75564716 0.75736611 0.75967136 0.7624204 0.7683116 0.77409776 0.77815842 0.77995696 0.78006917 0.77822649 0.77573548 0.77218482 0.7680484 0.7618522 0.75460358 0.74417576 0.7327423 0.72032399 0.70793276 0.69637744 0.68631791 0.68294504 0.68097054 0.67896207 0.67266575 0.66296764 0.65362981 0.64383582 0.6347401 0.62613866 0.61779463 0.6086884 0.60061347 0.59357119 0.58608738 0.5784774 0.57107368 0.56525286 0.55922877 0.55318396 0.54775334 0.54349334 0.54036983 0.53789037 0.53592214 0.53404666 0.53341375 0.532397 0.53165864 0.52938807 0.52545925 0.5215772 0.5190441 0.5177318 0.5158396 0.5134286 0.5116584 0.5117805 0.5111701 0.5111396 0.5127876 0.5150461
0.75045721 0.74603666 0.74585998 0.74579903 0.74460016 0.74785303 0.74612943 0.74557182 0.74637334 0.74835779 0.74425637 0.74204162 0.73947136 0.73873951 0.73785392 0.73745056 0.73188956 0.7280621 0.72684109 0.72649175 0.72158277 0.71882161 0.71956583 0.71710275 0.71186119 0.70753169 0.70316417 0.70235605 0.69964425 0.6986103 0.69876269 0.70105834 0.70146835 0.70111063 0.70073179 0.70139742 0.70193804 0.70440699 0.70864106 0.71408123 0.71996672 0.72545052 0.73093713 0.73468601 0.73795374 0.7440604 0.75029996 0.75635286 0.75960965 0.7614916 0.76217823 0.76421577 0.76825912 0.77378642 0.7813684 0.78820035 0.79558443 0.80546954 0.81756472 0.8319274 0.84559367 0.85727004 0.87086789 0.88489359 0.89418286 0.90182183 0.91034708 0.9156941 0.92122442 0.92547155 0.9327439 0.93839369 0.94603077 0.95366602 0.96108881 0.96221763 0.95692685 0.95166951 0.94243681 0.93458129 0.92669526 0.92757863 0.92986784 0.93331803 0.9349025 0.93538832 0.93248237 0.92645993 0.9198871 0.91224475 0.90157769 0.89219399 0.8850101 0.8825465 0.87727687 0.87264939 0.8632201 0.85107403 0.84039357 0.8336188 0.82656707 0.81977586 0.81223584 0.80525168 0.80020839 0.79672145 0.79312236 0.7886066 0.78583035 0.78192256 0.77682929 0.77067523 0.76912636 0.76762942 0.76310172 0.76172379 0.75877664 0.75618709 0.75493557 0.75513536 0.7592368 0.76388195 0.76685202 0.76744984 0.76762034 0.76770817 0.76855706 0.77026674 0.77403583 0.78123112 0.78815029 0.79262019 0.79635105 0.799722 0.80361125 0.80898277 0.81451343 0.8208028 0.82661332 0.83262443 0.84000867 0.84807864 0.85313286 0.85291232 0.85132914 0.84950759 0.84855731 0.84888224 0.84767149 0.8438756 0.83837766 0.83586367 0.83857412 0.841301 0.84501478 0.84823144 0.84796912 0.84713561 0.84651565 0.84762122 0.84827533 0.84467804 0.84145192 0.84305856 0.84959781 0.85674802 0.85995636 0.86673986 0.87095626 0.87440866 0.87367503 0.8697631 0.86230709 0.85537009 0.85549115 0.85536867 0.85096809 0.84354222 0.8355051 0.82615365 0.81411325 0.80066631 0.78783127 0.77851054 0.77190901 0.76714131 0.76289238 0.7583993 0.75448767 0.75100296 0.74938396 0.74806894 0.74748694 0.74519517 0.7423829 0.73835254 0.73273004 0.7283117 0.72329203 0.72056155 0.71788135 0.71392156 0.70855955 0.70330326 0.70004803 0.69947102 0.69954027 0.69992045 0.69929598 0.70000965 0.70432787 0.71650397 0.73226005 0.7467037 0.75561569 0.75841512 0.76102252 0.76369723 0.76841214 0.77362539 0.77805731 0.78079404 0.78227044 0.78123891 0.77854979 0.77374293 0.76898442 0.76332518 0.7572573 0.74789848 0.73659614 0.72319137 0.70899726 0.69497359 0.68246498 0.67780595 0.67581372 0.67428791 0.66864795 0.65943114 0.65076081 0.64158515 0.63276765 0.62393136 0.61504762 0.60584718 0.59785273 0.59089012 0.5830218 0.57501617 0.56785832 0.5621508 0.55628135 0.55046232 0.54484105 0.54055118 0.53810599 0.53584621 0.53380437 0.53200654 0.53093272 0.52948156 0.527728 0.52486976 0.52157968 0.5184004 0.5158684 0.51440514 0.51257328 0.51028411 0.50881915 0.50866886 0.50812103 0.50846104 0.50977966 0.51192446
0.7502814 0.74749117 0.74497754 0.74498688 0.74411311 0.74716332 0.7460495 0.74439219 0.74583624 0.74464852 0.74210425 0.74132174 0.74107444 0.73779525 0.73783256 0.7358776 0.73214043 0.72775044 0.72754659 0.72632863 0.72412606 0.72134285 0.71883722 0.71605116 0.71184641 0.70799217 0.70505391 0.70282975 0.69872079 0.69685422 0.69620527 0.69843536 0.69852503 0.69923327 0.69891264 0.70052971 0.7031765 0.70632365 0.70906365 0.7126269 0.71729383 0.72207053 0.72582076 0.7290986 0.73221686 0.73779869 0.74490361 0.75156078 0.75525117 0.75672649 0.75786994 0.7602722 0.76455361 0.76956775 0.77689058 0.78455782 0.79376276 0.80524595 0.81871462 0.83356066 0.847407 0.85847058 0.87032473 0.88065137 0.88914475 0.89666029 0.90457304 0.91028582 0.91486816 0.92137519 0.93005023 0.93878765 0.94562933 0.95198204 0.9566855 0.9562234 0.95200571 0.94922424 0.94182736 0.93623456 0.93116028 0.93283838 0.93473024 0.93631499 0.93505955 0.93175722 0.92561391 0.91791204 0.91134065 0.90370048 0.89434903 0.88799195 0.88404808 0.88391079 0.87900897 0.87367523 0.86469663 0.85347543 0.84210998 0.83368554 0.82418932 0.81558284 0.8076348 0.80095514 0.79613788 0.79363072 0.79033248 0.78491449 0.78225334 0.77808781 0.77262746 0.76600359 0.76326962 0.76363995 0.7620825 0.76292281 0.76079869 0.75759811 0.7558415 0.75691161 0.76116093 0.76689179 0.77152987 0.7722466 0.77231808 0.77244209 0.7738162 0.77636802 0.7811013 0.78832538 0.79487657 0.79829875 0.80049216 0.80200996 0.80494854 0.81022402 0.81655658 0.82369977 0.83058747 0.83734624 0.84410853 0.85197854 0.85721827 0.85798419 0.85701195 0.85538625 0.8551081 0.85574175 0.85463772 0.85062484 0.84548347 0.84318167 0.84688459 0.84833128 0.85020443 0.85060497 0.84829618 0.84649332 0.8453182 0.84636867 0.8452928 0.84220202 0.84019905 0.84352525 0.85039946 0.85724282 0.86167263 0.86906627 0.87441269 0.87829249 0.87783355 0.87242583 0.86490945 0.85898198 0.85971502 0.85840104 0.85293171 0.84459009 0.83731811 0.82796838 0.81586851 0.80095812 0.78693303 0.77691115 0.76969927 0.76477954 0.7610516 0.75765909 0.75536743 0.75445069 0.75432801 0.75176098 0.74904101 0.7452213 0.74204269 0.73792758 0.73141958 0.72650581 0.7207706 0.71787917 0.71522571 0.71096416 0.70516725 0.70061778 0.69835267 0.69833422 0.69932724 0.70097589 0.70101361 0.70119025 0.70493456 0.71685662 0.731766 0.74591259 0.75456235 0.75837887 0.7615585 0.76451331 0.76842637 0.77285212 0.77762779 0.78133908 0.78392565 0.78287425 0.77966605 0.77395124 0.76852351 0.76293155 0.75676015 0.74765794 0.7371777 0.72472309 0.71077263 0.6958108 0.68182222 0.67624583 0.67325505 0.67135088 0.66451715 0.65553084 0.64704613 0.63826526 0.62961152 0.6206645 0.61165303 0.602798 0.59504174 0.58846628 0.58059256 0.57241586 0.56512977 0.5593857 0.55376806 0.54807905 0.54280518 0.53888563 0.53684525 0.53473345 0.53239114 0.53016647 0.52884462 0.52739019 0.52474905 0.52139903 0.51841473 0.51609388 0.51386682 0.5122503 0.51041812 0.50812899 0.50684763 0.50681968 0.50636394 0.50658147 0.50744099 0.50937068
0.74820807 0.74602763 0.74376887 0.73782445 0.74244108 0.74285216 0.7428311 0.74340314 0.74099039 0.73962252 0.74191206 0.74337067 0.74076379 0.73648606 0.73758508 0.73523947 0.72937449 0.72678284 0.72665177 0.72392591 0.72347445 0.72060155 0.719268 0.71414414 0.71116108 0.70754877 0.70476432 0.70253808 0.69812157 0.6939676 0.69259642 0.69435864 0.69660891 0.69718597 0.69622006 0.69790637 0.70264072 0.70722572 0.70892018 0.71069327 0.71303891 0.71662417 0.71972258 0.72333783 0.72611256 0.73250266 0.73970407 0.74534931 0.74998522 0.75334026 0.7560435 0.76000798 0.76392885 0.76656882 0.77363163 0.78178512 0.79164228 0.80361794 0.81706019 0.83077488 0.84551843 0.85672384 0.86749282 0.8753026 0.88286829 0.89037303 0.89772532 0.90413185 0.90867761 0.9167621 0.92533459 0.93616539 0.94541023 0.95172529 0.95459431 0.95291698 0.94971437 0.94626838 0.94074746 0.93769714 0.93684389 0.93992588 0.9405986 0.93858631 0.93507911 0.92852107 0.92055983 0.91128693 0.90369161 0.89688947 0.89030083 0.88712905 0.88633685 0.88678629 0.8812834 0.87297113 0.86276607 0.8519958 0.84192024 0.83277253 0.82168531 0.81187822 0.80494481 0.79852255 0.79409918 0.79097568 0.7870596 0.78029223 0.77694462 0.77143618 0.76538481 0.7595709 0.7581275 0.76049294 0.76098121 0.76205709 0.76082104 0.75818941 0.7573097 0.75918687 0.76309523 0.76950959 0.77500434 0.77616226 0.77674614 0.77737397 0.77932153 0.78294997 0.78866525 0.79534053 0.80055593 0.8019236 0.80267555 0.80213945 0.8041825 0.80961664 0.81698407 0.82521009 0.83300298 0.84015469 0.8467706 0.8545727 0.86041732 0.8619206 0.86179147 0.8606305 0.86063757 0.86075025 0.8600252 0.85632174 0.85232903 0.85041548 0.85334235 0.85243457 0.85054425 0.84809183 0.84406057 0.8433581 0.84298759 0.84479699 0.84303181 0.8409179 0.84179417 0.8465424 0.85325398 0.85926397 0.86417563 0.8719243 0.87826977 0.88165599 0.88010048 0.87348069 0.86573207 0.86197968 0.86146118 0.8568547 0.85035734 0.84212052 0.83583663 0.82540333 0.81304869 0.79767389 0.78358041 0.77391013 0.766223 0.76082341 0.75682775 0.75392982 0.75301427 0.75347216 0.75393003 0.75133744 0.74758534 0.74368067 0.7402031 0.73612882 0.72993724 0.7249644 0.71947256 0.71569907 0.71252992 0.70805407 0.70227446 0.69898607 0.69766487 0.69775568 0.69886048 0.70103125 0.70135202 0.70133296 0.7048779 0.71696018 0.73077738 0.74444595 0.7528149 0.75766375 0.76178496 0.76567858 0.76939792 0.77314892 0.77732739 0.78054595 0.78242982 0.78074769 0.77769972 0.7720726 0.76635869 0.7603558 0.75342398 0.74404171 0.73386378 0.7234156 0.71155421 0.69823982 0.68427648 0.67739498 0.67308321 0.67060165 0.66246151 0.65316505 0.64409322 0.6349787 0.62612412 0.61718347 0.60823646 0.59969748 0.59187822 0.58529717 0.57792856 0.57045751 0.56328653 0.55671534 0.55097096 0.54578687 0.54117469 0.53771321 0.53552026 0.53315833 0.5305708 0.52797965 0.52653791 0.52511532 0.52232655 0.51882717 0.51593675 0.51444188 0.51288469 0.5112363 0.50925313 0.50690337 0.50546898 0.50574258 0.50537527 0.50534328 0.50634856 0.50832975
0.74553088 0.74414369 0.74213688 0.74099772 0.74039498 0.7404948 0.74160616 0.73975093 0.73919159 0.73562346 0.73663726 0.73979579 0.73755564 0.7357677 0.73424313 0.73102704 0.72822527 0.72553199 0.7235229 0.72327074 0.7244105 0.72158803 0.71815476 0.71403133 0.71069734 0.7073148 0.705058 0.70226005 0.69700846 0.69171564 0.69132591 0.69233553 0.69294768 0.69366826 0.69383897 0.69621042 0.70082928 0.70449677 0.707016 0.70810369 0.70854663 0.71126523 0.7138348 0.71694878 0.72012352 0.72767136 0.73579159 0.74199371 0.74555068 0.74910116 0.75323907 0.75968438 0.76523676 0.76539599 0.76915539 0.77589996 0.7860736 0.7986042 0.81214071 0.82447207 0.83837148 0.85004516 0.86078497 0.8686952 0.87654424 0.88433267 0.89230461 0.89820846 0.90371692 0.91327145 0.92267758 0.9332673 0.94245753 0.9484297 0.95077619 0.9508716 0.95030283 0.94796657 0.94435021 0.94167584 0.94335564 0.94634955 0.94520138 0.93994655 0.93304742 0.92432382 0.91581431 0.90596301 0.89900429 0.89371645 0.88794332 0.88575976 0.88677247 0.8874395 0.88128739 0.87063579 0.85853441 0.84782095 0.83803101 0.82954716 0.81917179 0.80875755 0.80227633 0.79618653 0.79141431 0.78809519 0.78272456 0.77502925 0.77053177 0.76460683 0.75847509 0.75456171 0.75526466 0.75920683 0.76056009 0.76047212 0.75949939 0.75768728 0.75808021 0.76152305 0.76517321 0.77119987 0.77699695 0.77903046 0.78022443 0.78086331 0.78315637 0.78704839 0.79253804 0.7981116 0.80234023 0.80274464 0.80250007 0.80106768 0.80226158 0.80787562 0.81602476 0.82543349 0.83388549 0.84123068 0.84726017 0.85433773 0.86028663 0.86280612 0.86414485 0.86419445 0.86455016 0.86447321 0.86358033 0.86016143 0.85712348 0.8552303 0.8571843 0.85432401 0.84946924 0.84564059 0.84210753 0.84376937 0.84473873 0.84701604 0.84474154 0.84331419 0.8446148 0.84870297 0.85536823 0.86291256 0.870518 0.87870133 0.88375148 0.88432747 0.88013212 0.87347469 0.86638675 0.86188428 0.85887201 0.85212077 0.84485034 0.83639491 0.82924848 0.81878598 0.80722948 0.79314771 0.77900374 0.76972662 0.76294388 0.75816893 0.75452137 0.75075201 0.74996362 0.75060532 0.75103322 0.74860165 0.74468039 0.74057503 0.73583087 0.73258138 0.72790033 0.72316873 0.71832286 0.71340412 0.71025393 0.70649689 0.70233307 0.70076972 0.70014598 0.6997168 0.6987099 0.69932979 0.69895469 0.69938333 0.70448113 0.71694131 0.72999003 0.74290403 0.75084211 0.75682778 0.76230341 0.76716749 0.77077366 0.77385095 0.77683385 0.77902146 0.78004402 0.77737367 0.77438575 0.76895077 0.76306318 0.75617411 0.74858983 0.7395788 0.73040701 0.72124675 0.71120839 0.70089954 0.68890228 0.68205195 0.6764664 0.67300466 0.66273915 0.65310414 0.64408013 0.63540924 0.62719059 0.61872932 0.61021373 0.60200367 0.59455299 0.58829664 0.58058359 0.57252411 0.56538135 0.55985407 0.55444551 0.54896997 0.54382732 0.53994234 0.53792532 0.53585104 0.53355435 0.53136844 0.53008295 0.52865487 0.52603803 0.52270468 0.51972482 0.51739588 0.51516457 0.51354366 0.51171708 0.50943058 0.50814948 0.50811177 0.50764534 0.50784711 0.50868998 0.51059453
0.74565404 0.74347396 0.74193959 0.74401705 0.74351066 0.74154586 0.73872025 0.73903156 0.73586383 0.73266858 0.73345898 0.7366056 0.73320763 0.73023948 0.73027877 0.72874677 0.72518892 0.72291015 0.72277314 0.72185941 0.72460673 0.72259962 0.71797426 0.7148269 0.71035556 0.70669185 0.70484393 0.7015529 0.69456141 0.68983401 0.68827543 0.68957679 0.68938831 0.68863374 0.68890348 0.69268961 0.69789761 0.70148131 0.70285569 0.70340139 0.70427477 0.70660161 0.70828549 0.70977638 0.71232115 0.72079883 0.73017262 0.73804474 0.74179046 0.74478889 0.74980812 0.75597494 0.76172026 0.76194069 0.76477827 0.77092015 0.78272662 0.79561143 0.80850639 0.81977649 0.83207975 0.84155386 0.8503742 0.85891984 0.86813204 0.87750947 0.88726224 0.89389355 0.90165361 0.91277706 0.92287491 0.93185001 0.93892911 0.94279244 0.94543791 0.94803315 0.95131849 0.95323938 0.95360671 0.95046189 0.95112791 0.95156968 0.94895159 0.94108888 0.93134946 0.92049138 0.91135977 0.90188532 0.89518209 0.88985594 0.88511388 0.88364993 0.88418095 0.88366332 0.87663469 0.86547233 0.85284708 0.84242824 0.83247685 0.82410732 0.8150609 0.80580578 0.79969907 0.79498848 0.79032923 0.78591997 0.77953621 0.77153972 0.76604286 0.75977141 0.75426223 0.75199758 0.75345751 0.75637466 0.75697227 0.7570852 0.75650262 0.75656806 0.758287 0.76179796 0.7655872 0.77058441 0.7767423 0.78052102 0.78259012 0.78315229 0.7854754 0.78936819 0.79486387 0.79931024 0.80278973 0.80310734 0.80182143 0.79962914 0.79976011 0.80525226 0.81417178 0.82469441 0.83392924 0.84197633 0.84786314 0.8540992 0.86028231 0.86355851 0.86653242 0.86715668 0.8675914 0.86711234 0.86708321 0.86393659 0.86115533 0.85733989 0.85732925 0.85256978 0.84693086 0.84330357 0.84107515 0.8440925 0.84524539 0.84774889 0.84504426 0.84438691 0.84601874 0.85072088 0.85835975 0.86853891 0.87835006 0.88519837 0.88704899 0.88402165 0.87702559 0.8697622 0.86209749 0.85698368 0.85231738 0.84546976 0.83847813 0.82951026 0.82103173 0.8105231 0.79995991 0.78751573 0.77324894 0.76491994 0.75898384 0.7552589 0.75181069 0.74787839 0.74703565 0.74731306 0.7466226 0.74399161 0.74008742 0.73618661 0.73106931 0.72800738 0.72434736 0.71977082 0.7163412 0.71132763 0.70770865 0.70416532 0.7019109 0.70159296 0.70132253 0.70029559 0.69763114 0.69665557 0.69538262 0.69586397 0.70227732 0.71525516 0.7281905 0.74048798 0.74845091 0.75502225 0.76170025 0.76805784 0.77186516 0.77435474 0.77557084 0.77621578 0.77576083 0.77251383 0.7690165 0.76391625 0.757651 0.74997133 0.7419071 0.7339843 0.72623359 0.71885753 0.71075838 0.70306369 0.69317472 0.68637138 0.67987084 0.67373565 0.66347994 0.65345563 0.64434324 0.63571863 0.62795244 0.62030685 0.61253742 0.60440205 0.59695596 0.59049757 0.58295459 0.57523452 0.56844844 0.56318143 0.55769172 0.55218167 0.54675011 0.54253801 0.54017221 0.5380237 0.53609713 0.5343951 0.53339483 0.53200074 0.53028782 0.52745813 0.52417416 0.52097952 0.51843588 0.51695595 0.5151295 0.51284513 0.51138465 0.51121938 0.51065017 0.51095714 0.51224161 0.51433639
0.74439275 0.74408317 0.74267831 0.7410089 0.74098999 0.73979333 0.73673917 0.73403429 0.73139098 0.73107984 0.72911521 0.72964029 0.72835009 0.72668372 0.7239611 0.72397725 0.72124188 0.71903805 0.72065656 0.72095145 0.72130108 0.71848585 0.71531812 0.71135189 0.70688593 0.70218513 0.70082912 0.69842046 0.69181399 0.68686612 0.68676939 0.68687342 0.68529682 0.6849457 0.68541873 0.6892253 0.69357285 0.69611624 0.69694826 0.69699388 0.697446 0.69961566 0.70146997 0.70397038 0.70714823 0.71550158 0.72432002 0.7321949 0.737701 0.74200074 0.74726106 0.75274048 0.75743295 0.75768468 0.76105727 0.76723286 0.77706881 0.78705346 0.79882372 0.81164162 0.82424552 0.8333447 0.84091473 0.85068423 0.85988941 0.870987 0.88288357 0.89259323 0.90338787 0.91505991 0.92457535 0.93220872 0.93498018 0.93613871 0.93858615 0.9429455 0.9482154 0.95296405 0.95720013 0.95530069 0.95355335 0.95195677 0.94836497 0.93935124 0.92820305 0.91653254 0.90682081 0.89810421 0.89184597 0.88673323 0.88297236 0.88125202 0.87964608 0.87560374 0.86856243 0.857068 0.84563819 0.83619808 0.82620037 0.81803167 0.81007403 0.8036864 0.79759689 0.79344324 0.78868256 0.7829851 0.77541468 0.76707077 0.76016311 0.75454358 0.75066459 0.75059249 0.75325767 0.7551146 0.75497367 0.7547835 0.75436009 0.75573333 0.75809102 0.76122898 0.76535452 0.76958139 0.77578082 0.77992051 0.78255818 0.78417309 0.78782462 0.79242079 0.79745997 0.80094427 0.80333615 0.80308944 0.80146016 0.79857096 0.79838076 0.80337761 0.81268475 0.82433288 0.83430795 0.84240758 0.84863249 0.85420351 0.86034915 0.86382214 0.86739079 0.86763077 0.86810046 0.8675406 0.86886544 0.86667433 0.86454608 0.85932671 0.8574966 0.85159143 0.84664072 0.84438054 0.84381355 0.84655906 0.84766446 0.84984512 0.84780849 0.84689432 0.84845872 0.85403188 0.86325402 0.87544048 0.88559743 0.88960862 0.88620744 0.87795537 0.8669904 0.85997473 0.85275296 0.84856802 0.84293298 0.83573538 0.82844161 0.8201911 0.81190999 0.80326618 0.79383794 0.78287608 0.76908826 0.76140976 0.7553901 0.75160225 0.74868859 0.74607624 0.74536243 0.74464756 0.74242568 0.73960401 0.73533341 0.7311508 0.72565023 0.7213544 0.71732435 0.71243444 0.71032591 0.70645257 0.70327018 0.70055963 0.69997814 0.69989103 0.69963067 0.69811583 0.69466332 0.69263172 0.69051179 0.69087538 0.69827369 0.71264677 0.72640342 0.73884418 0.7466439 0.75313885 0.76012624 0.76687105 0.7710443 0.77342249 0.77374608 0.77313029 0.7717212 0.76824412 0.76438449 0.75925718 0.75292313 0.74550571 0.73752484 0.73046725 0.72380788 0.71750429 0.71028762 0.70315364 0.69464039 0.68885325 0.68246416 0.67328146 0.66347086 0.6536328 0.64466783 0.63626803 0.62886827 0.62197206 0.61504815 0.60708591 0.5995908 0.59302463 0.58602556 0.57893083 0.57215658 0.56697996 0.56144704 0.55572155 0.55047795 0.54633221 0.54332371 0.54103265 0.53926471 0.53756841 0.53705499 0.53613732 0.53545571 0.53322696 0.5293155 0.52541082 0.52285046 0.52150154 0.51960467 0.5171925 0.51542542 0.51551791 0.51487246 0.51479482 0.51638907 0.51857006
0.73978165 0.74037163 0.73973279 0.73695366 0.73763333 0.73571634 0.73499594 0.73270724 0.72788523 0.72619677 0.72577536 0.72259008 0.72262825 0.71991395 0.71994486 0.71727625 0.71779557 0.71541971 0.71743139 0.71782343 0.71765089 0.71626758 0.71312129 0.70753208 0.70521818 0.70072063 0.69918812 0.69718219 0.68970595 0.68492878 0.68484886 0.68260752 0.68156743 0.68023085 0.68122501 0.68383739 0.68656971 0.68936225 0.68957567 0.69051161 0.69159528 0.69363193 0.69618149 0.69860249 0.70290786 0.71166887 0.71990076 0.72720065 0.73304101 0.73760732 0.74334661 0.74955411 0.75358165 0.75330181 0.75573475 0.76136297 0.77021449 0.77873945 0.78980727 0.80231303 0.81418348 0.82346589 0.83297333 0.84373619 0.85428888 0.86591918 0.87875124 0.8886396 0.90005747 0.91132442 0.92049804 0.92701244 0.92864593 0.92999579 0.93224066 0.93761077 0.94353419 0.94987491 0.95512528 0.95514128 0.9513267 0.94851912 0.94367871 0.93345948 0.92181526 0.90978376 0.9009237 0.89367016 0.88791405 0.8841693 0.88106711 0.87789451 0.87247832 0.86504621 0.85782302 0.84713252 0.83741801 0.82864464 0.81855594 0.81160425 0.80539674 0.80141704 0.79590274 0.79238635 0.78820311 0.7806104 0.77088844 0.76226075 0.75504313 0.74980545 0.74758302 0.74912509 0.75183584 0.75290647 0.75162037 0.75067695 0.75164554 0.75503273 0.75764317 0.75945206 0.76263945 0.76625224 0.77236703 0.77767798 0.78075979 0.7839334 0.78918383 0.79427571 0.79883326 0.80161547 0.80354863 0.80328435 0.80166829 0.79890377 0.79874607 0.80361744 0.81294957 0.82437585 0.83385042 0.84124005 0.84752558 0.85208215 0.85802743 0.86153957 0.865068 0.86452523 0.86535693 0.86586528 0.86911012 0.86737587 0.86475932 0.85862243 0.85545999 0.8505462 0.84785127 0.847033 0.84768037 0.84956379 0.8493404 0.85103391 0.85022701 0.8508577 0.85471301 0.86159891 0.87027706 0.88130108 0.88922291 0.88805321 0.87970958 0.86732404 0.85296314 0.84626329 0.84019855 0.83743088 0.83183257 0.82497669 0.81733898 0.81007286 0.80229609 0.79415969 0.7857532 0.77654684 0.76485329 0.75837597 0.75254591 0.74836503 0.7453561 0.74333377 0.74232845 0.74048569 0.7372051 0.73491043 0.73127531 0.72724703 0.72158076 0.71614283 0.71076365 0.70500546 0.70306206 0.70010377 0.69757088 0.69593694 0.69633553 0.69509415 0.69402899 0.69217467 0.68829659 0.68574925 0.68304947 0.68314534 0.69113261 0.70699614 0.72220922 0.73547669 0.74333127 0.74951405 0.75612848 0.76290662 0.76740354 0.7700674 0.77013911 0.76922921 0.76725138 0.76427505 0.76027058 0.75514029 0.74865317 0.74215202 0.7348741 0.72877135 0.72275281 0.71728106 0.71045568 0.70325092 0.69544631 0.69066553 0.68274844 0.67293489 0.6634289 0.65407087 0.64563575 0.63777098 0.63091398 0.62430666 0.61765328 0.60958972 0.60223291 0.59538631 0.58886194 0.5822219 0.5751702 0.57024804 0.56525224 0.55970271 0.55463915 0.55027946 0.54673409 0.54453169 0.54321038 0.54171092 0.54041771 0.53975662 0.53966127 0.53860172 0.53516171 0.53120908 0.52876806 0.52739798 0.52596289 0.52372546 0.52165947 0.52103013 0.52029988 0.52007076 0.52115513 0.52376773
0.73643169 0.73446061 0.73270135 0.7317462 0.72980304 0.73003491 0.728982 0.72524477 0.72269194 0.71944321 0.71872062 0.71847368 0.71703162 0.71460142 0.71334556 0.71198217 0.71338421 0.71219877 0.71147458 0.71184742 0.7124126 0.7120083 0.70961534 0.70512034 0.70272665 0.69770123 0.69496482 0.69229199 0.68706684 0.68157739 0.67996273 0.67852242 0.67585501 0.67569934 0.67684238 0.67930133 0.68163159 0.68244284 0.68210895 0.68271634 0.68446702 0.68799089 0.69103106 0.69356943 0.69864512 0.706644 0.71428205 0.71983335 0.72486594 0.72994645 0.73538429 0.74230136 0.74686701 0.74679021 0.74859738 0.75371787 0.76245051 0.77069031 0.78097498 0.79201065 0.80268382 0.81219231 0.82370086 0.83563415 0.84715183 0.85901855 0.8727561 0.88280787 0.8943156 0.90567639 0.91461521 0.91915312 0.92013209 0.92249369 0.92582212 0.93153297 0.93670346 0.9430281 0.94772243 0.94906359 0.94552192 0.94165204 0.93498057 0.92400132 0.9127029 0.90184338 0.89456973 0.89013373 0.88491182 0.88259351 0.87957411 0.87528022 0.86730786 0.85758322 0.85004827 0.83962525 0.83031369 0.82086542 0.81051359 0.80401774 0.8006845 0.79818819 0.79267883 0.78741481 0.78315994 0.77530139 0.76556537 0.75627888 0.74880357 0.74483255 0.74562462 0.7480483 0.74955568 0.7493191 0.74770765 0.7471194 0.74918123 0.75311339 0.75555065 0.75722272 0.76010456 0.76348214 0.76881387 0.77476943 0.77873047 0.78369203 0.79053123 0.79559372 0.79897384 0.80161827 0.80309771 0.8025962 0.80116959 0.79902112 0.8000936 0.80542586 0.81501576 0.8259937 0.83534808 0.8417728 0.84765715 0.85090763 0.85546941 0.85863345 0.86132903 0.8606403 0.86253616 0.86415406 0.86752882 0.8660287 0.86266731 0.85677063 0.85358636 0.85030646 0.84885339 0.84858752 0.84948906 0.85041043 0.85052667 0.8533641 0.85445807 0.85702278 0.86183974 0.86852627 0.87569645 0.88342854 0.88792517 0.8822051 0.8692668 0.85389494 0.83933239 0.83325177 0.82866601 0.82578689 0.81969888 0.81280659 0.80478244 0.79757428 0.79006729 0.78309418 0.77721977 0.77054766 0.76148655 0.75555853 0.74899199 0.74401099 0.74054959 0.73834196 0.73648738 0.73409757 0.73075818 0.72905209 0.7266515 0.72337475 0.71795741 0.7109644 0.70356857 0.69662439 0.69396631 0.69206047 0.69112339 0.690597 0.69096312 0.6885292 0.68654474 0.68421133 0.67988035 0.67718249 0.67452524 0.67459397 0.68310089 0.69979924 0.71679408 0.73088474 0.73903877 0.74448107 0.75088928 0.7575607 0.76254941 0.76529951 0.76579279 0.7649262 0.76285712 0.75970659 0.75566383 0.75067099 0.74461635 0.73941383 0.73349761 0.72829405 0.72275124 0.71749497 0.71054489 0.7030025 0.69513417 0.69102292 0.68278138 0.67320999 0.66417765 0.65524211 0.64669287 0.63920162 0.63300616 0.62680761 0.62051192 0.61277583 0.60562509 0.59880407 0.59266479 0.58630348 0.57863376 0.57349075 0.56898725 0.56431369 0.55941954 0.55466703 0.55045697 0.54806291 0.54678125 0.54536553 0.54345926 0.54322096 0.54396952 0.54403367 0.54108419 0.53733323 0.53535117 0.53434178 0.53340573 0.53128614 0.52903449 0.52754429 0.52691372 0.52684651 0.52730139 0.52936829
0.73224376 0.73181298 0.72697035 0.72516096 0.72598654 0.72440726 0.72147821 0.71910952 0.71782017 0.71566532 0.71192887 0.70969425 0.70874744 0.7100455 0.70802509 0.70707373 0.70846273 0.7080832 0.70650209 0.70775177 0.7079533 0.70578556 0.70472721 0.70321908 0.70027181 0.69557862 0.69103672 0.68722324 0.68282455 0.67782761 0.67474984 0.67317534 0.67007047 0.66969563 0.67155483 0.67460988 0.67600857 0.67556265 0.67497707 0.67595641 0.67809749 0.68151675 0.68481342 0.68855291 0.69488087 0.70216273 0.70802265 0.71188546 0.71629703 0.72138313 0.72677565 0.73359795 0.737976 0.73849292 0.74065563 0.74751303 0.75711337 0.76653091 0.77661204 0.78672543 0.79638063 0.80573373 0.81605869 0.82686652 0.8389531 0.85076606 0.86371041 0.87347406 0.88396251 0.89497741 0.90284103 0.90656995 0.90774923 0.91202228 0.91670282 0.9227504 0.92830298 0.93444638 0.93820797 0.93933278 0.93686266 0.93181105 0.92435175 0.91343803 0.90295254 0.89268081 0.88516585 0.8816775 0.87765174 0.87661827 0.87287492 0.86758043 0.85803791 0.8476948 0.840487 0.83140609 0.82144701 0.81181459 0.80317401 0.79870235 0.79775139 0.79666244 0.79071784 0.78331945 0.7775108 0.76946319 0.76111955 0.75231575 0.7458542 0.74381125 0.74469851 0.74573789 0.74528661 0.74489074 0.7442759 0.74455348 0.74652788 0.74884979 0.7508692 0.75273353 0.7559324 0.75942172 0.76425891 0.77082482 0.77648239 0.78402629 0.79200402 0.79691745 0.79922639 0.80116993 0.80110541 0.79965928 0.7985614 0.79770155 0.80046447 0.80708893 0.8170974 0.8273685 0.8364333 0.84146119 0.84528957 0.84710424 0.85052958 0.85341356 0.85598892 0.85608752 0.85943402 0.86194344 0.86422858 0.86154471 0.85712357 0.85093917 0.84817504 0.84624956 0.8472152 0.84859684 0.85037461 0.85052965 0.84992917 0.85307791 0.85546741 0.86016896 0.86715979 0.87264413 0.87669043 0.87824371 0.87793411 0.86879401 0.85397348 0.83834532 0.82570277 0.82129894 0.81682322 0.81350072 0.80704317 0.80027171 0.79240597 0.78555923 0.77932739 0.77318269 0.76886719 0.76384194 0.75615372 0.749864 0.74275255 0.73711029 0.73341067 0.73060371 0.72768453 0.72499749 0.7221317 0.72153096 0.72063703 0.71891463 0.71473102 0.70697988 0.69841487 0.69112095 0.68826033 0.68698242 0.68710045 0.68679091 0.68591641 0.68236066 0.67892205 0.6760142 0.67113748 0.66831793 0.66626759 0.66654609 0.67550709 0.69239369 0.70988938 0.72481925 0.73349381 0.73941558 0.74597062 0.75288349 0.75780062 0.76013867 0.76128273 0.761354 0.75937713 0.75612484 0.75235866 0.74792259 0.74261445 0.73745484 0.73175587 0.72707715 0.72198095 0.71732915 0.71124759 0.70442312 0.69663877 0.69259559 0.68293829 0.67322513 0.66453835 0.65595691 0.64719092 0.63974608 0.63415604 0.62886314 0.62342392 0.61648569 0.60945849 0.60260723 0.59672868 0.59098331 0.58318225 0.57775493 0.57333469 0.5694642 0.56494567 0.55994117 0.55518945 0.55223998 0.55049047 0.54854986 0.5468347 0.54674169 0.54804612 0.54846916 0.54664259 0.54395338 0.5421798 0.5415607 0.54085227 0.53943539 0.53783868 0.53615825 0.53517542 0.53492829 0.53515632 0.53608005
0.7259321 0.72468937 0.72372577 0.71945023 0.71872672 0.71467199 0.71353001 0.71070013 0.70939029 0.70793974 0.70428739 0.7013461 0.70199089 0.70366057 0.70292216 0.70212544 0.70269422 0.70094835 0.70199253 0.70240127 0.70163738 0.700678 0.70106346 0.69898399 0.69543019 0.69148504 0.68520903 0.68088216 0.67646144 0.6726966 0.67011914 0.66758739 0.66460764 0.664275 0.66456917 0.66648097 0.6673849 0.6672072 0.66807112 0.67024602 0.6729587 0.67586862 0.67895947 0.68385889 0.69072933 0.69672896 0.70149151 0.70435449 0.70795875 0.71207455 0.71727527 0.72328268 0.72671196 0.72796324 0.73179153 0.73979999 0.75023696 0.76156136 0.77264721 0.78210374 0.79177288 0.80072042 0.81035262 0.81965489 0.83068839 0.84164706 0.8539723 0.86351438 0.8727346 0.88247929 0.88913278 0.89308661 0.89485683 0.90073483 0.90784637 0.91575276 0.92238267 0.92814002 0.93055392 0.92949105 0.92608359 0.91954904 0.91291048 0.90478598 0.89575283 0.88506458 0.87700539 0.87308036 0.86936775 0.86862252 0.86387912 0.8573862 0.84706563 0.83662449 0.82953172 0.82140664 0.81198442 0.8031324 0.79808116 0.79618029 0.79691638 0.79481358 0.78759338 0.77884221 0.77159316 0.76401267 0.75687176 0.74914087 0.74366003 0.74222948 0.74072714 0.73922327 0.73829466 0.73871988 0.740127 0.74029138 0.74199895 0.74321711 0.74464286 0.74732073 0.75111467 0.75453881 0.75937191 0.76634252 0.77316042 0.78285792 0.79250227 0.79812515 0.79962187 0.79986968 0.79771416 0.7955281 0.79446301 0.79501705 0.8002003 0.80789089 0.81757053 0.82710708 0.83610446 0.84052339 0.84255407 0.84326822 0.84482761 0.8473688 0.85030587 0.85272773 0.85645811 0.85857554 0.85929744 0.85493427 0.85023745 0.8445567 0.84316147 0.84079041 0.84292264 0.84577719 0.84864415 0.84966128 0.84885442 0.85062338 0.85304111 0.85863788 0.86723696 0.87195628 0.87270404 0.86917041 0.86421617 0.85353776 0.83848636 0.82506508 0.81405916 0.81066853 0.80609994 0.80222377 0.79531746 0.78875945 0.78100148 0.77448782 0.76904805 0.76404807 0.761265 0.75816839 0.75226386 0.74669771 0.73902981 0.73210686 0.72708881 0.72253965 0.71884368 0.71572636 0.71324156 0.71261855 0.71258383 0.71217726 0.70831346 0.70085532 0.69254011 0.68632962 0.68379371 0.68244629 0.68289742 0.6826982 0.68104341 0.67675046 0.6720325 0.66863236 0.66363102 0.66110653 0.65992309 0.66073948 0.67013067 0.68660387 0.7037097 0.71885279 0.72796161 0.73500471 0.74221325 0.74877928 0.75354889 0.75539282 0.75690294 0.75784758 0.75600632 0.75257977 0.74938275 0.74578516 0.74121894 0.73544147 0.72930806 0.72485976 0.72033343 0.71641898 0.71137637 0.70541002 0.69764784 0.69304868 0.68262126 0.6729983 0.66434462 0.65619568 0.64780625 0.64113446 0.63631132 0.63148494 0.62686454 0.62141577 0.61503239 0.60807425 0.60232894 0.59665889 0.5890586 0.58254834 0.57831272 0.57443268 0.56975674 0.56464904 0.55959223 0.55647781 0.55445781 0.55220021 0.55035525 0.55034948 0.55206601 0.55320021 0.55251626 0.55045435 0.54890457 0.54876859 0.54842027 0.54767402 0.54627012 0.54499683 0.54439365 0.54493093 0.54513938 0.54536453
0.71550647 0.71558736 0.7146534 0.71524791 0.70922243 0.7063671 0.70493978 0.70224658 0.70239505 0.69899386 0.69626472 0.69378723 0.69459532 0.69641258 0.69596636 0.69758879 0.69424977 0.69399571 0.69630848 0.6973816 0.69714743 0.6948366 0.69308372 0.69254275 0.68873115 0.68410807 0.67967389 0.67629003 0.67165714 0.66747548 0.66472618 0.66156816 0.65801125 0.65659585 0.65658798 0.65679271 0.65803822 0.65926681 0.66020771 0.66331128 0.66743816 0.67010452 0.67438547 0.67894917 0.68490307 0.68914184 0.69194626 0.69363402 0.69734508 0.70185706 0.70629467 0.71219462 0.71556939 0.718427 0.72302093 0.73238 0.74309251 0.75534356 0.76750104 0.7765778 0.78651464 0.79597266 0.80557091 0.81203517 0.82131493 0.831774 0.8436176 0.85307191 0.8619263 0.86918009 0.87330385 0.87694444 0.87966524 0.88824557 0.89792727 0.90728335 0.91519494 0.9198543 0.92166667 0.92026681 0.91588043 0.90756996 0.90114648 0.89449151 0.88669729 0.87705343 0.86903672 0.86475532 0.86056722 0.85755865 0.85165234 0.84414246 0.83545553 0.82646423 0.81888824 0.81008456 0.80216404 0.79676315 0.79641316 0.79622247 0.7970543 0.79251254 0.78366958 0.77398877 0.76667563 0.75994798 0.75345394 0.74729996 0.74116631 0.73855897 0.73454024 0.73165504 0.73027253 0.73029003 0.73220854 0.73312132 0.73572579 0.73651864 0.73769145 0.74089216 0.74520663 0.74936582 0.75421753 0.76065999 0.76901321 0.78112046 0.79150044 0.79725839 0.79830837 0.79784524 0.79531287 0.79254419 0.79129281 0.79245344 0.79916271 0.80711039 0.81661792 0.82536652 0.83331838 0.83756189 0.83871861 0.83865813 0.83842134 0.84033986 0.84438538 0.84877683 0.85250344 0.85390998 0.8533565 0.84866498 0.8441706 0.83939878 0.83854451 0.83596214 0.83915729 0.84372985 0.8477706 0.84935841 0.8486906 0.84947182 0.85134898 0.85602216 0.86345249 0.86617886 0.86456595 0.85854035 0.85029657 0.8391584 0.82493609 0.81413844 0.80506755 0.80154509 0.79540744 0.79062363 0.78283742 0.77591847 0.76896966 0.7629691 0.75854966 0.75444901 0.75287195 0.75110645 0.74653462 0.74193743 0.73413442 0.72708919 0.72164285 0.71508186 0.70963241 0.70581331 0.70371584 0.70313143 0.70353188 0.70354278 0.69940712 0.69314337 0.68636351 0.6817744 0.6797231 0.67844257 0.67845226 0.67741461 0.67497684 0.67054883 0.66525016 0.66098929 0.6560116 0.65384184 0.65356917 0.65513632 0.66476532 0.68029637 0.69612243 0.71073914 0.72096612 0.72951986 0.73767155 0.743832 0.74840405 0.75047785 0.75230561 0.75365075 0.75262356 0.74990436 0.74750489 0.7444103 0.74017773 0.73426611 0.72770356 0.72259936 0.71811032 0.7146184 0.71033064 0.70518843 0.69740612 0.69186771 0.68176899 0.67266449 0.6642336 0.65669712 0.64915844 0.6431773 0.63890832 0.63502173 0.63202659 0.62779445 0.6218419 0.61553833 0.61026939 0.60434523 0.59630269 0.58900867 0.58454349 0.58022513 0.57490518 0.56970265 0.5647921 0.5618775 0.5597193 0.55752214 0.55520206 0.55517604 0.55705151 0.55893094 0.55866497 0.55679161 0.55507061 0.55528796 0.55605631 0.55608371 0.55523636 0.55394911 0.55489428 0.55621839 0.55580556 0.5556532
0.7078859 0.70479676 0.70490059 0.70223439 0.69822503 0.69800595 0.69467634 0.69387575 0.69195968 0.69066736 0.68755084 0.68726358 0.68541161 0.68428431 0.68526088 0.68612881 0.68576726 0.68759786 0.68802005 0.68926989 0.690204 0.68808495 0.68662781 0.68492104 0.68193683 0.67758398 0.67354068 0.66972122 0.66579169 0.66254543 0.65856425 0.65574107 0.65224867 0.65207582 0.65166099 0.65130852 0.65103755 0.65259214 0.65496095 0.65842485 0.66254385 0.66478101 0.66814803 0.67239254 0.67750733 0.68119177 0.68266619 0.68440978 0.68852392 0.69361285 0.69809373 0.70321611 0.70679358 0.71159785 0.71839587 0.72802534 0.73838879 0.74897519 0.76003745 0.76904995 0.77853236 0.78794374 0.79712446 0.80305543 0.81157361 0.8223394 0.83381446 0.84170662 0.8492573 0.8546135 0.85736871 0.86147182 0.86595487 0.87476618 0.88437213 0.89481306 0.90452195 0.90914304 0.91082297 0.90976969 0.90424613 0.89480348 0.88851264 0.8827611 0.87602873 0.8683407 0.8621704 0.8588595 0.85454241 0.84871158 0.84087104 0.8323829 0.82441704 0.81640124 0.80865765 0.80003574 0.79418144 0.79103114 0.79375346 0.79404795 0.79354105 0.78644693 0.77739337 0.76876329 0.76071383 0.75366864 0.74684051 0.7417593 0.73580859 0.73155404 0.7262958 0.72335532 0.72185745 0.72133125 0.72388369 0.72599687 0.72907497 0.73005546 0.73063185 0.73419063 0.73979342 0.74441068 0.74950865 0.75617492 0.76525981 0.77815243 0.78711103 0.79262389 0.79388603 0.79389545 0.79164022 0.7889487 0.78787024 0.79016867 0.79815159 0.80559004 0.8138927 0.82123478 0.82836165 0.83253585 0.83405209 0.83433255 0.83309611 0.83418224 0.83814714 0.84301859 0.8465173 0.84731306 0.84634727 0.84126015 0.83720947 0.83310323 0.83236434 0.82990287 0.83315699 0.83861693 0.84183136 0.84325464 0.84288778 0.84533429 0.84785332 0.85162403 0.85560547 0.85602712 0.85251607 0.84702936 0.83871968 0.82968007 0.8180798 0.80878212 0.79951485 0.7941823 0.78566935 0.77986099 0.77188287 0.76416812 0.75730281 0.75217155 0.74810334 0.74490218 0.74425287 0.74317999 0.73947128 0.73576317 0.72789268 0.72175781 0.71642369 0.7091993 0.70252793 0.69761904 0.69493108 0.69402517 0.69441991 0.69434172 0.6899289 0.68466187 0.67980185 0.67746178 0.67604208 0.67449108 0.67336108 0.67108621 0.66769111 0.66363932 0.65850351 0.65404321 0.64951647 0.64833997 0.64913908 0.6514028 0.66083429 0.67505296 0.68960292 0.70340829 0.71390159 0.72340713 0.73249033 0.73859056 0.74348505 0.74557177 0.74757804 0.74887759 0.74879871 0.74741049 0.74601902 0.74335952 0.739491 0.73384952 0.72781886 0.72224852 0.71687147 0.71235549 0.7080224 0.70353702 0.69657314 0.69058363 0.68130893 0.67258494 0.66461236 0.65786768 0.65106185 0.64540327 0.6414664 0.6384184 0.63626402 0.6332718 0.62781839 0.62201716 0.61704829 0.61119808 0.60376547 0.59658547 0.59098163 0.58613013 0.58049927 0.57504942 0.57052076 0.56755778 0.56583747 0.56418143 0.56192769 0.56167169 0.56324676 0.56500956 0.56432408 0.56238773 0.56069644 0.56152311 0.56378151 0.56459981 0.56469958 0.56340497 0.56542622 0.5671979 0.56723957 0.56676764
0.69509255 0.69585733 0.69342001 0.69019782 0.68809629 0.68635893 0.68648339 0.68742372 0.68472275 0.68145573 0.68026162 0.67663435 0.67600379 0.67477391 0.67511365 0.67739558 0.67867199 0.67927538 0.68066764 0.67979065 0.68217846 0.68133956 0.67956876 0.67524709 0.67316105 0.66927258 0.66599566 0.66251491 0.66044654 0.65706406 0.65215865 0.6493916 0.64546947 0.6459632 0.64586462 0.64536902 0.64517786 0.64653325 0.64913022 0.65274068 0.65695869 0.65891495 0.66271077 0.66628193 0.670449 0.67414458 0.67414243 0.67545928 0.67989 0.68575008 0.69084841 0.69493966 0.69843039 0.7033928 0.71116317 0.71989775 0.72912038 0.73853578 0.75011227 0.7608642 0.77053691 0.78102942 0.79127292 0.79814561 0.80507529 0.81410689 0.82355711 0.83172096 0.83815422 0.84175373 0.84349088 0.8485769 0.85538136 0.86448264 0.87283214 0.88275595 0.89330396 0.8991797 0.90043345 0.89852277 0.8919792 0.8834033 0.87783733 0.87234672 0.86711144 0.86129435 0.85617739 0.85309233 0.84796535 0.84100416 0.83268491 0.82339377 0.8148607 0.80664062 0.79955767 0.79218202 0.78855314 0.78711219 0.78938989 0.78904228 0.78619972 0.77748762 0.76882151 0.76091093 0.75293771 0.74529133 0.73800839 0.73311624 0.72791663 0.7240613 0.71876048 0.71465481 0.71307182 0.71316807 0.71614853 0.71945916 0.72214092 0.72402084 0.72551044 0.72875743 0.73354368 0.73799917 0.74392046 0.75252606 0.76307453 0.77491115 0.78172909 0.78628053 0.78782187 0.78806983 0.78566686 0.78435716 0.78483903 0.78850151 0.79627909 0.80254845 0.80943509 0.81558782 0.82182723 0.82630242 0.82823181 0.8289556 0.82775517 0.82886475 0.8331058 0.83753666 0.8400682 0.83964254 0.83846019 0.83308475 0.82963725 0.8261958 0.82647398 0.82468912 0.82776295 0.83229658 0.83439138 0.83530779 0.83622461 0.84065695 0.84362358 0.84674435 0.84732158 0.84561326 0.8412257 0.8365051 0.83003187 0.82360853 0.8147993 0.80535879 0.79527056 0.78714712 0.77731412 0.76941529 0.76099165 0.75208584 0.74545257 0.74058549 0.73701445 0.73470174 0.73500939 0.73359491 0.73026919 0.727544 0.72058513 0.71586453 0.71123893 0.70303291 0.69502494 0.68881228 0.68528856 0.68484358 0.68524911 0.68443808 0.68016915 0.67652488 0.67400821 0.6736353 0.67252368 0.67037899 0.6672354 0.66371667 0.65985841 0.65620251 0.65147914 0.64668439 0.64294385 0.6429696 0.64463305 0.64733431 0.65606978 0.66949184 0.68320058 0.69657018 0.70710518 0.71726701 0.72662119 0.73314212 0.73848562 0.74048509 0.74237271 0.74337952 0.74426066 0.74415356 0.74394568 0.74165541 0.73828946 0.73364798 0.72859368 0.72238219 0.71596568 0.71002107 0.70567307 0.7015658 0.69565815 0.68963387 0.68118361 0.67274926 0.66514992 0.65893439 0.6530052 0.64827538 0.64460756 0.64229362 0.64023316 0.63742891 0.63283437 0.62805487 0.62321589 0.61743692 0.61130074 0.60481159 0.59870304 0.59289627 0.5873184 0.58153482 0.57679464 0.57346518 0.57232091 0.57148249 0.5706006 0.57020473 0.57062771 0.57168498 0.57078032 0.56874329 0.56654094 0.56681425 0.56965746 0.57199863 0.57306096 0.57281875 0.57444933 0.57585474 0.57708215 0.57716414
0.68200685 0.68262818 0.67891359 0.67865932 0.67723176 0.67757258 0.67602898 0.67749536 0.67374494 0.67244773 0.66949802 0.66723754 0.66615221 0.66567974 0.66629638 0.6658723 0.66867747 0.67060588 0.6727622 0.67244564 0.67339222 0.67123112 0.67025506 0.66761386 0.66523951 0.66258143 0.65777351 0.65564871 0.65280947 0.64907635 0.64415916 0.64171396 0.63899036 0.63920696 0.63878902 0.63933303 0.63977592 0.6404002 0.64259225 0.64645094 0.65118103 0.65373472 0.65715098 0.66116489 0.66525006 0.66871826 0.6684064 0.67040993 0.67502034 0.68180447 0.68717683 0.69077523 0.69363363 0.69771355 0.70481338 0.71227011 0.72093919 0.72966711 0.74130086 0.75116568 0.7605444 0.7713642 0.78232383 0.79009347 0.79711906 0.80574922 0.81379836 0.82131901 0.82723801 0.83132166 0.83328161 0.83973379 0.84841526 0.85773501 0.8658022 0.87447098 0.88324795 0.88932786 0.8885941 0.88412055 0.87825934 0.87254285 0.86764305 0.86327461 0.859276 0.85448688 0.85000695 0.84591814 0.84032306 0.83253502 0.82432219 0.81460231 0.80505206 0.79743241 0.79123239 0.78530825 0.78286482 0.78319669 0.78346731 0.78082448 0.77498183 0.7660458 0.75813439 0.74997477 0.74248957 0.73498956 0.72856391 0.72437181 0.71943464 0.71535999 0.71011627 0.70589465 0.70425469 0.70445933 0.70785285 0.71146247 0.71432916 0.71779228 0.72071751 0.72383352 0.72830252 0.73250514 0.73898155 0.74914748 0.75965832 0.76956141 0.77512061 0.77912865 0.78077896 0.7802453 0.77786233 0.77828961 0.78001065 0.78440034 0.7916398 0.79719502 0.80305763 0.80768676 0.81292703 0.81761814 0.82014235 0.82199076 0.82132443 0.82303323 0.82746872 0.8307616 0.83221312 0.83049187 0.82869005 0.82268749 0.81892371 0.81620275 0.81745963 0.81767604 0.82003043 0.82243349 0.82360805 0.82476608 0.82762339 0.83388403 0.83825767 0.84185686 0.84064555 0.83785722 0.8325429 0.82857926 0.82359576 0.8196513 0.8129765 0.80278844 0.79058387 0.77967369 0.76710078 0.75772059 0.74856088 0.73953673 0.73327038 0.72855984 0.72547858 0.72405434 0.72469524 0.7223056 0.71894003 0.71713794 0.71135998 0.70669503 0.70185002 0.69395975 0.68540449 0.67878485 0.67565631 0.67586075 0.67672185 0.67530928 0.67116272 0.66909607 0.66862796 0.66953555 0.66786619 0.6650867 0.65992962 0.65526696 0.65096276 0.64778036 0.64385356 0.63970122 0.63718858 0.63768858 0.63931629 0.64178732 0.6498118 0.66276845 0.67611078 0.68939913 0.70029744 0.71015902 0.71989276 0.72677511 0.73260775 0.73469619 0.73642496 0.73714403 0.7384565 0.73931755 0.73970062 0.73843997 0.73665749 0.73346224 0.72914193 0.72260901 0.71551162 0.70833469 0.70394004 0.69957059 0.69482444 0.68919837 0.68126961 0.6732493 0.66580553 0.66013333 0.65499787 0.65147992 0.64868065 0.64701812 0.64497114 0.6422686 0.63832887 0.63356295 0.62869873 0.6231801 0.61782432 0.61233601 0.6075057 0.60142314 0.59565669 0.58946632 0.58405193 0.58002828 0.57922899 0.57940157 0.57929933 0.57921717 0.5792746 0.57999409 0.5790007 0.57666565 0.5738569 0.57333527 0.57608264 0.57854567 0.58062435 0.58153945 0.583269 0.58438465 0.58567256 0.58585144
0.67104808 0.66853214 0.6662175 0.66596365 0.66635014 0.66482299 0.66400462 0.66587687 0.66282478 0.66297757 0.66127546 0.65857252 0.65741745 0.65453423 0.65568185 0.6569556 0.65838498 0.66089884 0.66229696 0.66344776 0.6641684 0.66191295 0.66025419 0.65688085 0.65650666 0.65368802 0.64975942 0.64681584 0.64450064 0.64074727 0.63720503 0.63462208 0.63346322 0.63393517 0.63343514 0.63357503 0.63433549 0.63614021 0.63724722 0.6403539 0.64474785 0.64789153 0.65059593 0.65398384 0.65842382 0.66312679 0.6649108 0.66904759 0.67370072 0.68019599 0.68467196 0.68733942 0.68854853 0.69109916 0.69626568 0.70165795 0.7096012 0.71877466 0.73099349 0.74083363 0.75004077 0.76014569 0.77032642 0.77926702 0.7884016 0.7981931 0.80466197 0.8102834 0.81450831 0.81933713 0.82341744 0.83086823 0.83956935 0.84884143 0.8583507 0.86758563 0.87532796 0.87968203 0.87661909 0.87118348 0.86556774 0.86197562 0.85814215 0.85512185 0.85125459 0.84656474 0.84166871 0.83667923 0.83036807 0.82193115 0.81339801 0.80335242 0.79400647 0.7879931 0.78341638 0.77925608 0.77797484 0.77873978 0.77700077 0.77149096 0.76290981 0.75401749 0.7470068 0.73917925 0.73212017 0.72570217 0.72038704 0.71694293 0.71245109 0.70868602 0.70394734 0.69905888 0.69635603 0.69670552 0.70071926 0.70419285 0.7072857 0.71272685 0.71594215 0.71896412 0.7230211 0.72694933 0.73304379 0.74377395 0.75440554 0.76327024 0.76915904 0.7732525 0.77453166 0.77304125 0.77079193 0.77221697 0.77458784 0.77884696 0.78522563 0.78997032 0.79454899 0.79752487 0.80254532 0.80753332 0.81067537 0.81288328 0.81327537 0.81607736 0.82182365 0.82485693 0.82493648 0.82139707 0.81786426 0.81118969 0.80705259 0.80501358 0.80774462 0.80956883 0.81223405 0.81352995 0.81427021 0.8156448 0.81927144 0.82675984 0.83166822 0.83569789 0.83463671 0.83221127 0.82666213 0.8222658 0.81765249 0.81313634 0.80618192 0.79463055 0.78223164 0.77056811 0.7563892 0.74561121 0.7364155 0.72851446 0.72223425 0.71740969 0.71432468 0.71282257 0.71299396 0.71067062 0.70802245 0.70648132 0.70106649 0.69605267 0.69129519 0.68363982 0.67539355 0.66836339 0.66563285 0.66654064 0.66729401 0.66605285 0.6626575 0.66176312 0.66290994 0.66408154 0.66221105 0.65836793 0.65186559 0.64644751 0.64194333 0.63909343 0.63638916 0.63349611 0.63206261 0.63233594 0.63348551 0.63530327 0.64282782 0.6552724 0.66865404 0.68221592 0.69342264 0.70329083 0.71274172 0.72003927 0.72599131 0.72860457 0.73036962 0.73087372 0.73199371 0.73326326 0.73390927 0.73433296 0.73451764 0.7326815 0.72875224 0.72245063 0.71563813 0.70850118 0.70367178 0.6986016 0.69389801 0.68926554 0.68185018 0.6741968 0.66756078 0.66239807 0.65779905 0.65512507 0.65354455 0.65285225 0.65135029 0.64843538 0.64376829 0.63863942 0.63336645 0.62820051 0.62373921 0.61955803 0.6159974 0.60986622 0.60382167 0.59760073 0.59180241 0.58703791 0.58594192 0.58693529 0.58755081 0.58845698 0.58894404 0.59019482 0.58985175 0.58679615 0.58318415 0.58186897 0.58399785 0.5863447 0.5885528 0.58908859 0.59065984 0.5918459 0.5924362 0.59263013
0.65737759 0.65787263 0.65739632 0.65673435 0.65417228 0.65405762 0.65377266 0.65356943 0.65311266 0.65065909 0.65075664 0.64817885 0.64571373 0.64458238 0.64608685 0.64771957 0.6494943 0.64996528 0.65196971 0.65367733 0.65307711 0.65347769 0.65158274 0.65037713 0.64858725 0.64689478 0.64341173 0.64099944 0.63902627 0.63576643 0.63127763 0.62823542 0.62811421 0.62847085 0.6280405 0.62839904 0.62901118 0.63073296 0.6326926 0.6358518 0.63884963 0.64187375 0.64289613 0.64626019 0.64981552 0.65566637 0.66025156 0.66697855 0.67287124 0.67918313 0.68277134 0.6841716 0.68383344 0.68457287 0.68867983 0.69334701 0.69936422 0.70907536 0.72125388 0.7328941 0.74187198 0.75036589 0.75867814 0.76736908 0.77713496 0.78851522 0.79483377 0.79962214 0.80374894 0.80984521 0.81588284 0.82360472 0.83219412 0.84029094 0.84964641 0.85845823 0.86513619 0.86763311 0.86378412 0.85880275 0.853403 0.85081018 0.84879097 0.84738364 0.84475909 0.83975598 0.83476281 0.82913195 0.82275557 0.81260917 0.80295789 0.79291116 0.7850928 0.78066287 0.77644884 0.77286793 0.77153021 0.77142245 0.76795399 0.76121298 0.75162911 0.74173955 0.73437841 0.72704209 0.72050655 0.7153296 0.71188459 0.70907647 0.70553795 0.70176931 0.69745456 0.69201473 0.68812317 0.68858955 0.69339329 0.69610974 0.69862716 0.70342785 0.7064157 0.70976957 0.71445721 0.71923545 0.72577749 0.73665152 0.74728774 0.75517664 0.76148089 0.7657632 0.76739259 0.76597497 0.76431517 0.76574451 0.76800148 0.77201116 0.77798966 0.78218769 0.78563737 0.78799405 0.7932374 0.79762931 0.80097161 0.80323111 0.80465909 0.80803727 0.81467781 0.81677375 0.81563868 0.8102794 0.80541585 0.79846713 0.79410251 0.79309719 0.79629645 0.79890881 0.80246274 0.80475916 0.80623058 0.80882444 0.81178778 0.81824196 0.82201034 0.82514745 0.82536403 0.8240599 0.81976985 0.81494111 0.80992061 0.8037029 0.79533592 0.78435491 0.77186664 0.76043904 0.74631709 0.73554168 0.72602671 0.71835978 0.71167441 0.70669935 0.70347056 0.70165572 0.70127574 0.69919741 0.69711466 0.69570902 0.68939853 0.68410586 0.67931475 0.67220695 0.66444416 0.65848616 0.65631848 0.65665801 0.65701455 0.65602747 0.65365455 0.6538967 0.65615618 0.65747369 0.6554898 0.65075327 0.64330493 0.63722478 0.63278467 0.63032907 0.62895053 0.6277486 0.62735109 0.62721623 0.62731788 0.62793409 0.63458389 0.64676429 0.6603224 0.67470187 0.68590728 0.69599104 0.70543216 0.71329796 0.71952798 0.7227494 0.72490125 0.72551794 0.72598345 0.72744138 0.72853141 0.72987972 0.73111493 0.72967986 0.72654123 0.72182184 0.71693291 0.7103924 0.7043324 0.69767737 0.6922191 0.68932865 0.6826692 0.67573343 0.6697031 0.66471567 0.6608533 0.65919979 0.65890072 0.65942746 0.6588674 0.65631932 0.65079536 0.64499448 0.63909082 0.63457077 0.63077928 0.62717825 0.62396943 0.61914836 0.61357839 0.60725211 0.60077412 0.5949931 0.59395952 0.59591635 0.59778186 0.59804489 0.59892294 0.60058574 0.60100581 0.59866603 0.59404135 0.59193667 0.59301345 0.59577333 0.59741114 0.59694764 0.59749705 0.59842456 0.59862267 0.59797237
0.64575657 0.64454903 0.64603861 0.64562727 0.6447116 0.64200589 0.64164053 0.64363119 0.64143087 0.63935387 0.64040549 0.63766204 0.63467933 0.63329879 0.63645272 0.63889346 0.63898328 0.64133761 0.64255766 0.64270898 0.64310623 0.64271843 0.64283797 0.64206771 0.64095835 0.64003999 0.63758418 0.63576041 0.63256603 0.62944378 0.62409502 0.62085338 0.62110204 0.62183763 0.62159605 0.62189166 0.62296808 0.62396307 0.62533761 0.62881801 0.6322525 0.6354319 0.63583783 0.63840665 0.64179958 0.64755922 0.65377359 0.6620098 0.66895997 0.67560854 0.6791768 0.6810882 0.68040483 0.68068457 0.68355631 0.68647424 0.69139862 0.70096024 0.71244959 0.72420167 0.73387066 0.74130946 0.74901575 0.75813853 0.76777695 0.77789216 0.78260573 0.7870435 0.7916001 0.79966653 0.80702656 0.81435412 0.82237415 0.82978696 0.837869 0.84560799 0.85116446 0.85156334 0.84613545 0.84181878 0.83766942 0.83741493 0.83853901 0.83855167 0.83673756 0.83217885 0.82770529 0.82189121 0.81525312 0.80367626 0.79333075 0.78306299 0.77689101 0.77336411 0.76960038 0.7658655 0.76350693 0.76156751 0.75694893 0.75019819 0.74035897 0.73059481 0.72343961 0.71619051 0.71046345 0.70650164 0.7048987 0.7023843 0.69898559 0.6950546 0.69076293 0.68584703 0.68200789 0.68268641 0.68723939 0.68889434 0.69029054 0.693461 0.69578267 0.69897026 0.70436187 0.71008431 0.71780601 0.72863193 0.73938038 0.74654046 0.75360263 0.75853918 0.76083129 0.75993278 0.75854811 0.7595997 0.7615673 0.76557848 0.77118059 0.77468677 0.77707823 0.77941253 0.7842947 0.78804679 0.79154106 0.79437266 0.79668541 0.80032705 0.80687974 0.80758821 0.80506256 0.79905758 0.79380939 0.78684855 0.78251614 0.78216391 0.78521436 0.7888087 0.79349129 0.7983377 0.80030097 0.80233834 0.80330185 0.80809139 0.81036078 0.81280979 0.8132581 0.81296801 0.81034552 0.80498694 0.79830243 0.78958588 0.77961805 0.7689357 0.75682328 0.74749317 0.73546064 0.7256864 0.7162006 0.70818593 0.70140984 0.69627655 0.69303853 0.69134847 0.69086017 0.68980997 0.68700027 0.68455985 0.67818578 0.6736597 0.6693064 0.66239909 0.65469946 0.64961862 0.64780273 0.64770154 0.64774453 0.64648083 0.64486415 0.64575691 0.64833994 0.64877995 0.64643665 0.6417631 0.63395215 0.6276641 0.62321221 0.62162038 0.62178822 0.62226839 0.62272984 0.62196411 0.62094302 0.62077553 0.62639616 0.63809284 0.65171769 0.66662716 0.67879747 0.68935391 0.69849194 0.70599227 0.71236525 0.71623319 0.7193447 0.72118632 0.72139543 0.72241311 0.72319934 0.72472447 0.72592303 0.7244763 0.7219685 0.71849193 0.7149819 0.70920992 0.70292846 0.69593575 0.69027388 0.68787984 0.68249031 0.67669265 0.67194459 0.66808415 0.66494598 0.66315462 0.66344859 0.66472721 0.66464956 0.66250617 0.65697891 0.65043799 0.64428934 0.64017009 0.63695971 0.63360724 0.63137834 0.62810145 0.62361219 0.61721652 0.61039089 0.60384478 0.60243637 0.60451204 0.60764888 0.60862859 0.60957774 0.61083174 0.61131933 0.60972253 0.60511601 0.60254126 0.60247754 0.60395058 0.60484997 0.60428182 0.6038641 0.60363209 0.60286193 0.60226969
0.63615401 0.63350615 0.63349397 0.6336108 0.63310462 0.63175675 0.63093978 0.63152817 0.63085904 0.63041433 0.62762797 0.62517754 0.62151073 0.62271456 0.62566131 0.62746222 0.62779522 0.62813293 0.62961231 0.63097558 0.63112633 0.63250283 0.63359853 0.63372281 0.63363556 0.63250954 0.63010596 0.62705529 0.62452242 0.62030261 0.61568828 0.61257307 0.61218125 0.61406449 0.61473509 0.61654072 0.61696475 0.61748385 0.61808689 0.62078408 0.62276645 0.62535138 0.62639266 0.62892452 0.63302939 0.63903606 0.6460971 0.65598757 0.66442786 0.67024737 0.67355979 0.67519414 0.67548415 0.6762388 0.67825038 0.68057704 0.68473259 0.69459208 0.70682562 0.7192066 0.72935142 0.73617264 0.74419009 0.75315806 0.76142897 0.76823773 0.77177214 0.775943 0.78142331 0.78986576 0.79753828 0.80406355 0.80963321 0.81623084 0.82389394 0.83141431 0.83568625 0.83377618 0.82672381 0.82237511 0.82057166 0.82196392 0.82448062 0.82440585 0.8234628 0.82035314 0.81741792 0.81181142 0.8050618 0.79401952 0.78440173 0.77585899 0.77078038 0.76757041 0.76344226 0.75956683 0.75577129 0.75198686 0.74667811 0.73972822 0.72958308 0.72072243 0.71415555 0.70677589 0.70160871 0.69855843 0.69890007 0.6969659 0.69277622 0.68765753 0.68318246 0.67891661 0.67659069 0.67695956 0.68047035 0.68089569 0.6821748 0.68413772 0.68532033 0.68773849 0.69383858 0.70143816 0.71116687 0.72116835 0.73125169 0.7378001 0.74509656 0.74988756 0.75199126 0.75192167 0.7509409 0.75266043 0.75443784 0.75844118 0.76400834 0.76737994 0.77014983 0.77248284 0.77709074 0.78056787 0.78450281 0.7881226 0.79113774 0.79455206 0.79967843 0.79826064 0.79449533 0.78805374 0.78298609 0.77763133 0.77384054 0.77351225 0.77581953 0.77909241 0.78434275 0.79015539 0.79280585 0.79424116 0.79372575 0.79558855 0.795949 0.797418 0.79817895 0.79808605 0.79628833 0.79055228 0.7825467 0.77255801 0.76223356 0.752834 0.74093009 0.73251145 0.72276672 0.71503792 0.70713803 0.69944954 0.69206347 0.68633472 0.68233553 0.67969533 0.67889975 0.6788764 0.67634648 0.67318981 0.66721212 0.66323665 0.65919211 0.65238381 0.6454699 0.64098947 0.63902892 0.63818433 0.63781646 0.63636746 0.63550142 0.63633365 0.63830813 0.63773131 0.63494732 0.63043619 0.62331849 0.61724413 0.61338751 0.61314934 0.61475402 0.61635534 0.61731238 0.61639264 0.61457035 0.61373575 0.61823105 0.62946157 0.64311319 0.65845688 0.67135048 0.68282565 0.69176791 0.6990469 0.7052386 0.70961045 0.7141064 0.71690745 0.71757939 0.71798317 0.7184304 0.71914724 0.71984727 0.71814711 0.71574444 0.71331798 0.71018844 0.70520036 0.69957925 0.69319583 0.68784915 0.68599246 0.68170814 0.67711025 0.67359308 0.67081796 0.66858758 0.66717865 0.66703434 0.66809576 0.66871506 0.66832366 0.66349887 0.65649525 0.65032181 0.64665304 0.64436566 0.64136573 0.63966208 0.63761796 0.63368261 0.62732017 0.62086055 0.61404871 0.61124912 0.61216245 0.61495668 0.61738966 0.61912294 0.62057913 0.62006686 0.61839365 0.6150181 0.6128488 0.61185062 0.61135126 0.61125278 0.61067273 0.60957061 0.60902389 0.60776298 0.60639169
0.62701538 0.625408 0.62058811 0.61901948 0.62099754 0.62093905 0.61992074 0.62174434 0.62003125 0.6190698 0.61394981 0.60853723 0.60939513 0.61055708 0.61285569 0.61637698 0.61652671 0.61642603 0.61779323 0.61643671 0.61910216 0.6206374 0.62326973 0.62404796 0.624918 0.62460138 0.62167582 0.61781049 0.61481558 0.61041422 0.60651816 0.60409304 0.60397519 0.60580968 0.60753878 0.60886525 0.60947196 0.61029439 0.61027511 0.61233889 0.61395802 0.61648938 0.61844021 0.62258737 0.62626122 0.63121925 0.63842343 0.64825545 0.65710346 0.66199627 0.66447299 0.66612996 0.66832575 0.67045238 0.67327628 0.67669812 0.68093513 0.69053397 0.70250017 0.71398083 0.72330905 0.72925172 0.7358846 0.74356986 0.75055186 0.75479013 0.75742945 0.76197821 0.76860734 0.77756023 0.78558727 0.7913917 0.79613314 0.80206334 0.80950152 0.8163838 0.81881633 0.81547281 0.80906661 0.80508072 0.80532192 0.80907582 0.81105057 0.81059216 0.80959701 0.80870756 0.80718258 0.8023967 0.79542667 0.78529177 0.7751614 0.76778577 0.76291786 0.75921582 0.75554749 0.75203559 0.74762339 0.74272225 0.73671885 0.72996524 0.7207265 0.71360045 0.70668186 0.69882754 0.69407827 0.69190969 0.69158383 0.68912518 0.68421142 0.67954459 0.67588439 0.67197501 0.67023387 0.66985778 0.67297746 0.67364815 0.67527138 0.67683343 0.67709578 0.67915058 0.68551281 0.69386578 0.70465363 0.71392303 0.7229268 0.72978088 0.736869 0.74139309 0.74347431 0.74422638 0.74312734 0.74356854 0.7442283 0.74862348 0.75497877 0.75826679 0.76097745 0.76369088 0.76892336 0.77305459 0.77739398 0.78144169 0.78501276 0.78767046 0.79044842 0.78703771 0.78209558 0.77574954 0.77203848 0.76897483 0.76648407 0.7659325 0.76774312 0.77083694 0.77558567 0.78079024 0.78270449 0.78283976 0.78070244 0.78078752 0.78033492 0.78115523 0.78136586 0.78112723 0.78004871 0.77472376 0.76671766 0.75688274 0.74645751 0.73714508 0.7251196 0.71768143 0.71042628 0.70465243 0.69791249 0.69044826 0.68274068 0.67688576 0.6719671 0.66868023 0.66724138 0.66777958 0.66573931 0.66246652 0.65702685 0.6529011 0.64876376 0.64207066 0.63549 0.6314227 0.62930235 0.62781318 0.62728112 0.62588959 0.62538702 0.62565271 0.62664202 0.62540237 0.62251701 0.61872756 0.61293526 0.60784297 0.60488498 0.60540156 0.60782974 0.61018306 0.6112651 0.61031478 0.60846392 0.60728389 0.61105888 0.62157368 0.63516569 0.65075661 0.66411953 0.67582176 0.68464248 0.69166259 0.69793535 0.70284435 0.70828313 0.71212944 0.71384382 0.71447188 0.71434648 0.7139531 0.71360676 0.71141398 0.70883971 0.70684466 0.7037751 0.69938595 0.69502916 0.69030671 0.68623353 0.68530326 0.68105052 0.67701657 0.67479086 0.67308996 0.67177958 0.67098551 0.67048803 0.6712402 0.67256643 0.67351618 0.66972649 0.66280202 0.65616927 0.65259529 0.65003275 0.64766404 0.64641639 0.64540782 0.64245996 0.63707983 0.6314561 0.62473293 0.62149087 0.62084243 0.62261446 0.62483363 0.62697878 0.6286382 0.62823536 0.62696385 0.62377721 0.62113407 0.61904688 0.61778884 0.61740605 0.6160948 0.61465304 0.61381048 0.61264075 0.61038701
0.61344174 0.61245893 0.60869014 0.60654146 0.60657722 0.60711114 0.6084189 0.60718739 0.60695209 0.6057294 0.60365 0.6006974 0.60045793 0.59996349 0.60172967 0.60343258 0.60414463 0.60575264 0.60554038 0.60577249 0.60725824 0.60891054 0.6124632 0.61370001 0.61370762 0.61428552 0.61177534 0.60707423 0.60381273 0.6008251 0.59838109 0.59699227 0.59733775 0.59834064 0.59973683 0.60084497 0.60234866 0.60351615 0.60440928 0.60561479 0.60767614 0.60930545 0.6120702 0.61595415 0.61929824 0.62317435 0.62960742 0.63782597 0.64518762 0.64932581 0.65200622 0.65459397 0.65800724 0.6615455 0.66500764 0.66982244 0.6758066 0.68538054 0.69575092 0.70558267 0.71372963 0.71936263 0.72553741 0.73189843 0.73788853 0.74122052 0.74440243 0.74983369 0.75717893 0.76634681 0.77308602 0.77838408 0.78178376 0.78741541 0.79383671 0.79962138 0.80095454 0.79824312 0.79346308 0.79117219 0.79312411 0.79680015 0.7977981 0.79666439 0.79547767 0.79639355 0.79592564 0.79193968 0.7851099 0.7766865 0.76731772 0.76186416 0.75606031 0.75171158 0.74829572 0.743433 0.73745634 0.73229109 0.72637162 0.72080389 0.71231444 0.7054742 0.69816968 0.6905575 0.68646072 0.68508819 0.68381255 0.68072126 0.67589209 0.67109644 0.66780533 0.66453003 0.66266798 0.66132294 0.66373593 0.66542616 0.66841844 0.67069496 0.67089088 0.67196023 0.67777025 0.68564591 0.69662199 0.70607813 0.7147404 0.7222615 0.72899369 0.73356707 0.73564785 0.73655238 0.73460017 0.73343586 0.73312701 0.73826326 0.74504333 0.7489916 0.75234012 0.75590887 0.76127762 0.76609242 0.77118435 0.77573177 0.77981518 0.78203487 0.78268427 0.77760668 0.77135664 0.76552662 0.762343 0.76020687 0.75967795 0.75997169 0.76140811 0.76256798 0.76537769 0.76890331 0.76966562 0.76952248 0.76640046 0.76496313 0.76372561 0.76410575 0.76406635 0.76355866 0.76220895 0.75773686 0.75046431 0.74170128 0.73080521 0.72021018 0.70931783 0.70362626 0.69894454 0.69331594 0.68697373 0.68104386 0.67436819 0.66841131 0.66187285 0.6571244 0.65500936 0.65538311 0.65358948 0.65080274 0.6463613 0.64165491 0.63611034 0.62949658 0.62385464 0.62101233 0.61918119 0.61699116 0.61587217 0.61446857 0.61411166 0.6140361 0.61461655 0.61349086 0.61172359 0.60934953 0.60520845 0.60081672 0.59846724 0.59875581 0.60080544 0.60289059 0.60410264 0.6034443 0.60194033 0.60089524 0.6038807 0.61361735 0.62707998 0.64292289 0.65668259 0.6687662 0.67735152 0.68408854 0.69067806 0.69618417 0.70198342 0.70598338 0.70871697 0.70989451 0.70983611 0.70873296 0.70703018 0.70471293 0.70195775 0.69994153 0.69687677 0.69351823 0.69077769 0.68803639 0.68558729 0.68518113 0.68091508 0.67747161 0.67603608 0.67483208 0.67431045 0.67391131 0.67385967 0.6750631 0.67678937 0.6781287 0.67509714 0.66824229 0.66115182 0.65704027 0.65439983 0.65277681 0.65223313 0.65167091 0.64959222 0.64563087 0.64135311 0.63528429 0.63143449 0.6290235 0.63019419 0.63248445 0.63455998 0.63600544 0.63595552 0.63523218 0.63226668 0.62906106 0.62677204 0.62571225 0.62489089 0.62294271 0.62033704 0.61873035 0.61738679 0.61430033
0.59871298 0.59899197 0.59741152 0.59416197 0.59615927 0.5960413 0.59584872 0.59582191 0.59595209 0.59510266 0.59203687 0.58828261 0.58907636 0.59162629 0.58941251 0.59043762 0.59195948 0.59258233 0.59445705 0.59363935 0.59531481 0.59819878 0.60151949 0.60193852 0.60248555 0.60267378 0.60019652 0.5971806 0.59420558 0.59139499 0.59020341 0.5887886 0.59109242 0.59186706 0.5928149 0.59412876 0.59533661 0.59761913 0.59813767 0.59858603 0.60039016 0.60260532 0.60460196 0.60798252 0.61122595 0.61552798 0.62151097 0.62742679 0.63336303 0.63643049 0.63874756 0.64168241 0.64552619 0.65026074 0.65439785 0.65983897 0.66681957 0.67624069 0.68572683 0.69448735 0.70170525 0.70730573 0.71380554 0.72001002 0.72384985 0.72665904 0.73135339 0.73800588 0.74619347 0.75442869 0.75860242 0.76229573 0.76453918 0.77044814 0.77702867 0.78292444 0.78393145 0.78292286 0.78170444 0.78117985 0.78229022 0.78402982 0.78292094 0.78153907 0.78083408 0.78292532 0.78327497 0.77999003 0.77381405 0.76745758 0.75959024 0.75430856 0.74778959 0.7422173 0.73879294 0.73386825 0.72747566 0.72236392 0.71738303 0.71242271 0.70427442 0.69680519 0.68866215 0.68195906 0.6785278 0.67669533 0.67476997 0.67163817 0.666976 0.66206849 0.65876575 0.65576247 0.65281627 0.65014881 0.65152742 0.65465098 0.65941928 0.66305557 0.66439634 0.66524832 0.67112669 0.6787273 0.68883461 0.69847393 0.70713806 0.71514718 0.72160094 0.72654244 0.72803631 0.72720828 0.72296488 0.71996334 0.71995579 0.72684244 0.73468325 0.74007819 0.74354199 0.74715316 0.75263374 0.75759908 0.76352654 0.76837057 0.77247099 0.7738733 0.77322837 0.76773996 0.76193193 0.75690276 0.75464143 0.7525662 0.7527477 0.75278218 0.7529523 0.7524911 0.75336625 0.75476457 0.75430169 0.75278722 0.74961729 0.74796621 0.74710095 0.74735509 0.74703876 0.74619849 0.7447908 0.74099055 0.73512536 0.72695103 0.71567066 0.70484165 0.6958504 0.69229254 0.68839791 0.68301842 0.67780939 0.6735287 0.6671489 0.6604883 0.65226644 0.64653492 0.64316195 0.64254944 0.64054462 0.63842757 0.63429059 0.62911665 0.62333144 0.6171263 0.61217198 0.61009955 0.60853533 0.60625309 0.60540888 0.6041921 0.60347067 0.60340734 0.60378658 0.60358355 0.60304525 0.60165301 0.59876996 0.59489695 0.59261555 0.5920448 0.59341289 0.59508475 0.59646038 0.59651877 0.59519392 0.59444232 0.59684756 0.6057942 0.61911082 0.6349413 0.64893082 0.66106539 0.66971766 0.67672483 0.68335688 0.68904904 0.69538696 0.70030815 0.70345796 0.70546023 0.70523319 0.70338075 0.70006404 0.69731818 0.69423568 0.69245561 0.69007585 0.68825733 0.68703186 0.68615861 0.68521465 0.6856301 0.68142929 0.67853385 0.67693936 0.6764037 0.67667257 0.6760449 0.67622664 0.67719069 0.67879178 0.67926404 0.67758862 0.67149598 0.66440322 0.65900084 0.65610717 0.65585889 0.65633793 0.65643088 0.65531937 0.65293706 0.64998429 0.64569332 0.64141759 0.63912129 0.64003858 0.64230646 0.64303667 0.64311587 0.64338424 0.64281659 0.63985092 0.63657611 0.63428329 0.63258657 0.63094141 0.62880985 0.62575425 0.62234748 0.61956039 0.61667246
0.58695654 0.58742379 0.58439901 0.58421679 0.5836868 0.58260984 0.58450403 0.58422514 0.58369665 0.58220815 0.58073338 0.57798518 0.5768012 0.57851605 0.57758964 0.57824101 0.57992466 0.58196708 0.58155049 0.5828589 0.58474606 0.58778228 0.59004256 0.59200873 0.59179083 0.59057208 0.58950805 0.58669288 0.58473673 0.58302103 0.58102425 0.58139612 0.58303969 0.58376241 0.5840793 0.5845214 0.58622046 0.58929281 0.59080367 0.59232445 0.59423693 0.59556822 0.59715326 0.59975093 0.60260083 0.60648417 0.61196006 0.61721335 0.62207855 0.6248927 0.62755363 0.62959391 0.63399827 0.63879071 0.64329976 0.6491965 0.65715075 0.66690836 0.67605892 0.68378383 0.68885764 0.69375771 0.69900453 0.705106 0.70912637 0.71302834 0.71832085 0.72606332 0.73457043 0.74186296 0.7448107 0.74750725 0.75048189 0.75653452 0.76180476 0.76562539 0.76703663 0.76861825 0.77049165 0.77018125 0.77003788 0.77003668 0.76805599 0.76707776 0.76756326 0.7683484 0.76801826 0.76490886 0.76002911 0.75474906 0.7478006 0.74303424 0.73766184 0.73175742 0.72735787 0.72288838 0.7170635 0.71181531 0.70767673 0.70179251 0.69248649 0.68345777 0.67626972 0.67106374 0.66805255 0.66640865 0.66372636 0.66076364 0.65667575 0.65246239 0.65012241 0.64717181 0.64283457 0.63918668 0.64012956 0.64424569 0.65032652 0.65486707 0.65680652 0.658085 0.66434222 0.67180034 0.68161084 0.69171569 0.69953711 0.70769956 0.7139643 0.71812837 0.71883505 0.71560808 0.70988042 0.70644945 0.70836503 0.71635246 0.72479008 0.73091123 0.73404857 0.73706374 0.74276114 0.74838425 0.75497761 0.75986535 0.76306465 0.76325679 0.76227342 0.75727279 0.75213837 0.74726737 0.74489895 0.74315038 0.74345274 0.74242645 0.74148096 0.73957998 0.73895427 0.73853366 0.73693905 0.73491078 0.73244523 0.7314931 0.73100326 0.7309567 0.73037761 0.72891309 0.72710215 0.72316012 0.71848022 0.71098465 0.7003833 0.69101077 0.68504198 0.68196616 0.67775774 0.67257509 0.66859666 0.66604982 0.65968338 0.65276594 0.64326234 0.6367802 0.63191594 0.62980467 0.62763299 0.62585085 0.6219776 0.61688015 0.61147342 0.60635517 0.60217414 0.60115074 0.59984726 0.59743096 0.59566538 0.59377262 0.5928223 0.59303946 0.5937891 0.59505349 0.59537945 0.59459605 0.59217012 0.58852369 0.58605101 0.58495776 0.58553776 0.58687627 0.58854894 0.58903151 0.58834314 0.58729031 0.589297 0.59724646 0.6103945 0.62617484 0.64077044 0.65258234 0.66139727 0.66827901 0.6752613 0.68142892 0.68818583 0.69361447 0.69739689 0.6996844 0.69960004 0.69694807 0.69272474 0.68951086 0.6864032 0.6859215 0.68483196 0.68472781 0.6840569 0.68395374 0.68351817 0.68452835 0.68168743 0.67913939 0.67775518 0.67797656 0.67863236 0.67839191 0.67834171 0.67869293 0.67937808 0.67928263 0.67830222 0.67386969 0.66787027 0.66237603 0.659082 0.65838839 0.65878672 0.65988439 0.66031596 0.65923193 0.65691008 0.65429061 0.65113229 0.64964908 0.65042018 0.65194814 0.65209553 0.65169154 0.65103418 0.64978864 0.64706701 0.64462004 0.64229719 0.63929865 0.6364095 0.63360781 0.63062023 0.62611162 0.6218615 0.61808506
