0 0 0 0 0 0 0 0 0 0 0 0 0 0 0 0 0 0 0 0 0 0 0 0 0 0 0 0 0 0 0 0 0 0 0 0 0 0 0 0 0 0 0 0 0 0 0 0 0 0 0 0 0 0 0 0 0 0 0 0 0 0 0 0 0 0 0 0 0 0 0 0 0 0 0 0 0 0 0 0 0 0 0 0 0 0 0 0 0 0 0 0 0 0 0 -8.5729382e-006 5.845811e-007 2.564809e-005 6.4611186e-005 0.00011567256 0.00017727855 0.00024805957 0.00032522429 0.00040804373 0.00049475552 0.00058043197 0.00067023899 0.00075978285 0.00084866046 0.00093424563 0.0010161579 0.0010949227 0.0011693564 0.0012374703 0.0013017075 0.0013604605 0.0014099965 0.001456949 0.0014930924 0.001520522 0.0015467621 0.0015564307 0.0015742949 0.0015756479 0.0015764759 0.0015732602 0.0015700293 0.0015582363 0.0015491825 0.0015299672 0.0015040503 0.0014701466 0.001441385 0.001419255 0.0013992577 0.0013594074 0.0012876914 0.0012243196 0.0011590983 0.001091272 0.0010211235 0.00095021642 0.00089083341 0.00082986645 0.00079957821 0.00077514462 0.0007445857 0.00077571487 0.00085887013 0.001004102 0.0011921803 0.0014181442 0.0017083669 0.0020343788 0.0023841467 0.00274449 0.0031452206 0.0035137391 0.0038599289 0.0043369122 0.0049211864 0.0055382646 0.0062185132 0.0067993647 0.0073936474 0.0080084693 0.0087200226 0.0096470119 0.010550496 0.011591863 0.012595468 0.013385619 0.014399621 0.015503222 0.016586086 0.017553255 0.018632308 0.019605933 0.020449572 0.021261566 0.021925151 0.022713068 0.023495379 0.024181409 0.024768644 0.025413378 0.025841775 0.026242645 0.026663862 0.02719477 0.027742161 0.028137045 0.028483449 0.028680522 0.028571344 0.028474331 0.028531559 0.028591398 0.028767976 0.029032166 0.029224699 0.029426928 0.02962675 0.029721589 0.029860743 0.029778892 0.029463345 0.0290737 0.028619382 0.027924756 0.027201301 0.026429309 0.025444743 0.024571364 0.023233672 0.022073892 0.021033777 0.019809083 0.018646436 0.017479716 0.016264364 0.015026055 0.013891777 0.012701007 0.011617128 0.010616953 0.0096478367 0.0086232767 0.007793215 0.0069694676 0.0062420166 0.0055564068 0.0048475952 0.0042052955 0.0035758566 0.0029885423 0.0024921808 0.0020081663 0.0016062481 0.001223525 0.00086878555 0.0005599058 0.00031202728 0.00012607067 2.8497785e-006 -4.2132781e-005 0 0 -4.636273e-005 3.309409e-006 0.00014756503 0.00037258139 0.0006712434 0.0010478174 0.0015080919 0.0020299481 0.0026373577 0.0032674603 0.0041822061 0.0053387905 0.0068347135 0.0088185619 0.011142112 0.013926609 0.017324869 0.021568394 0.026970976 0.033141332 0.040509591 0.04887761 0.058977657 0.070276146 0.082131435 0.096085971 0.11218354 0.12985039 0.14945393 0.17003546
0 0 0 0 0 0 0 0 0 0 0 0 0 0 0 0 0 0 0 0 0 0 0 0 0 0 0 0 0 0 0 0 0 0 0 0 0 0 0 0 0 0 0 0 0 0 0 0 0 0 0 0 0 0 0 0 0 0 0 0 0 0 0 0 0 0 0 0 0 0 0 0 0 0 0 0 0 0 0 0 0 0 0 0 0 0 0 0 0 0 0 0 0 0 0 -1.1520838e-005 7.8558086e-007 3.4553349e-005 8.7263135e-005 0.00015657456 0.00023991992 0.00033493898 0.0004403616 0.00055240211 0.00066939304 0.00078581236 0.00090902318 0.0010293845 0.0011465998 0.0012616103 0.0013742124 0.0014792401 0.0015808804 0.0016769712 0.0017624826 0.0018408448 0.0019037568 0.0019629641 0.0020136044 0.00204969 0.0020755085 0.0020914168 0.0021093059 0.0021068436 0.002110433 0.0021000418 0.0020892164 0.0020862702 0.0020746847 0.0020553963 0.0020198714 0.001979719 0.0019449359 0.0019019993 0.0018393898 0.001776659 0.0016851017 0.0015946179 0.0015026365 0.0014006369 0.0012901922 0.0011920869 0.0011118809 0.0010441637 0.0010085852 0.00098114235 0.00094364415 0.00096903905 0.0010528017 0.0011793239 0.0013385248 0.0015328884 0.0017893383 0.0020738358 0.0023952073 0.0027519511 0.0030930924 0.0033943393 0.0036742471 0.0040852274 0.0046113911 0.0052262719 0.0058243268 0.0064559546 0.0070505125 0.007654406 0.0083164977 0.0090900876 0.0099116311 0.010731822 0.011514136 0.012450221 0.013478186 0.014423987 0.015357676 0.016335647 0.017446552 0.018374123 0.019175394 0.019882578 0.020624904 0.021409923 0.022152916 0.022823673 0.023393815 0.024104394 0.02450704 0.024953657 0.025255513 0.025734239 0.026382128 0.026741959 0.026987234 0.027155969 0.027111774 0.02696968 0.027027811 0.027072124 0.027211696 0.027427274 0.027598485 0.027937382 0.028150891 0.02824622 0.028300373 0.028197244 0.027928476 0.027597227 0.027116486 0.026379737 0.025644365 0.02490735 0.024042822 0.023260411 0.022081035 0.020864504 0.01988017 0.018777329 0.017550586 0.016526824 0.015557475 0.014330943 0.013247169 0.012119945 0.011060546 0.01012645 0.0092613999 0.0083334849 0.0075418686 0.0067068347 0.0059709626 0.0052501205 0.0046169909 0.0040148029 0.0033596157 0.0028108319 0.0023577137 0.0018996022 0.0015206371 0.0011541796 0.00082430299 0.00053250328 0.00029742471 0.00012197234 2.7812116e-006 -4.1101677e-005 0 0 -4.3637131e-005 3.0973126e-006 0.00013868529 0.00035291467 0.00063390584 0.00096298182 0.0013624592 0.0018239848 0.0023951236 0.0030583187 0.0039411016 0.0050123452 0.0063639461 0.008227507 0.010396289 0.012975371 0.016081159 0.019951678 0.024902086 0.030819013 0.038046711 0.04621244 0.055880719 0.06674383 0.078933025 0.092581025 0.10798447 0.12491599 0.1432552 0.16366285
0 0 0 0 0 0 0 0 0 0 0 0 0 0 0 0 0 0 0 0 0 0 0 0 0 0 0 0 0 0 0 0 0 0 0 0 0 0 0 0 0 0 0 0 0 0 0 0 0 0 0 0 0 0 0 0 0 0 0 0 0 0 0 0 0 0 0 0 0 0 0 0 0 0 0 0 0 0 0 0 0 0 0 0 0 0 0 0 0 0 0 0 0 0 0 -1.4900053e-005 1.0166819e-006 4.4596136e-005 0.00011295921 0.00020276874 0.00031035529 0.00043406243 0.00056916926 0.00071551111 0.00086842949 0.0010153105 0.00117323 0.0013276614 0.0014804541 0.0016332008 0.0017801068 0.0019132696 0.0020436172 0.0021694305 0.0022780605 0.0023873374 0.0024678404 0.0025402864 0.0026004422 0.0026416538 0.002676308 0.0026972719 0.0027096329 0.0027097812 0.0027085563 0.0026941483 0.0026789254 0.0026771769 0.0026723858 0.0026663594 0.0026282984 0.002581677 0.0025418355 0.0024621153 0.0023660381 0.0022467807 0.0021156763 0.0019743828 0.0018379062 0.0016944929 0.0015537184 0.0014422806 0.0013533366 0.0012801714 0.0012299303 0.0011918699 0.0011463554 0.0011568582 0.0012189484 0.0013286819 0.0014677849 0.0016383124 0.0018602875 0.0021167212 0.0023913451 0.002713157 0.0030181115 0.0033065815 0.0035757691 0.0039205105 0.0043897101 0.0049150328 0.0055330139 0.0061642113 0.0067641581 0.0073695065 0.0079859085 0.0085136914 0.0092196819 0.0099736652 0.010737891 0.01168124 0.01267181 0.013616812 0.014427594 0.015403179 0.016252396 0.017383501 0.018102721 0.018721846 0.019345481 0.020083203 0.020719399 0.021282721 0.021838308 0.022362275 0.022915487 0.023492819 0.024103326 0.024524318 0.025045374 0.025255489 0.025645597 0.025895721 0.025924928 0.025863075 0.025857814 0.025802027 0.025900496 0.026080786 0.026241595 0.0264839 0.026831863 0.026930096 0.026884221 0.026680346 0.026429785 0.026008435 0.025536954 0.024905133 0.024242166 0.023483159 0.022660497 0.021875001 0.020848953 0.019689084 0.018674606 0.017699975 0.016647859 0.015650943 0.014727322 0.013636177 0.012585324 0.011527672 0.010497465 0.0096815282 0.0088008709 0.007917094 0.0071929894 0.0064401782 0.0057031413 0.0049729517 0.0043398579 0.0037916734 0.0032029929 0.0026858673 0.0022380634 0.0018090153 0.0014322654 0.0010831418 0.00077707882 0.00050704046 0.00028686325 0.00011908681 2.7663204e-006 -4.1178309e-005 0 0 -4.3453998e-005 2.9892719e-006 0.00013335742 0.00033567119 0.00058703542 0.0008793467 0.0012465015 0.0016606192 0.0022159392 0.0028914937 0.0037324419 0.0047033436 0.005930783 0.0076744603 0.0096330477 0.012053966 0.014918771 0.018425285 0.022853441 0.028568645 0.035451195 0.043493903 0.052860892 0.063544241 0.07557956 0.089027368 0.10420433 0.12094145 0.13843319 0.15723975
0 0 0 0 0 0 0 0 0 0 0 0 0 0 0 0 0 0 0 0 0 0 0 0 0 0 0 0 0 0 0 0 0 0 0 0 0 0 0 0 0 0 0 0 0 0 0 0 0 0 0 0 0 0 0 0 0 0 0 0 0 0 0 0 0 0 0 0 0 0 0 0 0 0 0 0 0 0 0 0 0 0 0 0 0 0 0 0 0 0 0 0 0 0 0 -1.8623412e-005 1.2703597e-006 5.5818809e-005 0.00014120136 0.00025319122 0.00038835492 0.00054401973 0.00071339972 0.00089451361 0.0010746785 0.0012671013 0.0014655875 0.0016623182 0.0018566598 0.002044387 0.0022245007 0.0023995011 0.0025615802 0.0027168543 0.0028544081 0.0029833434 0.0030866998 0.003175661 0.0032514752 0.0033005221 0.0033412854 0.0033789561 0.0033880691 0.0033848818 0.0033738541 0.0033479895 0.0033329991 0.0033339658 0.0033338337 0.0033337761 0.0032898528 0.0032247763 0.0031643122 0.0030440143 0.0029041233 0.0027134985 0.0025290857 0.00234432 0.0021751024 0.0019973757 0.001832547 0.0017094674 0.0016112146 0.0015318124 0.0014609063 0.0014011105 0.0013388923 0.0013277389 0.0013638235 0.0014490811 0.0015676891 0.0017260462 0.001929138 0.0021580741 0.0024152287 0.0027099378 0.0029853452 0.0032340946 0.0034895409 0.0038241236 0.0042143085 0.0047373359 0.0052962244 0.0058408189 0.0063658764 0.0068530422 0.0074383835 0.0080307241 0.0087085497 0.0094001358 0.010257141 0.011176574 0.012112724 0.012871436 0.013746913 0.014605634 0.01549916 0.016209022 0.016869341 0.0175643 0.018145864 0.01877554 0.019406577 0.019958163 0.02063599 0.021374241 0.022121572 0.022757214 0.023166735 0.023442959 0.023812909 0.024114066 0.024452336 0.024788972 0.024964909 0.024837977 0.024697106 0.024606613 0.024623583 0.02472782 0.024968135 0.025152977 0.025473768 0.025613669 0.025497626 0.025390558 0.025008109 0.024472565 0.024047612 0.023503762 0.022850576 0.022164487 0.0213334 0.020486404 0.019563563 0.018548126 0.017548332 0.016667823 0.015670596 0.014745119 0.013916555 0.012788173 0.011897538 0.010888534 0.0099798739 0.0091917276 0.0083511594 0.007533424 0.0067947615 0.0060907149 0.0054115024 0.0047076428 0.0041140233 0.0035901794 0.0030660271 0.0025997729 0.0021368134 0.0017177772 0.0013476055 0.0010162646 0.00073307357 0.00048619514 0.00027863536 0.0001156219 2.715035e-006 -4.0398482e-005 0 0 -4.219035e-005 2.8183954e-006 0.00012306879 0.00030833229 0.00054278002 0.00082037513 0.001158697 0.0015545935 0.0020806973 0.0027372536 0.0035101398 0.0044161195 0.0055895269 0.0071102493 0.0088377879 0.01111086 0.013806211 0.017035071 0.021173195 0.026549352 0.033176358 0.041136926 0.050330938 0.060802274 0.07267043 0.085839205 0.10105641 0.11755833 0.13527313 0.15434352
0 0 0 0 0 0 0 0 0 0 0 0 0 0 0 0 0 0 0 0 0 0 0 0 0 0 0 0 0 0 0 0 0 0 0 0 0 0 0 0 0 0 0 0 0 0 0 0 0 0 0 0 0 0 0 0 0 0 0 0 0 0 0 0 0 0 0 0 0 0 0 0 0 0 0 0 0 0 0 0 0 0 0 0 0 0 0 0 0 0 0 0 0 0 0 -2.2713201e-005 1.5490145e-006 6.7967143e-005 0.00017197102 0.000308693 0.00047410601 0.00066408189 0.00087063085 0.0010806113 0.0013145271 0.0015432489 0.0017871957 0.0020261474 0.0022607592 0.0024948152 0.0027174898 0.0029223035 0.0031167931 0.0032975399 0.0034769345 0.0036300131 0.003762892 0.0038710266 0.003965748 0.0040266175 0.0040749511 0.0041226041 0.0041345365 0.0041296137 0.0041215113 0.0041067242 0.0040934334 0.0040886011 0.0040715361 0.0040531788 0.0039837028 0.0038830867 0.0037518574 0.0035790362 0.003399734 0.0031416575 0.0029109733 0.0026885139 0.0024854286 0.0022927317 0.0021167006 0.0019557986 0.0018410179 0.0017300133 0.001638326 0.001552017 0.0014674831 0.0014407524 0.0014623561 0.0015231733 0.0016344048 0.0017888188 0.001983721 0.002190139 0.0024409602 0.0026985911 0.002927088 0.0031376255 0.0034215766 0.0037805063 0.0041358419 0.004570723 0.0050678397 0.0055094914 0.0059928718 0.0064283361 0.0070136437 0.0076261277 0.0082914557 0.0089837144 0.009717482 0.010549734 0.011389623 0.012146998 0.012959738 0.013726239 0.014419566 0.015118767 0.01585229 0.016346399 0.016945331 0.017524431 0.01799065 0.018612713 0.019478653 0.020359272 0.021210772 0.021680021 0.021956665 0.022221093 0.022759625 0.023144079 0.023474289 0.023650825 0.023648925 0.023527162 0.023381812 0.023313073 0.023339402 0.023402051 0.023665702 0.02391707 0.024082392 0.024220328 0.024152429 0.024073672 0.023708316 0.023218679 0.022670756 0.022048573 0.021495342 0.020799039 0.020034493 0.019204079 0.018346735 0.017434661 0.016471274 0.015602555 0.014803363 0.013897841 0.013055726 0.012050274 0.0111459 0.010305911 0.0094408091 0.0086307175 0.0078459753 0.0070545768 0.0063743064 0.0057147461 0.0051124154 0.004479549 0.0039205547 0.003411343 0.0029341758 0.0025001693 0.0020510995 0.0016523289 0.0013017771 0.00099064575 0.00072096018 0.0004813676 0.00027572286 0.00011275456 2.6267919e-006 -3.8949498e-005 0 0 -3.9122411e-005 2.5492156e-006 0.00010996436 0.00027594313 0.0004916928 0.00075455806 0.0010755736 0.0014532809 0.0019284904 0.0024871609 0.0031598607 0.0039815426 0.0050673905 0.0064038155 0.0080082191 0.010153427 0.01269905 0.015788621 0.019743041 0.024861733 0.031339222 0.039223054 0.048292149 0.058701706 0.070252385 0.083350057 0.099114676 0.11570363 0.13358341 0.15102723
0 0 0 0 0 0 0 0 0 0 0 0 0 0 0 0 0 0 0 0 0 0 0 0 0 0 0 0 0 0 0 0 0 0 0 0 0 0 0 0 0 0 0 0 0 0 0 0 0 0 0 0 0 0 0 0 0 0 0 0 0 0 0 0 0 0 0 0 0 0 0 0 0 0 0 0 0 0 0 0 0 0 0 0 0 0 0 0 0 0 0 0 0 0 0 -2.6964315e-005 1.8408469e-006 8.0938894e-005 0.00020470368 0.00036754776 0.00056503812 0.00079080921 0.0010306221 0.001291701 0.0015685268 0.0018537399 0.002135677 0.0024214051 0.0027069239 0.002982679 0.0032476281 0.0034829405 0.0037174656 0.0039395823 0.0041470687 0.0043370746 0.0044970444 0.0046311128 0.0047286988 0.0048129769 0.0048806493 0.0049234828 0.0049310976 0.0049261326 0.0049151246 0.0049153976 0.0049055316 0.0048703644 0.0048269242 0.0047689257 0.0046607157 0.0045028215 0.0043040002 0.0040938746 0.0038735417 0.0035742998 0.0032875686 0.0030407497 0.0028244075 0.0026182311 0.0024067126 0.0022118227 0.0020737232 0.001932002 0.0018083521 0.0017014175 0.0015971542 0.001555266 0.0015585872 0.0016068466 0.0017036677 0.0018479857 0.0020303101 0.0021989861 0.0024210728 0.0026357749 0.002833032 0.0030393298 0.0033279608 0.0036246475 0.0039918395 0.0043802816 0.0048370995 0.005273001 0.0057348146 0.0062047854 0.0067634841 0.0073334105 0.007944904 0.0085822471 0.0092496387 0.0099995739 0.01068742 0.011439947 0.012156305 0.01283454 0.013494186 0.014131474 0.014735369 0.01532345 0.015930491 0.016532719 0.017148285 0.017908219 0.018768451 0.019485776 0.020054374 0.020478987 0.020802769 0.02120493 0.021723103 0.022037499 0.02229528 0.022359218 0.022354036 0.022238358 0.022147401 0.022090768 0.022063764 0.022068125 0.022334837 0.022463986 0.022658665 0.022749601 0.022737363 0.022567009 0.022309733 0.021854281 0.021359547 0.020785928 0.020174111 0.019475416 0.018748549 0.01800221 0.01720077 0.016351282 0.015547134 0.014713373 0.013830056 0.01296346 0.012195741 0.011337972 0.010567449 0.0097088355 0.0088914963 0.0080775896 0.0073414189 0.0066736412 0.00597962 0.0053817615 0.0048198463 0.0042705656 0.0037426678 0.0032540129 0.0028233827 0.0023868201 0.0019593951 0.0015828851 0.0012587051 0.00097332398 0.00071244055 0.00047129754 0.00027006527 0.000109096 2.4913313e-006 -3.619383e-005 0 0 -3.5753982e-005 2.3220532e-006 9.9308165e-005 0.00024914936 0.00044940748 0.00070244206 0.0010035777 0.0013577184 0.0017860997 0.002265698 0.0028381654 0.0035659133 0.004529432 0.005753047 0.0072521906 0.0092953123 0.011760517 0.014752474 0.018489438 0.023316417 0.029712849 0.037429649 0.046352233 0.056653625 0.067877995 0.080861652 0.096318431 0.11279537 0.12983104 0.14661606
0 0 0 0 0 0 0 0 0 0 0 0 0 0 0 0 0 0 0 0 0 0 0 0 0 0 0 0 0 0 0 0 0 0 0 0 0 0 0 0 0 0 0 0 0 0 0 0 0 0 0 0 0 0 0 0 0 0 0 0 0 0 0 0 0 0 0 0 0 0 0 0 0 0 0 0 0 0 0 0 0 0 0 0 0 0 0 0 0 0 0 0 0 0 0 -3.150601e-005 2.1503246e-006 9.4901597e-005 0.00023999758 0.00043230025 0.00066197151 0.00092526084 0.0012087909 0.0015146076 0.0018399816 0.0021740456 0.0025014352 0.0028437106 0.0031775268 0.0034999587 0.0038097453 0.0040852982 0.0043722405 0.0046276771 0.0048676192 0.0050756173 0.0052777256 0.005436142 0.0055791892 0.0056478901 0.0057222007 0.0057641464 0.0057709977 0.0057667621 0.0057619012 0.0057513345 0.0057205187 0.0056638321 0.0055705981 0.0054547769 0.0053215112 0.0051300081 0.0048614518 0.0046091681 0.0043333995 0.0040055783 0.0036964131 0.0034258977 0.0031923326 0.0029463653 0.0027187295 0.0025056386 0.002315255 0.0021565943 0.002023043 0.001889964 0.0017714758 0.0017040805 0.0016860284 0.0017365273 0.0018019794 0.001935329 0.0020566972 0.002187076 0.0023510502 0.0025004556 0.0026751841 0.0029192563 0.0031734785 0.0034906745 0.0038477137 0.0042153015 0.0046331998 0.0050819053 0.0055513301 0.0060111641 0.0065280385 0.0070676492 0.0076139768 0.0081796365 0.0087957073 0.0093817133 0.01003109 0.010714695 0.011307447 0.011895659 0.012540898 0.013067226 0.013675459 0.014360905 0.015157149 0.015864729 0.016540059 0.017237145 0.017846646 0.018358224 0.018683529 0.019171394 0.019683641 0.020194212 0.020668295 0.020771784 0.020822993 0.020871524 0.020852208 0.020832137 0.02080696 0.020799458 0.020786999 0.020823087 0.020993552 0.02116561 0.021232549 0.02116679 0.021121245 0.020982472 0.020778609 0.020420182 0.019985462 0.019455472 0.018850736 0.018138517 0.01744178 0.016733144 0.016015626 0.015241569 0.014513292 0.013712935 0.01289737 0.012034053 0.011208171 0.010610303 0.0098977427 0.0091273496 0.0083417467 0.0075606291 0.0069411222 0.0062576671 0.0056303533 0.0050255953 0.0045538916 0.0040362801 0.0035440688 0.0031014232 0.0026859125 0.0022692985 0.0018650444 0.0015109171 0.0012096431 0.00093274193 0.00067594337 0.0004439959 0.0002537266 0.00010137459 2.3032875e-006 -3.3209871e-005 0 0 -3.2057214e-005 2.0931909e-006 9.1429053e-005 0.00023193903 0.00042402406 0.00066290325 0.00094812929 0.0012961476 0.001689951 0.0021431277 0.0027027951 0.0033744005 0.0042548463 0.0054251561 0.0068691443 0.0088375928 0.011151354 0.014119975 0.017568289 0.022043776 0.028323371 0.035747957 0.044428393 0.0546161 0.066248175 0.079306468 0.093928051 0.1100892 0.12732848 0.14451591
0 0 0 0 0 0 0 0 0 0 0 0 0 0 0 0 0 0 0 0 0 0 0 0 0 0 0 0 0 0 0 0 0 0 0 0 0 0 0 0 0 0 0 0 0 0 0 0 0 0 0 0 0 0 0 0 0 0 0 0 0 0 0 0 0 0 0 0 0 0 0 0 0 0 0 0 0 0 0 0 0 0 0 0 0 0 0 0 0 0 0 0 0 0 0 -3.6356838e-005 2.4810997e-006 0.00010906725 0.0002764429 0.00049639271 0.00076343468 0.0010686699 0.001397799 0.0017512541 0.0021269071 0.0025123818 0.002907241 0.0032879129 0.0036791991 0.0040441303 0.0044027636 0.0047229193 0.0050466265 0.0053526057 0.00562676 0.0058870248 0.0060965576 0.0062744207 0.0064374747 0.0065744388 0.0065960551 0.0066445098 0.0066567275 0.0066559492 0.0066473721 0.0066262972 0.006556091 0.0064673091 0.0063579211 0.0062138458 0.0059850878 0.0057382874 0.0054561446 0.0051473966 0.0048158559 0.0044835299 0.00418445 0.0038807069 0.0036220335 0.0033556534 0.003101859 0.0028483487 0.002626561 0.0024171673 0.0022598692 0.002074311 0.0019358997 0.0018580935 0.0018073338 0.0018207575 0.0018585102 0.0019572591 0.0020835273 0.0021912158 0.0023470622 0.0024808114 0.0026619332 0.0028546275 0.0031237368 0.0034291442 0.0037564479 0.0041123868 0.0045130154 0.0049337093 0.0053657407 0.0058346039 0.006295322 0.0067889014 0.0072924933 0.0078188187 0.0083796386 0.0089208302 0.0094625445 0.010019486 0.010561252 0.011115702 0.011689043 0.012309366 0.012956384 0.01370363 0.014400318 0.015055186 0.015536452 0.016016853 0.016487492 0.017018126 0.017503296 0.01804456 0.01851885 0.018876936 0.019206985 0.019388539 0.019365689 0.019394643 0.019415147 0.019431783 0.019440238 0.019474655 0.019474014 0.019481161 0.019598424 0.01970398 0.019703883 0.019650229 0.019669421 0.019458204 0.019223323 0.018928204 0.018549751 0.018063907 0.017487319 0.016860613 0.016211404 0.015516101 0.014815037 0.014131051 0.013488664 0.012784343 0.012004832 0.011184883 0.010544499 0.0098420905 0.0092354931 0.0085266355 0.0078002966 0.0070943812 0.0064670638 0.005824885 0.0052673378 0.0047892786 0.0042642243 0.0037649937 0.0033174209 0.0029433431 0.0025372824 0.0021399032 0.0017658479 0.0014401506 0.0011514723 0.00088738887 0.00063463833 0.00041653264 0.00023718002 9.4524293e-005 2.107369e-006 -3.006718e-005 0 0 -2.9059224e-005 1.9415231e-006 8.7595329e-005 0.00022389442 0.00041389626 0.0006564154 0.00094749038 0.0012781345 0.0016779785 0.0021232157 0.0026999851 0.0033134958 0.0041292112 0.0052510389 0.0066224633 0.0083946021 0.010591067 0.013536437 0.016954219 0.021375001 0.027498972 0.034765348 0.043266409 0.053518099 0.065157115 0.07773172 0.091652587 0.10803895 0.12571713 0.1438311
0 0 0 0 0 0 0 0 0 0 0 0 0 0 0 0 0 0 0 0 0 0 0 0 0 0 0 0 0 0 0 0 0 0 0 0 0 0 0 0 0 0 0 0 0 0 0 0 0 0 0 0 0 0 0 0 0 0 0 0 0 0 0 0 0 0 0 0 0 0 0 0 0 0 0 0 0 0 0 0 0 0 0 0 0 0 0 0 0 0 0 0 0 0 0 -4.1362002e-005 2.822053e-006 0.00012454055 0.0003150391 0.0005659288 0.00087070092 0.0012183062 0.001594906 0.0019990028 0.0024270795 0.0028688172 0.0033187829 0.0037562805 0.0041963944 0.0046160218 0.0050310964 0.0054003931 0.0057686583 0.0061153728 0.0064190663 0.0067172496 0.0069623576 0.0071713223 0.007341091 0.0074839138 0.007507547 0.0075807985 0.0076079467 0.0076133462 0.0075745382 0.0074924927 0.0074110673 0.0073058522 0.0071249986 0.0069361318 0.0066906192 0.0064208749 0.0060834782 0.0057202705 0.005379249 0.0050299023 0.0047155168 0.0043668834 0.0040749869 0.0037725522 0.0035007709 0.0032236325 0.0029587664 0.0027058653 0.0024966526 0.0022792735 0.002115418 0.002025149 0.0019454847 0.001903976 0.0019032909 0.0019870014 0.0021242156 0.0022278311 0.0023800366 0.0024966634 0.0026359655 0.0028406512 0.0030911539 0.0033748215 0.0036897248 0.0040319087 0.0043944999 0.0047560515 0.0051797178 0.005609109 0.00604748 0.0065051611 0.0069760085 0.0074575409 0.0079539068 0.0084560668 0.0089281007 0.0094734518 0.0099785918 0.010531261 0.011037082 0.011633318 0.012252833 0.012895353 0.013497498 0.014022081 0.014407964 0.014756076 0.015252893 0.015754403 0.016250412 0.016780463 0.017295515 0.017535039 0.017698695 0.017844306 0.018037113 0.018055369 0.018072703 0.01808172 0.018080239 0.018094054 0.018135136 0.018090713 0.018192213 0.018232472 0.018213195 0.018182348 0.018228735 0.018031736 0.017814983 0.017525039 0.017132319 0.016643159 0.016116142 0.015641822 0.01498725 0.014335347 0.01369241 0.013029295 0.012408461 0.011842891 0.011135279 0.010420849 0.0097878272 0.009101462 0.0085302531 0.007883124 0.0072629764 0.0066145928 0.0060388334 0.0054222396 0.0048975093 0.0044467307 0.0039560106 0.0035126861 0.0030984759 0.0027239394 0.0023617513 0.0020082131 0.001667851 0.001363632 0.0010810678 0.00082255846 0.00059496194 0.00039166472 0.00021912105 8.6495933e-005 1.930773e-006 -2.7810643e-005 0 0 -2.7132127e-005 1.8618931e-006 8.472083e-005 0.00021842224 0.00040848522 0.00065102153 0.00094698892 0.0012870327 0.0016799245 0.0021159046 0.0026870952 0.0033162802 0.0040873859 0.005156552 0.0064967373 0.0080819745 0.010188053 0.013087784 0.016654653 0.021130173 0.026950342 0.034050705 0.042659503 0.052714696 0.064164585 0.076693489 0.090743981 0.10683259 0.1243384 0.14353267
0 0 0 0 0 0 0 0 0 0 0 0 0 0 0 0 0 0 0 0 0 0 0 0 0 0 0 0 0 0 0 0 0 0 0 0 0 0 0 0 0 0 0 0 0 0 0 0 0 0 0 0 0 0 0 0 0 0 0 0 0 0 0 0 0 0 0 0 0 0 0 0 0 0 0 0 0 0 0 0 0 0 0 0 0 0 0 0 0 0 0 0 0 0 0 -4.6636881e-005 3.1840858e-006 0.00013998414 0.00035491458 0.00063886824 0.00098269445 0.0013691477 0.0017959167 0.002257067 0.0027401343 0.0032387722 0.0037463158 0.0042404315 0.0047356083 0.0052179602 0.0056826652 0.006104484 0.0065256338 0.006911257 0.0072617204 0.0075928727 0.0078622177 0.0080990261 0.0082858259 0.0084392491 0.0084847156 0.0085600473 0.0086085861 0.0085632167 0.0084963021 0.0083914438 0.0083012211 0.0081496307 0.0079519498 0.0077296989 0.0074670626 0.0071402453 0.0067713625 0.0063954816 0.0060026989 0.0056254742 0.0052640417 0.0048976774 0.0045610694 0.0042584334 0.0039418342 0.0036157866 0.003305069 0.0030230682 0.0027852762 0.0025600363 0.0023567027 0.0022197953 0.00210416 0.0020423741 0.0020084703 0.0020864745 0.0022294311 0.0023172618 0.0024317897 0.0025510077 0.0026689454 0.002839274 0.0030623125 0.0033267184 0.0036171621 0.0039344359 0.0042329707 0.0046026904 0.0049971273 0.0053978047 0.005775538 0.0062106244 0.0066350812 0.0070573267 0.0075416874 0.0080193082 0.0084838069 0.0089550596 0.0094243362 0.0099391266 0.010412118 0.010955703 0.011541858 0.012088834 0.012520156 0.012873512 0.013314794 0.013642621 0.01407807 0.014533432 0.015020598 0.015379213 0.01565524 0.016154822 0.01628952 0.016361528 0.01654096 0.01666934 0.016725995 0.016722365 0.01670646 0.016734816 0.016771258 0.016737837 0.016799065 0.016808409 0.016786883 0.01677155 0.016822875 0.016589003 0.016363638 0.016090501 0.015723321 0.015251623 0.01483317 0.014326244 0.013769133 0.013203379 0.012592792 0.011976291 0.011443381 0.010887589 0.01025295 0.0096204216 0.0090371195 0.008401896 0.0078526136 0.0072527926 0.0066897375 0.0061094232 0.00559198 0.00501663 0.0045298327 0.0041021796 0.0036663758 0.0032704171 0.0028921541 0.0025297563 0.0022013358 0.0018821443 0.001582081 0.0012775762 0.0010076326 0.00076307428 0.0005519181 0.0003610009 0.0002007009 7.9393491e-005 1.8039576e-006 -2.604793e-005 0 0 -2.6067794e-005 1.8232468e-006 8.3065033e-005 0.00021641034 0.00040663972 0.00066001614 0.00096208668 0.0013118411 0.0017104299 0.0021648339 0.0027548593 0.0034460516 0.0042182147 0.0052317048 0.0065085979 0.0080977603 0.010155388 0.013095925 0.016680303 0.021163205 0.026772498 0.033634317 0.042072219 0.051671559 0.063173795 0.076153249 0.090352023 0.10664569 0.12430216 0.14319863
0 0 0 0 0 0 0 0 0 0 0 0 0 0 0 0 0 0 0 0 0 0 0 0 0 0 0 0 0 0 0 0 0 0 0 0 0 0 0 0 0 0 0 0 0 0 0 0 0 0 0 0 0 0 0 0 0 0 0 0 0 0 0 0 0 0 0 0 0 0 0 0 0 0 0 0 0 0 0 0 0 0 0 0 0 0 0 0 0 0 0 0 0 0 0 -5.1886304e-005 3.5556346e-006 0.00015631629 0.00039642852 0.00071352515 0.0010941202 0.0015296801 0.0020096929 0.0025253885 0.0030651238 0.0036222912 0.004190158 0.0047439447 0.0052943763 0.0058373056 0.006363691 0.0068367224 0.0073067265 0.0077326402 0.0081323433 0.008484281 0.0087957097 0.0090777378 0.009290037 0.0094292299 0.0095098098 0.0095668444 0.0095981657 0.0095502538 0.009472226 0.0093463444 0.0091722398 0.0089830143 0.0087620891 0.0085217423 0.0082345136 0.0079021019 0.0075059665 0.0071061863 0.0066965946 0.0062785433 0.0058662347 0.0054719369 0.0051113885 0.0047308408 0.0043718035 0.0039775429 0.0036343666 0.0033355207 0.0030525869 0.0027940426 0.0025339952 0.0023602099 0.0022004209 0.0021328153 0.0020983583 0.0021669104 0.0022908397 0.0023890251 0.0024854793 0.0025992072 0.0026811164 0.0028365323 0.0030434717 0.0032742506 0.0035263198 0.0038125249 0.004103028 0.0044391164 0.0048137501 0.0051648058 0.0055422408 0.005927716 0.0062984169 0.0067002277 0.0071521583 0.0076167832 0.0080808391 0.0085161545 0.0088594834 0.0093226932 0.0097296364 0.010225569 0.010728533 0.01115336 0.011485116 0.011822445 0.012176802 0.012627427 0.012930729 0.013282458 0.013699786 0.013958673 0.014350687 0.014548716 0.01468909 0.014832912 0.015224107 0.015329514 0.015350409 0.015333987 0.01537428 0.015395644 0.015442343 0.01541653 0.015444359 0.015428977 0.015404892 0.015523122 0.01537794 0.015171016 0.014940084 0.014698064 0.014395957 0.013974291 0.013523876 0.013044297 0.012560031 0.012064953 0.011517136 0.011033336 0.010481809 0.0099492649 0.0093881853 0.0088248887 0.008290293 0.0077311175 0.00719425 0.0066789723 0.006162992 0.0056201201 0.0051356001 0.0046034037 0.0041671254 0.0037514868 0.0033781949 0.003031744 0.0026868116 0.0023476702 0.0020381843 0.0017508686 0.001471428 0.0011804312 0.00093667126 0.00071060216 0.00050510667 0.00032939262 0.00018434058 7.3527997e-005 1.6961598e-006 -2.4861883e-005 0 0 -2.5767256e-005 1.8238478e-006 8.2991108e-005 0.00022087027 0.00041809448 0.00067059819 0.00098060811 0.0013379011 0.0017505965 0.0022380717 0.0028239562 0.0035284431 0.004281616 0.0052890826 0.0064707494 0.0081000196 0.010222187 0.013075064 0.016646487 0.021161533 0.026607666 0.03328495 0.041468228 0.050930261 0.062306055 0.074887015 0.088981968 0.1057175 0.12251061 0.14112714
0 0 0 0 0 0 0 0 0 0 0 0 0 0 0 0 0 0 0 0 0 0 0 0 0 0 0 0 0 0 0 0 0 0 0 0 0 0 0 0 0 0 0 0 0 0 0 0 0 0 0 0 0 0 0 0 0 0 0 0 0 0 0 0 0 0 0 0 0 0 0 0 0 0 0 0 0 0 0 0 0 0 0 0 0 0 0 0 0 0 0 0 0 0 0 -5.7455625e-005 3.9307309e-006 0.00017323401 0.00043944956 0.00079046907 0.0012124232 0.0016970598 0.002229838 0.0028012983 0.0034000858 0.0040134017 0.0046423024 0.0052613987 0.0058801565 0.0064916378 0.0070709169 0.0075897672 0.0081107972 0.0085917341 0.0090396953 0.0094147803 0.0097748633 0.010062889 0.010309277 0.010433187 0.010546096 0.010614876 0.010617962 0.010554962 0.010460012 0.010288793 0.010104566 0.0098962099 0.0096355257 0.0093613438 0.0090327258 0.0087138706 0.0082950588 0.0078672601 0.007367199 0.0069232664 0.0064532008 0.0060445114 0.0056443772 0.0052224499 0.0047635618 0.0043181776 0.0039477095 0.0036210103 0.0032816014 0.002984393 0.0026514219 0.0024483858 0.0022575183 0.0022015392 0.0021861303 0.0022271636 0.0023460088 0.0024400312 0.0025365582 0.0026356754 0.002697888 0.0028358273 0.0030350351 0.0032405996 0.0034786305 0.0037129767 0.0039958116 0.0043093315 0.0046176754 0.004972292 0.0053193196 0.0056541135 0.0060013404 0.0063781183 0.0067528846 0.0071731454 0.0075956455 0.0079679906 0.0083336111 0.0087027173 0.0090518249 0.0094673689 0.0098557198 0.010192409 0.010492488 0.010840074 0.011167638 0.011509442 0.011829113 0.012097245 0.012331406 0.012579533 0.01304756 0.013278175 0.013390988 0.013528303 0.013793319 0.013898089 0.013937523 0.013981278 0.01403604 0.01403635 0.014123858 0.014104447 0.014118313 0.014091866 0.014189194 0.014058272 0.01394067 0.013758804 0.013555053 0.013308394 0.013066596 0.012684466 0.012271881 0.011823513 0.011443377 0.010960077 0.010528364 0.010051155 0.0095286112 0.0090432769 0.0085343885 0.0080373064 0.007557146 0.0070421285 0.006549986 0.0060969119 0.0056307434 0.0051439943 0.0046926881 0.0042124478 0.003810948 0.0034307559 0.0030878971 0.0027722982 0.0024593383 0.0021514464 0.0018676858 0.0015989024 0.0013313079 0.0010893651 0.00086429039 0.00065352104 0.00046318953 0.00030301408 0.0001696805 6.8241212e-005 1.5935449e-006 -2.3970874e-005 0 0 -2.5282406e-005 1.7928227e-006 8.3061422e-005 0.00022354279 0.00042795472 0.00067684939 0.00098652121 0.0013505345 0.0017903289 0.0023080855 0.0028848617 0.0035693676 0.0042735899 0.0052773852 0.0064095496 0.0081325908 0.010372707 0.013167262 0.016729139 0.021197999 0.026618056 0.033229548 0.041257408 0.050722906 0.06197581 0.074119483 0.088365596 0.10451402 0.12095676 0.1396799
0 0 0 0 0 0 0 0 0 0 0 0 0 0 0 0 0 0 0 0 0 0 0 0 0 0 0 0 0 0 0 0 0 0 0 0 0 0 0 0 0 0 0 0 0 0 0 0 0 0 0 0 0 0 0 0 0 0 0 0 0 0 0 0 0 0 0 0 0 0 0 0 0 0 0 0 0 0 0 0 0 0 0 0 0 0 0 0 0 0 0 0 0 0 0 -6.3282604e-005 4.3132822e-006 0.00018936691 0.00048015258 0.00086418093 0.0013293183 0.0018605599 0.0024467718 0.0030771741 0.0037389932 0.0044202984 0.0051137159 0.005804236 0.0064925988 0.0071565247 0.0077862033 0.0083869492 0.0089361166 0.0094684294 0.0099570958 0.010361046 0.010768504 0.011089665 0.011319743 0.011532447 0.011575425 0.011630766 0.011641567 0.011589877 0.011486936 0.011340117 0.011131968 0.010929598 0.010629091 0.010329036 0.0099375917 0.0095190536 0.0090965259 0.0086144519 0.0081051992 0.0075897154 0.007112814 0.0066325085 0.0061519582 0.005595207 0.0050901189 0.0046048947 0.0041973044 0.0037939479 0.0034106876 0.0030623307 0.0026996367 0.0024728877 0.0022908762 0.002209384 0.0021560129 0.0022119106 0.0023468753 0.0024201184 0.0025248355 0.002575882 0.0026939084 0.0028432832 0.003012477 0.0032413752 0.0034562673 0.0037103177 0.0039718079 0.0042436117 0.0045206673 0.0048217452 0.0050976503 0.0053652875 0.0057173886 0.0060442041 0.006365235 0.0067545485 0.0071363213 0.007388691 0.0077133512 0.008033973 0.0083308077 0.0086690679 0.0089472231 0.0092331749 0.009508131 0.0097925036 0.01017555 0.010460648 0.010717356 0.010964014 0.011159584 0.011409959 0.011804319 0.011949718 0.012086819 0.012228127 0.01243753 0.01251557 0.01256111 0.012589796 0.012719036 0.012728101 0.012809793 0.012805191 0.012802322 0.012761742 0.012773447 0.012703138 0.012560741 0.012392708 0.0122109 0.011986456 0.011768954 0.011433572 0.011107893 0.010690278 0.010300382 0.0099148438 0.0095179988 0.0090806997 0.0086090879 0.0081647454 0.0077067086 0.0072706744 0.0068665602 0.006402274 0.005977219 0.0055206918 0.0051009406 0.0046772129 0.0042529059 0.003813249 0.0034447625 0.003102853 0.0028005804 0.0025114698 0.002228393 0.0019645091 0.0017076986 0.0014478091 0.0012213467 0.0010032573 0.00079846865 0.00060818615 0.0004328766 0.00028428094 0.00015925327 6.5004396e-005 1.5281022e-006 -2.2853303e-005 0 0 -2.5026701e-005 1.7664644e-006 8.2688365e-005 0.00021942967 0.0004198066 0.00066308532 0.0009726029 0.0013399709 0.0017964592 0.002298309 0.0028676657 0.0035150912 0.0041930498 0.005186671 0.0063855098 0.0081304124 0.010313102 0.013110515 0.016745298 0.021150569 0.026678794 0.033396741 0.041287516 0.05063515 0.061473715 0.073849988 0.088355738 0.10357322 0.12005882 0.13832925
0 0 0 0 0 0 0 0 0 0 0 0 0 0 0 0 0 0 0 0 0 0 0 0 0 0 0 0 0 0 0 0 0 0 0 0 0 0 0 0 0 0 0 0 0 0 0 0 0 0 0 0 0 0 0 0 0 0 0 0 0 0 0 0 0 0 0 0 0 0 0 0 0 0 0 0 0 0 0 0 0 0 0 0 0 0 0 0 0 0 0 0 0 0 0 -6.9074741e-005 4.694157e-006 0.00020692064 0.00052442006 0.000944232 0.0014518867 0.0020291552 0.0026675477 0.0033663166 0.0040929081 0.0048398469 0.0055978331 0.0063542862 0.0071037445 0.0078316354 0.008518296 0.0091679027 0.009791355 0.010374576 0.010887372 0.011329701 0.011751627 0.012113689 0.012368588 0.012593642 0.012644743 0.012706663 0.012720709 0.012668814 0.012541839 0.012396069 0.012170227 0.011915827 0.011584069 0.011251508 0.010839934 0.010352525 0.0098907887 0.0093281086 0.0087882402 0.0082163238 0.0076689886 0.0071011134 0.0065332959 0.0059074145 0.0053564813 0.0048533435 0.0043885251 0.0039363228 0.0034831114 0.0031125204 0.0027474025 0.0025198021 0.002325471 0.00222728 0.0021551293 0.0021922421 0.0023237998 0.0023885421 0.0025006311 0.0025721421 0.0026603698 0.0028067097 0.0029616018 0.0031746995 0.0034325511 0.0036809131 0.0039081246 0.004157558 0.0044163764 0.0046698536 0.0049095354 0.0051548437 0.0054316838 0.0056984627 0.0059701206 0.0062532368 0.0065275449 0.006757162 0.0070498878 0.0073438539 0.0075970748 0.007867599 0.0081130228 0.008354437 0.0085985658 0.0088491975 0.0091062903 0.0094363551 0.0096426333 0.0098229867 0.01001309 0.010243038 0.010484588 0.010675108 0.010807476 0.010926419 0.011107476 0.011177743 0.011224154 0.011288944 0.011335937 0.011436693 0.011511028 0.01151433 0.01149769 0.011528352 0.011478664 0.011373852 0.011242836 0.011085886 0.010915396 0.010718344 0.010515644 0.010219931 0.0099257231 0.0095533645 0.0091859072 0.0088842805 0.0085177715 0.0081271833 0.0077077828 0.0073159023 0.0069319601 0.0065167099 0.0061534627 0.0057532395 0.0053499166 0.0049672021 0.0045805396 0.0041963874 0.0038163891 0.0034044938 0.0030660072 0.0027589117 0.0024883398 0.0022414748 0.0020010573 0.001766899 0.001544051 0.0013166262 0.0011181858 0.00092622633 0.000740665 0.00056976531 0.00040969116 0.00027221528 0.00015295651 6.2600302e-005 1.4657615e-006 -2.1905624e-005 0 0 -2.4268274e-005 1.7221785e-006 7.9948048e-005 0.00021158553 0.00040298334 0.00063702089 0.00094106866 0.0013153595 0.0017713926 0.0022684522 0.0027977448 0.0034603832 0.0041817164 0.0052348366 0.0064919235 0.0082685057 0.010437783 0.01323176 0.016905264 0.021322471 0.026824495 0.033486335 0.041477821 0.050673833 0.06102257 0.073599919 0.088640368 0.10397192 0.12003556 0.13806513
0 0 0 0 0 0 0 0 0 0 0 0 0 0 0 0 0 0 0 0 0 0 0 0 0 0 0 0 0 0 0 0 0 0 0 0 0 0 0 0 0 0 0 0 0 0 0 0 0 0 0 0 0 0 0 0 0 0 0 0 0 0 0 0 0 0 0 0 0 0 0 0 0 0 0 0 0 0 0 0 0 0 0 0 0 0 0 0 0 0 0 0 0 0 0 -7.4519619e-005 5.0953381e-006 0.00022463147 0.00056932351 0.0010225628 0.0015722621 0.0022048053 0.00289922 0.0036502083 0.004439882 0.0052591824 0.0060851286 0.0069089792 0.0077241015 0.008514348 0.0092686109 0.0099531067 0.010642585 0.011279812 0.011848045 0.012303105 0.012757427 0.013137155 0.013412327 0.013645453 0.013803162 0.013890441 0.013853439 0.013783408 0.013632751 0.013473952 0.013233332 0.012941915 0.012572533 0.012175255 0.011733951 0.011233479 0.010657077 0.010086957 0.0094983994 0.0089054474 0.0082287159 0.0075438107 0.0069160459 0.0062581026 0.0056774738 0.0051268394 0.0045969079 0.0040954287 0.0035880941 0.0031647033 0.0028076764 0.002554496 0.0023419558 0.0022112231 0.0021266002 0.0021344437 0.002244917 0.0023268415 0.0024081205 0.0025255778 0.0026128111 0.0027240491 0.0028910074 0.0030743045 0.0033288264 0.0035677127 0.0037665973 0.0040237328 0.0042510115 0.0044714317 0.0046669922 0.0048450712 0.0050337097 0.0052429404 0.0054457466 0.0056878505 0.0059321734 0.0061395429 0.0063794565 0.0066216978 0.006837024 0.0070552499 0.0072492134 0.0074394026 0.0076588538 0.0078784281 0.0081015774 0.0083178257 0.0085682513 0.0087037241 0.0088682115 0.0090578497 0.009242408 0.0094100397 0.0095372219 0.0096419131 0.0098082855 0.009876141 0.0099583452 0.010032489 0.010123897 0.010197404 0.010240876 0.010245763 0.010302447 0.010274493 0.010182935 0.010082832 0.0099637476 0.0098169652 0.0096658571 0.0095136268 0.0093047764 0.0090727579 0.0087744281 0.0085041966 0.0082063584 0.0078748057 0.0075383064 0.0071868303 0.0068253079 0.0064772087 0.0061441626 0.0057996728 0.0054454754 0.0050797375 0.00474008 0.0043962184 0.0040510882 0.0037106394 0.0033894256 0.0030038777 0.0027077296 0.002433424 0.0022012466 0.0019939161 0.0017788435 0.0015750618 0.0013828911 0.0012014033 0.0010311009 0.00085910882 0.00069049151 0.00053352868 0.00038729898 0.0002591801 0.00014675277 6.0374272e-005 1.4132705e-006 -2.1184882e-005 0 0 -2.3737015e-005 1.6965272e-006 7.8205383e-005 0.00020434421 0.00039000634 0.00062783847 0.00093574531 0.0013225834 0.0017784002 0.0022897439 0.0028206479 0.0034733657 0.0043027058 0.0053794098 0.0066568885 0.0084164087 0.010570465 0.013311755 0.016891449 0.021392399 0.02688005 0.033658013 0.041650151 0.050672283 0.06128162 0.07442224 0.090213241 0.10745778 0.12536472 0.14527384
0 0 0 0 0 0 0 0 0 0 0 0 0 0 0 0 0 0 0 0 0 0 0 0 0 0 0 0 0 0 0 0 0 0 0 0 0 0 0 0 0 0 0 0 0 0 0 0 0 0 0 0 0 0 0 0 0 0 0 0 0 0 0 0 0 0 0 0 0 0 0 0 0 0 0 0 0 0 0 0 0 0 0 0 0 0 0 0 0 0 0 0 0 0 0 -8.0519378e-005 5.5035402e-006 0.00024246547 0.00061446819 0.0011061256 0.0016983745 0.0023814289 0.0031358433 0.0039496819 0.0048061599 0.005689708 0.0065814227 0.0074736292 0.0083426815 0.0091950003 0.010026637 0.010804537 0.0115023 0.012186444 0.012793157 0.013351633 0.013845214 0.014252456 0.014525467 0.014744179 0.014907909 0.015002798 0.015001704 0.014916493 0.014754519 0.014572684 0.014318378 0.014003461 0.013603951 0.013170983 0.012642619 0.012099905 0.011455853 0.010830513 0.010184659 0.0095245022 0.0088247366 0.0080694537 0.0073656171 0.0066540111 0.0060164448 0.0054104966 0.0048056243 0.0042389346 0.003675227 0.0032213966 0.0028167557 0.0025504966 0.0023139353 0.0021428791 0.0020333055 0.0020473856 0.0021861402 0.0022705785 0.0023549692 0.0024625421 0.0025478047 0.0026422803 0.0028268689 0.0030071056 0.0032132627 0.003403288 0.0035922074 0.0037973021 0.00400763 0.0042137175 0.0043575765 0.0044674972 0.0045912856 0.0047288439 0.0048924513 0.0051087927 0.0052847608 0.0054932513 0.0056972459 0.0058929439 0.0060744678 0.0062519567 0.0064069873 0.0065768081 0.0067761742 0.0069560773 0.0071400973 0.0073077112 0.0074642187 0.0076038227 0.007746846 0.0079046092 0.0080602681 0.0082028081 0.0083080244 0.0084063352 0.0085582582 0.0086216469 0.0086744588 0.008812596 0.0088503008 0.0089194506 0.0090002596 0.0090146638 0.0090053528 0.0089780152 0.0089340014 0.0088469941 0.008734451 0.0086085102 0.0084932763 0.0083247996 0.0081273374 0.0079400427 0.0076815472 0.0074387609 0.0071590555 0.0068665998 0.0065643767 0.0062888675 0.0059728368 0.0056709811 0.0053993805 0.0050685344 0.0047515252 0.0044334564 0.0041280175 0.0038278593 0.0035386351 0.0032373644 0.0029561582 0.0026284076 0.0023581644 0.002125103 0.0019238632 0.0017540196 0.0015718417 0.00139943 0.0012415146 0.001098006 0.00095082473 0.0007964997 0.00064550504 0.00050227225 0.00036805776 0.00024830246 0.00014161059 5.8172369e-005 1.3700458e-006 -2.0571587e-005 0 0 -2.312793e-005 1.6814176e-006 7.810748e-005 0.00020428348 0.0003895517 0.00063766229 0.00095870309 0.0013587842 0.0018114571 0.002329156 0.0028627378 0.003550573 0.0043722813 0.0055285453 0.0068368691 0.0085093276 0.010590439 0.013420152 0.017090984 0.021709688 0.027285374 0.034133957 0.042461819 0.051734433 0.06371127 0.078161497 0.094664912 0.11282015 0.13177044 0.1522374
0 0 0 0 0 0 0 0 0 0 0 0 0 0 0 0 0 0 0 0 0 0 0 0 0 0 0 0 0 0 0 0 0 0 0 0 0 0 0 0 0 0 0 0 0 0 0 0 0 0 0 0 0 0 0 0 0 0 0 0 0 0 0 0 0 0 0 0 0 0 0 0 0 0 0 0 0 0 0 0 0 0 0 0 0 0 0 0 0 0 0 0 0 0 0 -8.6172472e-005 5.8902106e-006 0.00025957333 0.0006601675 0.0011860311 0.0018254594 0.0025598961 0.0033785717 0.0042517268 0.0051689583 0.0061257661 0.0070827003 0.0080292024 0.0089744193 0.00989712 0.010776122 0.01161737 0.012413614 0.013142635 0.013812221 0.014378145 0.014888494 0.01531471 0.015649923 0.015849851 0.016057935 0.01613937 0.016148361 0.016053781 0.015924011 0.015673261 0.015397482 0.015056817 0.014627691 0.014170767 0.013585643 0.012942149 0.012313222 0.011577237 0.01086263 0.010150047 0.0093997274 0.0085944237 0.0078241417 0.0071023929 0.0064174254 0.005737215 0.0050344862 0.0044014362 0.0037939452 0.0032955089 0.0028625545 0.0025258925 0.0022690223 0.002053895 0.0019198195 0.0019418977 0.0021108057 0.0021799962 0.0022754157 0.0023612218 0.0024461212 0.0025322435 0.0026819051 0.0028272721 0.002990397 0.0031491984 0.0033281382 0.0034999208 0.0036626043 0.003821606 0.003922218 0.0040043148 0.0041088192 0.0042056905 0.0043275326 0.0044704593 0.0046312367 0.0048013631 0.0049683226 0.0051268867 0.0052739012 0.0054174594 0.0055745656 0.0057267498 0.0058923561 0.0060409451 0.006183177 0.0063122736 0.0064315928 0.006550104 0.0066708764 0.0068019348 0.0069278945 0.0070463796 0.0071848952 0.0072786633 0.0073640211 0.0074662479 0.007510945 0.0076362687 0.0076695599 0.00773849 0.0077406729 0.007817943 0.0078044805 0.0077742394 0.0077269365 0.0076560591 0.007557762 0.0074778745 0.0073418254 0.0071900902 0.0070073566 0.0068623524 0.0066297257 0.0064013365 0.0061561362 0.0059048533 0.0056848184 0.0054241946 0.0052230313 0.0049288248 0.004641921 0.0043659119 0.0040755472 0.0038150724 0.0035451118 0.0032882864 0.0030237669 0.0027720816 0.002531797 0.0022529896 0.0020277587 0.0018412958 0.0016720594 0.0015178759 0.0013804457 0.0012415866 0.0011149884 0.00099551436 0.00087268394 0.00073793701 0.00060408739 0.0004734693 0.0003495809 0.00023726288 0.00013633883 5.6442131e-005 1.3274288e-006 -2.0083047e-005 0 0 -2.2559282e-005 1.659635e-006 7.7993272e-005 0.00020613963 0.000393913 0.00065712368 0.0010061946 0.0014261712 0.0018745961 0.0024091474 0.0029829682 0.0037364547 0.0046304744 0.0057507382 0.0071241087 0.008723958 0.010725423 0.013639731 0.017495799 0.022216381 0.028165206 0.035279525 0.044160386 0.054039688 0.066775045 0.081905782 0.098253232 0.1159202 0.13457445 0.15587482
0 0 0 0 0 0 0 0 0 0 0 0 0 0 0 0 0 0 0 0 0 0 0 0 0 0 0 0 0 0 0 0 0 0 0 0 0 0 0 0 0 0 0 0 0 0 0 0 0 0 0 0 0 0 0 0 0 0 0 0 0 0 0 0 0 0 0 0 0 0 0 0 0 0 0 0 0 0 0 0 0 0 0 0 0 0 0 0 0 0 0 0 0 0 0 -9.2264499e-005 6.3059634e-006 0.00027821239 0.00070599719 0.0012707282 0.0019584183 0.0027419824 0.0036131606 0.0045533846 0.0055362423 0.0065480899 0.0075755749 0.0085995642 0.009613238 0.010598544 0.011547485 0.012442408 0.01328646 0.014071603 0.014774271 0.015415723 0.015926031 0.016381746 0.01674517 0.017001347 0.017185459 0.017321422 0.017302123 0.017195437 0.017052583 0.016776747 0.016483444 0.016106036 0.015656031 0.015115983 0.014513227 0.013843899 0.013093963 0.012354361 0.011577563 0.010797301 0.0099735559 0.0091149874 0.0082674485 0.0075094101 0.0067717135 0.006027567 0.0052334478 0.0045160965 0.0038548911 0.0033307667 0.0028746108 0.0024828186 0.0021657736 0.0019204245 0.0017699435 0.0018068901 0.0020089146 0.0020765897 0.0021756482 0.0022150326 0.0022780544 0.0023503478 0.0024671923 0.0025803853 0.002714415 0.0028530441 0.0029916302 0.0031406443 0.0032658806 0.0033887568 0.0034682339 0.0035437968 0.0036308972 0.0036963808 0.0037874631 0.0038870058 0.0040176254 0.0041561315 0.0042960405 0.0044202237 0.0045430364 0.0046552508 0.0047845406 0.0049048199 0.0050296593 0.0051417454 0.00525202 0.0053515774 0.0054799605 0.0055875605 0.0056903366 0.0057990896 0.0059073282 0.0060049503 0.0061190565 0.0062019575 0.0062780315 0.0063621513 0.0064350877 0.0064894864 0.006539758 0.006594678 0.0066822878 0.0067036795 0.0066514578 0.0066216094 0.0065798363 0.0065611174 0.0064667726 0.0063627683 0.0062464352 0.0061104561 0.0059531475 0.0058330205 0.0056484057 0.0054510784 0.0052520245 0.0050387418 0.0048231983 0.0045954706 0.0044128621 0.0041865911 0.0039342017 0.0036909434 0.0034665943 0.0032270143 0.0030169371 0.0027869908 0.0025704101 0.0023445054 0.0021415391 0.0018989319 0.0017090712 0.0015550504 0.0014240112 0.0013039791 0.0012045802 0.0010955378 0.00099568048 0.00089711044 0.0007962327 0.00068357309 0.00056190651 0.00044368384 0.0003324818 0.00022611242 0.00013143244 5.3855389e-005 1.2713824e-006 -1.9229188e-005 0 0 -2.2341412e-005 1.6525194e-006 7.7872592e-005 0.00020792787 0.00039662688 0.0006782342 0.0010531643 0.0015040298 0.0019559916 0.0024863247 0.0030936641 0.0039167441 0.0049175346 0.0060695137 0.0074146075 0.0090343146 0.01100977 0.014012021 0.018180524 0.023122966 0.029639017 0.037022925 0.045958144 0.056330927 0.069045295 0.083608964 0.099784041 0.11804077 0.13744093 0.15854609
0 0 0 0 0 0 0 0 0 0 0 0 0 0 0 0 0 0 0 0 0 0 0 0 0 0 0 0 0 0 0 0 0 0 0 0 0 0 0 0 0 0 0 0 0 0 0 0 0 0 0 0 0 0 0 0 0 0 0 0 0 0 0 0 0 0 0 0 0 0 0 0 0 0 0 0 0 0 0 0 0 0 0 0 0 0 0 0 0 0 0 0 0 0 0 -9.8069134e-005 6.7059184e-006 0.00029650411 0.00075133469 0.0013518771 0.0020845968 0.0029209992 0.0038436836 0.0048483616 0.0059036657 0.0069845268 0.0080798409 0.0091704493 0.010253885 0.011300686 0.012312524 0.013270063 0.014167954 0.015001692 0.01575065 0.016430014 0.017013145 0.017502203 0.017895905 0.018179702 0.01837647 0.01846619 0.018515421 0.01840761 0.018187762 0.017881199 0.017552273 0.017163035 0.01667751 0.016103395 0.015452909 0.014718028 0.013982024 0.013127311 0.012286405 0.011426439 0.01052344 0.0096173303 0.0087036854 0.0078708372 0.0070485585 0.0062271525 0.0053515756 0.0045600922 0.003849069 0.0032824134 0.0027952154 0.0023680995 0.0020115979 0.0017425094 0.0016099219 0.0016511352 0.0018329553 0.0018953328 0.0019665155 0.0019963659 0.0020453263 0.0021131313 0.0022019101 0.0022887551 0.0024034119 0.0024984986 0.0026206164 0.0027335901 0.0028285875 0.0029202877 0.0029746783 0.003041611 0.0031266149 0.0031919505 0.0032678494 0.0033481778 0.0034375161 0.0035350929 0.0036486923 0.0037446115 0.0038378307 0.0039178972 0.0040169882 0.0041078873 0.0042011886 0.0042952735 0.004384588 0.0044679164 0.0045764455 0.0046742159 0.0047576637 0.0048468747 0.0049390924 0.0050349847 0.0051129213 0.0051827827 0.0053027517 0.0053452924 0.0053825587 0.0054079568 0.0054907312 0.0055805643 0.0056159266 0.0056015197 0.0055889142 0.0055682098 0.0054954682 0.0054685375 0.0053919917 0.0053048229 0.005207818 0.0050934677 0.0050102694 0.0048545796 0.0047222661 0.0045474301 0.004370244 0.0042018231 0.0040112914 0.0038399204 0.0036750216 0.0034712294 0.0032744681 0.0030739587 0.0028812469 0.0026801007 0.0025123884 0.0023198624 0.0021423559 0.0019561882 0.0017784891 0.0015709467 0.0014121249 0.0012904312 0.0011990179 0.0011133239 0.0010397284 0.00095978054 0.00088350965 0.00080599521 0.00071985198 0.00062695303 0.00052239929 0.00041686313 0.00031368348 0.00021537354 0.00012581008 5.1934818e-005 1.2327151e-006 -1.8648721e-005 0 0 -2.2373746e-005 1.6536744e-006 7.7731723e-005 0.0002112882 0.00040498796 0.00069461759 0.0010753081 0.0015394166 0.0019878055 0.0025156928 0.003144411 0.0040131643 0.0050860596 0.0062952402 0.007660093 0.0093238768 0.011441763 0.014584826 0.018874622 0.02414495 0.03085901 0.038446832 0.047283404 0.057977499 0.070484255 0.084720523 0.10133207 0.11996079 0.139338 0.15934881
0 0 0 0 0 0 0 0 0 0 0 0 0 0 0 0 0 0 0 0 0 0 0 0 0 0 0 0 0 0 0 0 0 0 0 0 0 0 0 0 0 0 0 0 0 0 0 0 0 0 0 0 0 0 0 0 0 0 0 0 0 0 0 0 0 0 0 0 0 0 0 0 0 0 0 0 0 0 0 0 0 0 0 0 0 0 0 0 0 0 0 0 0 0 0 -0.00010414669 7.1295886e-006 0.00031433168 0.00079742471 0.0014365397 0.0022095364 0.0031043217 0.0040835192 0.0051387987 0.0062635801 0.007421637 0.0085852716 0.0097503763 0.010896111 0.012013207 0.013085528 0.014103605 0.01505831 0.015948676 0.016752132 0.01746604 0.018088334 0.018604575 0.019051767 0.019358183 0.019555324 0.019639367 0.019692145 0.019632931 0.019457943 0.019185849 0.018810205 0.018350258 0.017714512 0.017098054 0.01640277 0.015623317 0.014814485 0.013892599 0.012970676 0.012034479 0.011060749 0.010099312 0.0091186569 0.0081930422 0.0072814468 0.0063853405 0.0054853433 0.0046287365 0.0038599937 0.0032260651 0.0026954386 0.0022297452 0.0018559465 0.0015786306 0.0014680942 0.0014791761 0.0016584359 0.0017126289 0.0017565093 0.0017811076 0.0018080194 0.0018706476 0.0019324475 0.0020025044 0.0020618092 0.0021495488 0.0022431694 0.0023238695 0.0024005024 0.0024452621 0.0025060403 0.0025762199 0.002650254 0.0027021606 0.0027493242 0.0028050392 0.0028773829 0.0029469596 0.0030262115 0.0030910692 0.0031575599 0.0032179617 0.0032864261 0.0033571563 0.003424395 0.0035022677 0.0035718736 0.0036430199 0.0037295224 0.0038422742 0.0038874686 0.0039551299 0.0040458041 0.0041074701 0.0041703926 0.0042580659 0.0043201144 0.0043601629 0.0043848784 0.0044062645 0.0044602982 0.004532833 0.0045799976 0.0045959251 0.004581613 0.0045446469 0.004529008 0.0044753425 0.0044160622 0.0043465463 0.0042976514 0.0041800258 0.0040887279 0.0039596142 0.0038483671 0.0037103922 0.0035616171 0.0034115105 0.0032756598 0.00312906 0.0029804662 0.0028171866 0.0026599693 0.0025006179 0.0023395966 0.0021895557 0.0020352261 0.0018806339 0.0017356426 0.0015857351 0.0014431215 0.0012764645 0.0011470406 0.0010530224 0.00098818154 0.00093523942 0.0008850227 0.00083519452 0.00077628468 0.00071629728 0.00064718626 0.00056920919 0.00047829852 0.00038750861 0.0002930074 0.00020364036 0.0001206449 4.9905108e-005 1.1955446e-006 -1.8337061e-005 0 0 -2.2270921e-005 1.6534228e-006 7.8097308e-005 0.00021554865 0.00041607002 0.00070990884 0.0010876809 0.0015570007 0.0020380882 0.0025874583 0.0032446626 0.0041219715 0.0052508891 0.0065111669 0.0080122499 0.0097683988 0.012148143 0.015378739 0.019744096 0.025273048 0.032146567 0.039906657 0.048440219 0.05895834 0.07140122 0.085645892 0.10221372 0.12053943 0.14049175 0.15945369
0 0 0 0 0 0 0 0 0 0 0 0 0 0 0 0 0 0 0 0 0 0 0 0 0 0 0 0 0 0 0 0 0 0 0 0 0 0 0 0 0 0 0 0 0 0 0 0 0 0 0 0 0 0 0 0 0 0 0 0 0 0 0 0 0 0 0 0 0 0 0 0 0 0 0 0 0 0 0 0 0 0 0 0 0 0 0 0 0 0 0 0 0 0 0 -0.00011043875 7.5516809e-006 0.00033281861 0.00084427939 0.0015202422 0.0023395214 0.0032804956 0.0043202576 0.0054449695 0.006616286 0.0078624252 0.0090941553 0.010328487 0.011541294 0.012724403 0.013855482 0.014938548 0.015958488 0.016894974 0.017742132 0.018494453 0.019169351 0.019709682 0.020187018 0.020554978 0.020760171 0.020840192 0.020943847 0.020800917 0.02061676 0.020310217 0.019918436 0.01943527 0.018861534 0.01810005 0.017365895 0.016589015 0.015642858 0.014641946 0.01364776 0.012634848 0.011592001 0.010561941 0.0094986506 0.0084766138 0.0074843252 0.0064709367 0.005539639 0.0046449596 0.0038279898 0.003122408 0.0025302338 0.0020345177 0.0016620889 0.0013940162 0.0012705706 0.0012913904 0.0014602458 0.0014980798 0.0015196186 0.0015460316 0.0015776296 0.0016282173 0.0016532728 0.0017068752 0.0017571291 0.0018237218 0.0018884374 0.0019444719 0.0019953188 0.0020175806 0.0020593162 0.0021112774 0.0021648754 0.0022065088 0.0022422492 0.002270986 0.0023211298 0.0023739971 0.0024282722 0.0024691373 0.0025116886 0.0025552322 0.0026042531 0.0026612088 0.0027125391 0.0027730756 0.0028235772 0.0029084645 0.0029493634 0.0030445851 0.00307969 0.0031499796 0.0032255475 0.0032782799 0.0033228564 0.0033669835 0.0034120413 0.0034408445 0.0034616032 0.0035420322 0.0035425197 0.0036193292 0.0036438356 0.0036520868 0.0036302049 0.0036250413 0.0035766249 0.0035594153 0.0035352729 0.0034628726 0.0033928779 0.0033027236 0.0032290234 0.0031543083 0.0030495401 0.0029469037 0.002828833 0.0027056341 0.0025905695 0.0024678194 0.0023524211 0.0022228745 0.0021023486 0.0019749286 0.0018481233 0.0017295674 0.0016023643 0.0014873355 0.0013664638 0.0012542607 0.0011423351 0.00099734865 0.00089643075 0.00083505553 0.00078967522 0.00076805364 0.00074343412 0.00071479145 0.0006808141 0.00063771547 0.00058291733 0.00052042463 0.00044283921 0.00035944809 0.00027401039 0.00019290514 0.00011582214 4.8522799e-005 1.1720132e-006 -1.8075036e-005 0 0 -2.2387315e-005 1.6677134e-006 7.9210114e-005 0.00022004772 0.00042414198 0.0007111983 0.0010723642 0.001539416 0.0020482242 0.0026395086 0.0033306831 0.0041824925 0.0052868001 0.0065893153 0.0082618367 0.010217921 0.012808207 0.01632052 0.020784603 0.026533767 0.033442739 0.041110815 0.049883905 0.060704929 0.073215305 0.087232304 0.10395221 0.12245486 0.14289341 0.16165848
0 0 0 0 0 0 0 0 0 0 0 0 0 0 0 0 0 0 0 0 0 0 0 0 0 0 0 0 0 0 0 0 0 0 0 0 0 0 0 0 0 0 0 0 0 0 0 0 0 0 0 0 0 0 0 0 0 0 0 0 0 0 0 0 0 0 0 0 0 0 0 0 0 0 0 0 0 0 0 0 0 0 0 0 0 0 0 0 0 0 0 0 0 0 0 -0.00011666375 7.9707461e-006 0.00035156458 0.00089085228 0.0016037286 0.0024681508 0.003460157 0.004556888 0.0057417859 0.0069763562 0.0083042595 0.0096059513 0.010906374 0.012185919 0.013435129 0.014638156 0.015788465 0.016860827 0.017831118 0.018718256 0.019538443 0.020251243 0.02081312 0.02131906 0.021725379 0.021938159 0.022198936 0.022157874 0.021982827 0.021776084 0.021454522 0.021125128 0.020515961 0.019934382 0.019118129 0.018351693 0.017463412 0.016515663 0.015506013 0.0144273 0.013315521 0.012172484 0.011039716 0.0098847252 0.0087651975 0.0076511532 0.0066011873 0.005589489 0.0046490838 0.0037826239 0.0030316392 0.0023864824 0.0018658682 0.001473876 0.0011938401 0.0010482375 0.0010562557 0.0012150677 0.0012422176 0.0012636582 0.0012910244 0.0013230791 0.001349522 0.0013693273 0.0014045076 0.0014415329 0.0014860827 0.0015275986 0.0015579489 0.00158354 0.001599328 0.0016362001 0.0016645886 0.001699577 0.0017294993 0.0017482122 0.0017565012 0.0017883914 0.001822519 0.0018586771 0.001887977 0.001919947 0.0019496546 0.0019868774 0.0020288542 0.0020715849 0.0021181702 0.0021774797 0.0022132912 0.0022654028 0.0023178668 0.0023578572 0.0023952302 0.0024490048 0.0024910425 0.0025239037 0.0025761021 0.0026032352 0.0026236607 0.0026750745 0.0026860863 0.0027384735 0.0027647557 0.0027808814 0.0027814421 0.0027812478 0.0027536866 0.0027458553 0.00272547 0.0026759455 0.0026385901 0.0025778649 0.0025255265 0.0024507932 0.002397099 0.0023141382 0.0022308223 0.0021472429 0.0020540993 0.0019633552 0.0018752252 0.0017821037 0.0016842562 0.0015956583 0.0014957053 0.0014003628 0.0013115329 0.0012162946 0.0011287368 0.0010383135 0.00094757068 0.00086395065 0.00074529489 0.00067029621 0.00063744098 0.00061662379 0.00061045142 0.00061462667 0.00060975956 0.00059261952 0.0005664703 0.00052927097 0.00047983122 0.00041255162 0.0003380003 0.00026094109 0.00018516485 0.00011186747 4.7344227e-005 1.1467203e-006 -1.7758824e-005 0 0 -2.2046095e-005 1.6361506e-006 7.8001718e-005 0.00021827943 0.00042193538 0.0007039196 0.0010591223 0.0015202687 0.0020544721 0.0026866235 0.0034190962 0.0043338654 0.0054675623 0.0068833274 0.008701354 0.010833393 0.013625857 0.017141168 0.021564762 0.027348514 0.034065205 0.042067857 0.051171181 0.062307559 0.075160655 0.089705443 0.10615724 0.12558727 0.1457651 0.1646226
0 0 0 0 0 0 0 0 0 0 0 0 0 0 0 0 0 0 0 0 0 0 0 0 0 0 0 0 0 0 0 0 0 0 0 0 0 0 0 0 0 0 0 0 0 0 0 0 0 0 0 0 0 0 0 0 0 0 0 0 0 0 0 0 0 0 0 0 0 0 0 0 0 0 0 0 0 0 0 0 0 0 0 0 0 0 0 0 0 0 0 0 0 0 0 -0.00012247905 8.3831352e-006 0.00036931393 0.00093798692 0.0016891359 0.0025991762 0.0036432853 0.0047976652 0.0060368679 0.0073421274 0.0087364288 0.01011209 0.011488867 0.012826975 0.01414727 0.015398557 0.016609774 0.017737558 0.018784994 0.019738761 0.020602464 0.021355599 0.021994587 0.022460881 0.023073602 0.023303408 0.023372033 0.023425668 0.023331533 0.02311267 0.022760325 0.022313677 0.021650082 0.021036325 0.020161843 0.019312748 0.018373804 0.017362552 0.01628009 0.015133077 0.013941989 0.01272628 0.011504707 0.010268779 0.0090505433 0.0078617622 0.0067215673 0.0056435017 0.0046425075 0.0037242931 0.0029185604 0.0022227454 0.0016694791 0.0012430545 0.00094413115 0.00079128488 0.00078805093 0.0009498756 0.00096331595 0.00098159295 0.0010034799 0.0010319303 0.0010497528 0.0010655476 0.0010868052 0.0011126726 0.0011429137 0.001168747 0.0011794855 0.0011888184 0.0011997181 0.001222835 0.0012360334 0.0012551114 0.0012699874 0.0012688561 0.0012782746 0.0012959925 0.0013175691 0.001342258 0.0013635348 0.0013860863 0.0014097929 0.0014374197 0.0014666614 0.0014977101 0.0015358521 0.0015670243 0.0016032232 0.0016481514 0.0016711059 0.0016960702 0.0017196908 0.0017768627 0.0018017882 0.0018195659 0.0018495427 0.0018879852 0.0019082229 0.0019258275 0.0019617499 0.0019798759 0.0019816776 0.0020059647 0.0020148799 0.0020049285 0.0019999857 0.0019823949 0.0019594697 0.001937271 0.0018918419 0.0018497015 0.0018111741 0.0017789413 0.0017235044 0.0016635414 0.0016002566 0.0015381426 0.0014731117 0.0014167864 0.0013473328 0.001280455 0.0012075878 0.0011454006 0.0010760515 0.0010073167 0.0009389293 0.00087425066 0.00081097298 0.00074696629 0.00068204627 0.00062071865 0.00052441137 0.00047396972 0.00046176442 0.00046422194 0.00047871942 0.00049512423 0.00051163492 0.00051207704 0.000501243 0.00047880499 0.00044227709 0.00038741777 0.00032128869 0.00024810595 0.00017807468 0.00010916602 4.662019e-005 1.137112e-006 -1.7666939e-005 0 0 -2.1758017e-005 1.6059214e-006 7.7420046e-005 0.00021773987 0.00042830034 0.00071881705 0.0010812892 0.0015302932 0.0020796653 0.0027364664 0.0035108493 0.0044499971 0.0055871942 0.0070777304 0.0089176819 0.011235113 0.014172422 0.017676594 0.022201741 0.027691709 0.034509675 0.042827992 0.052670516 0.064036427 0.07732489 0.092715406 0.10900061 0.12710149 0.1464029 0.1662773
0 0 0 0 0 0 0 0 0 0 0 0 0 0 0 0 0 0 0 0 0 0 0 0 0 0 0 0 0 0 0 0 0 0 0 0 0 0 0 0 0 0 0 0 0 0 0 0 0 0 0 0 0 0 0 0 0 0 0 0 0 0 0 0 0 0 0 0 0 0 0 0 0 0 0 0 0 0 0 0 0 0 0 0 0 0 0 0 0 0 0 0 0 0 0 -0.00012859696 8.7999392e-006 0.00038759962 0.00098439342 0.0017739752 0.0027278103 0.0038232562 0.0050351433 0.0063402199 0.0077325323 0.0091753164 0.01062114 0.012070246 0.013469183 0.014863048 0.016168989 0.01743993 0.018603846 0.019701447 0.020706603 0.021615387 0.022409676 0.023102028 0.023786062 0.024320535 0.024554333 0.024625749 0.024678858 0.024579564 0.024395636 0.023931635 0.023524075 0.022810784 0.022116081 0.021304462 0.020395409 0.019388555 0.018307593 0.017148348 0.015930442 0.014657293 0.013359915 0.012047493 0.0107309 0.0094167051 0.0081280363 0.0068860742 0.0057202769 0.004641701 0.0036694152 0.0028167853 0.0020797283 0.0014832709 0.0010175427 0.00069726714 0.00052498207 0.00051589053 0.0006789668 0.00069107384 0.00070322947 0.00072513091 0.00074025727 0.0007538179 0.00076326945 0.00077791576 0.0007898682 0.00080137829 0.00081108175 0.00081512125 0.00081751986 0.0008230877 0.00083669531 0.000846426 0.00085361718 0.00084857268 0.00085082933 0.00085924342 0.00087019236 0.00088336984 0.00089691041 0.00091085321 0.00092612055 0.00094243854 0.00096127088 0.00098144727 0.0010044805 0.0010289846 0.0010485126 0.0010690984 0.0010944664 0.0011114703 0.0011325059 0.0011479522 0.0011878592 0.0012020313 0.0012230056 0.0012390765 0.0012545076 0.0012676208 0.0012779747 0.0013111537 0.0013144166 0.0013157134 0.0013416639 0.0013349481 0.001344161 0.0013301423 0.0013163202 0.0013029566 0.0012825613 0.0012528979 0.0012343115 0.0012038946 0.001181073 0.0011450642 0.0011054904 0.001066761 0.0010262559 0.00098567096 0.00094230108 0.00089296979 0.00084724447 0.00080202194 0.00075861104 0.00071251316 0.00066722058 0.00062064045 0.00057628953 0.00053877635 0.00049410677 0.00045332498 0.00041058958 0.00033642447 0.00030571091 0.00031057036 0.00033121707 0.0003645283 0.000398435 0.00042989007 0.00044543174 0.00044790647 0.00043608409 0.00040902522 0.00036534011 0.00030840369 0.00024031775 0.00017231938 0.00010611441 4.613426e-005 1.1399195e-006 -1.7775701e-005 0 0 -2.1852933e-005 1.60055e-006 7.7735224e-005 0.00021896963 0.00043869898 0.00073594782 0.0011158971 0.0015739521 0.0021415003 0.0027996151 0.0036344558 0.0046579573 0.0058562772 0.0073756124 0.0092363903 0.011618081 0.014488028 0.017999233 0.022514009 0.028229176 0.035431907 0.044057119 0.054465582 0.0662902 0.07945872 0.094699853 0.11120773 0.12832898 0.14690087 0.16837726
0 0 0 0 0 0 0 0 0 0 0 0 0 0 0 0 0 0 0 0 0 0 0 0 0 0 0 0 0 0 0 0 0 0 0 0 0 0 0 0 0 0 0 0 0 0 0 0 0 0 0 0 0 0 0 0 0 0 0 0 0 0 0 0 0 0 0 0 0 0 0 0 0 0 0 0 0 0 0 0 0 0 0 0 0 0 0 0 0 0 0 0 0 0 0 -0.00013470447 9.2110535e-006 0.00040560647 0.0010306363 0.0018547807 0.002856701 0.0040045896 0.0052755391 0.0066583415 0.0080888787 0.009594157 0.01110727 0.012635877 0.014099166 0.015563006 0.016954871 0.018288104 0.019609886 0.020781956 0.021901824 0.022914722 0.023742482 0.024515198 0.025036953 0.025574718 0.025818006 0.025883576 0.025938642 0.025845569 0.025673049 0.025178205 0.024717507 0.023951086 0.023205308 0.022343817 0.021376662 0.020313476 0.019168241 0.017947698 0.01666692 0.015324803 0.013951903 0.012560585 0.011165255 0.0097725551 0.0084038125 0.0070839459 0.0058381873 0.004679199 0.0036362298 0.0027264357 0.0019444834 0.0013008216 0.00080237991 0.00045774819 0.00027241601 0.00025842593 0.00042850398 0.00043639068 0.00044691905 0.00045898442 0.00046905456 0.0004746655 0.00048074061 0.00048586286 0.00048775915 0.00048871512 0.00048816199 0.00048439024 0.00048361919 0.00048741795 0.00049632618 0.00049989527 0.00050238549 0.0004978419 0.00050037583 0.0005062039 0.0005131496 0.00052044029 0.00052696366 0.00053541455 0.00054401098 0.00055316829 0.00056348244 0.00057472278 0.00058470466 0.00060096928 0.00061260234 0.00062416256 0.00063758534 0.00064831083 0.0006593175 0.00066899979 0.00069417859 0.00070233817 0.00071188009 0.00072120104 0.00072971294 0.00073737246 0.00074378356 0.00076009264 0.00076466196 0.00076925062 0.00077934143 0.00077727299 0.00078155479 0.00077313595 0.00076700738 0.00075602768 0.00074385241 0.00072868932 0.00071620379 0.00070076325 0.00068833991 0.00066410776 0.00064574366 0.00062146286 0.00059564857 0.00057056806 0.00054683286 0.00051974497 0.00049183526 0.00046555169 0.00044056066 0.00041369569 0.00038753506 0.00036146023 0.00033556983 0.00030908465 0.00028694945 0.00026175092 0.00023888109 0.00017919394 0.00016447243 0.00018299715 0.00022104172 0.00026920831 0.000318202 0.00036018333 0.00039016657 0.00040306315 0.00040194544 0.00038357156 0.00034893856 0.00029871867 0.00023542878 0.00016867378 0.00010367941 4.5623122e-005 1.1393231e-006 -1.7951596e-005 0 0 -2.2631069e-005 1.662657e-006 8.0515595e-005 0.00022768323 0.00046145472 0.00077808028 0.0011762329 0.0016638542 0.0022783131 0.0029815777 0.0039019149 0.0049689722 0.0062284444 0.0077267446 0.009546945 0.011885911 0.014732018 0.018369214 0.023002502 0.029048226 0.036516977 0.045233734 0.055896913 0.067880621 0.08161797 0.096451236 0.11258334 0.12879095 0.14700807 0.16895064
0 0 0 0 0 0 0 0 0 0 0 0 0 0 0 0 0 0 0 0 0 0 0 0 0 0 0 0 0 0 0 0 0 0 0 0 0 0 0 0 0 0 0 0 0 0 0 0 0 0 0 0 0 0 0 0 0 0 0 0 0 0 0 0 0 0 0 0 0 0 0 0 0 0 0 0 0 0 0 0 0 0 0 0 0 0 0 0 0 0 0 0 0 0 0 -0.00014090148 9.6286999e-006 0.0004246168 0.0010763053 0.00194016 0.0029852588 0.0041838877 0.0055247161 0.0069444557 0.0084405422 0.010003553 0.011616482 0.013192814 0.014722219 0.01626766 0.01772009 0.019140603 0.020455831 0.021722795 0.022895313 0.023912752 0.024880032 0.025627736 0.026257856 0.026728773 0.027060278 0.027130513 0.027192045 0.027126318 0.026877772 0.026477262 0.02592346 0.025090628 0.024298288 0.023381569 0.022355721 0.021240229 0.020039917 0.018759513 0.017410147 0.015999231 0.014550477 0.013076043 0.011596559 0.01012612 0.0086846913 0.0072927147 0.0059738169 0.0047458369 0.0036311922 0.0026544539 0.0018204177 0.0011372503 0.00061154732 0.00024235943 4.5034965e-005 2.8653646e-005 0.00020378059 0.00020805516 0.00021144561 0.00021632207 0.00021999089 0.00022237783 0.00022348126 0.00022453092 0.00022481582 0.0002235495 0.0002207892 0.00021745347 0.00021723504 0.00021775256 0.00022086378 0.00022189628 0.00022187052 0.00022125232 0.00022275092 0.00022510123 0.00022824573 0.00023149145 0.00023397131 0.00023730272 0.00024103475 0.0002447807 0.0002490605 0.00025473307 0.00026007768 0.00026487452 0.0002697006 0.00027468175 0.00028026072 0.00028496816 0.00028972167 0.00029455396 0.0003040296 0.000308037 0.0003122856 0.00031625969 0.00032001097 0.00032337127 0.00032613471 0.00033272747 0.00033503778 0.00033753935 0.00034081915 0.000340407 0.00034276445 0.00033989991 0.00033559872 0.00033089697 0.00032542004 0.00032081797 0.00031462922 0.00030812154 0.00030044737 0.00029234967 0.00028199163 0.00027162311 0.00026035501 0.00025100128 0.00023966679 0.00022783036 0.00021549459 0.00020411303 0.00019288288 0.00018121714 0.00016999419 0.00015842867 0.0001468008 0.00013560532 0.00012453301 0.00011522181 0.0001051643 5.7044075e-005 5.4787656e-005 8.4930688e-005 0.00013541658 0.00019531395 0.00025558546 0.00030829525 0.00034879376 0.00037148315 0.00037659824 0.00036496701 0.00033712802 0.00029276979 0.00023291936 0.00016854427 0.00010385044 4.5766581e-005 1.1515187e-006 -1.8428544e-005 0 0 -2.4106285e-005 1.7921518e-006 8.6509444e-005 0.0002418306 0.00048615692 0.00081974944 0.0012466275 0.0017707484 0.002419844 0.0031698604 0.004134232 0.0052388962 0.0065789407 0.0081179019 0.0099526853 0.01223275 0.01515807 0.018968918 0.023675684 0.029760115 0.037080868 0.045692523 0.056114116 0.0683551 0.0822362 0.096757585 0.11248679 0.129188 0.14788054 0.1687307
0 0 0 0 0 0 0 0 0 0 0 0 0 0 0 0 0 0 0 0 0 0 0 0 0 0 0 0 0 0 0 0 0 0 0 0 0 0 0 0 0 0 0 0 0 0 0 0 0 0 0 0 0 0 0 0 0 0 0 0 0 0 0 0 0 0 0 0 0 0 0 0 0 0 0 0 0 0 0 0 0 0 0 0 0 0 0 0 0 0 0 0 0 0 0 -0.00014688384 1.0035438e-005 0.00044213088 0.0011227607 0.0020219398 0.0031098534 0.0043712482 0.0057465814 0.0072283883 0.0087949567 0.010404187 0.012094478 0.013722666 0.015332346 0.016904344 0.018446153 0.019952005 0.021325424 0.022648439 0.023860819 0.024954968 0.025939131 0.026735255 0.027390049 0.027893361 0.028251072 0.028450823 0.028506323 0.028402752 0.028151248 0.027744594 0.027187114 0.026488864 0.025643296 0.024668308 0.023569503 0.022362088 0.021065048 0.019692818 0.018250414 0.016753688 0.015213431 0.013650419 0.012081928 0.010527678 0.0090079461 0.0075411562 0.0061502812 0.0048535129 0.0036727177 0.0026377367 0.001750197 0.001022154 0.00046031791 7.1693579e-005 -0.00013813273 -0.00015688031 2.4092755e-005 2.4443518e-005 2.4684182e-005 2.508482e-005 2.529492e-005 2.5608271e-005 2.5568773e-005 2.5399768e-005 2.539923e-005 2.5231124e-005 2.4898747e-005 2.4543903e-005 2.4470262e-005 2.4411673e-005 2.4675354e-005 2.4755955e-005 2.4786504e-005 2.478645e-005 2.496132e-005 2.514618e-005 2.5414849e-005 2.5703086e-005 2.5971711e-005 2.6344053e-005 2.6861864e-005 2.7290073e-005 2.7901742e-005 2.8294249e-005 2.8765912e-005 2.9272894e-005 2.9800267e-005 3.0322822e-005 3.0923387e-005 3.1442225e-005 3.1957801e-005 3.2503066e-005 3.3027092e-005 3.3903765e-005 3.4368702e-005 3.4814637e-005 3.5215894e-005 3.5558911e-005 3.585801e-005 3.6574705e-005 3.6851188e-005 3.7149404e-005 3.7456718e-005 3.7480232e-005 3.7634261e-005 3.7310638e-005 3.6846387e-005 3.6376901e-005 3.5952846e-005 3.5383218e-005 3.4499265e-005 3.3700127e-005 3.3138219e-005 3.2045673e-005 3.0914204e-005 2.9793318e-005 2.8555881e-005 2.7634253e-005 2.6362561e-005 2.5063419e-005 2.3794762e-005 2.2550296e-005 2.1268482e-005 1.9967622e-005 1.8733601e-005 1.7437435e-005 1.6194183e-005 1.4952243e-005 1.3763343e-005 1.2733465e-005 1.1641819e-005 -2.8641494e-005 -2.2088161e-005 1.6967451e-005 7.5983697e-005 0.00014451884 0.00021371615 0.00027524491 0.00032274459 0.00035258206 0.00036419024 0.00035816735 0.00033339024 0.0002905112 0.00023555024 0.00017157705 0.00010571413 4.6340675e-005 1.1663438e-006 -1.8834043e-005 0 0 -2.5506505e-005 1.916925e-006 9.2123844e-005 0.00025318415 0.00050461256 0.00085796285 0.0013119194 0.0018682831 0.0025372613 0.0033235126 0.0042820166 0.0053968787 0.0067930952 0.0084476288 0.01040114 0.012817333 0.015833758 0.019696126 0.024483744 0.030487496 0.037719913 0.046255359 0.056404545 0.068942865 0.082667565 0.096652563 0.11210607 0.12925448 0.14856759 0.16909816
0 0 0 0 0 0 0 0 0 0 0 0 0 0 0 0 0 0 0 0 0 0 0 0 0 0 0 0 0 0 0 0 0 0 0 0 0 0 0 0 0 0 0 0 0 0 0 0 0 0 0 0 0 0 0 0 0 0 0 0 0 0 0 0 0 0 0 0 0 0 0 0 0 0 0 0 0 0 0 0 0 0 0 0 0 0 0 0 0 0 0 0 0 0 0 -0.00015267853 1.0442868e-005 0.00045981665 0.0011665576 0.0020996066 0.003233439 0.0045323435 0.0059659324 0.0075124469 0.009132022 0.010790877 0.012564279 0.014247657 0.015927232 0.017559801 0.01915373 0.020742719 0.022177597 0.023522733 0.024807609 0.025953294 0.026970642 0.02782138 0.028520866 0.029063264 0.029444225 0.029670728 0.029730874 0.02963511 0.02937431 0.028956106 0.028379446 0.027650277 0.026771797 0.025752612 0.024602922 0.023338579 0.021965656 0.020529268 0.019027227 0.017459095 0.015843354 0.014207112 0.012563432 0.010931301 0.0093375526 0.0078027955 0.006346845 0.0049899656 0.0037533938 0.0026678267 0.001735544 0.00096879654 0.00037581845 -3.4704555e-005 -0.00025456712 -0.00027413719 -8.573741e-005 -8.6353284e-005 -8.6860004e-005 -8.7868442e-005 -8.7924838e-005 -8.8734168e-005 -8.8314389e-005 -8.7340557e-005 -8.6741066e-005 -8.5881878e-005 -8.4702046e-005 -8.4246912e-005 -8.3744558e-005 -8.3624268e-005 -8.3915337e-005 -8.3899164e-005 -8.4026055e-005 -8.416976e-005 -8.4630771e-005 -8.4933233e-005 -8.5564203e-005 -8.6247762e-005 -8.7392293e-005 -8.8281316e-005 -9.0261208e-005 -9.1229533e-005 -9.3112202e-005 -9.4379899e-005 -9.589823e-005 -9.7515923e-005 -9.9225931e-005 -0.0001008844 -0.00010280424 -0.00010452759 -0.00010631577 -0.00010796845 -0.00010965565 -0.00011244362 -0.00011400988 -0.00011545253 -0.00011675945 -0.00011786753 -0.00011877698 -0.00012104046 -0.00012213075 -0.00012318805 -0.00012409613 -0.00012417351 -0.00012384413 -0.00012342415 -0.00012212646 -0.00012117931 -0.00011895376 -0.00011656446 -0.00011450938 -0.00011248483 -0.0001094568 -0.00010586585 -0.00010223262 -9.8553318e-005 -9.565136e-005 -9.1738379e-005 -8.7511751e-005 -8.3418675e-005 -7.9316942e-005 -7.4888247e-005 -7.0642465e-005 -6.6389338e-005 -6.2388828e-005 -5.808118e-005 -5.3808523e-005 -4.9703166e-005 -4.6165156e-005 -4.2354384e-005 -3.8802761e-005 -7.5086024e-005 -6.3584492e-005 -1.9772982e-005 4.3981715e-005 0.00011729732 0.00019191066 0.00025940412 0.00031205964 0.00034784746 0.00036515499 0.00036084064 0.00033623566 0.00029471274 0.00024064213 0.00017709824 0.00010938363 4.764981e-005 1.1965822e-006 -1.9445444e-005 0 0 -2.6653045e-005 2.0173432e-006 9.6906768e-005 0.00026473904 0.00051856708 0.00088050914 0.0013582625 0.0019390336 0.0026313779 0.003458632 0.004419313 0.005570643 0.0070222076 0.0088511085 0.010992214 0.013602408 0.016772124 0.020639993 0.025534708 0.031718401 0.039010279 0.04753008 0.057758916 0.069929862 0.083060645 0.097290478 0.11320319 0.13014967 0.149825 0.17119737
0 0 0 0 0 0 0 0 0 0 0 0 0 0 0 0 0 0 0 0 0 0 0 0 0 0 0 0 0 0 0 0 0 0 0 0 0 0 0 0 0 0 0 0 0 0 0 0 0 0 0 0 0 0 0 0 0 0 0 0 0 0 0 0 0 0 0 0 0 0 0 0 0 0 0 0 0 0 0 0 0 0 0 0 0 0 0 0 0 0 0 0 0 0 0 -0.00015848931 1.0844202e-005 0.00047642418 0.0012109208 0.002177026 0.003348927 0.0046933394 0.0061846503 0.0077820949 0.0094736058 0.011218976 0.012996142 0.014742716 0.016498514 0.018186328 0.019829816 0.021517174 0.023030115 0.024418065 0.025737489 0.026906583 0.028015189 0.0289997 0.029681273 0.030229113 0.030640338 0.030885723 0.030957893 0.030862122 0.030599694 0.030173275 0.029581059 0.028819843 0.02790735 0.026843442 0.025639849 0.02431667 0.022896349 0.021564016 0.019849999 0.018209061 0.016524869 0.014816491 0.013101135 0.011401528 0.0097364607 0.0081325276 0.0066115747 0.005196007 0.0039059284 0.0027739923 0.0018018891 0.0010010233 0.0003809917 -4.9566661e-005 -0.0002805119 -0.00030081999 -0.00010248819 -0.00010288267 -0.00010300491 -0.00010337458 -0.00010298174 -0.00010313917 -0.0001021382 -0.0001010356 -9.9583316e-005 -9.8532423e-005 -9.7687487e-005 -9.7295791e-005 -9.7100672e-005 -9.6550498e-005 -9.6272819e-005 -9.5961335e-005 -9.6001824e-005 -9.5839467e-005 -9.6101699e-005 -9.6343027e-005 -9.6748404e-005 -9.7250764e-005 -9.8311408e-005 -9.9119632e-005 -0.00010131134 -0.00010226094 -0.00010420317 -0.00010565325 -0.00010727921 -0.00010902171 -0.00011082867 -0.00011255788 -0.00011465329 -0.00011694424 -0.00011843052 -0.00012024687 -0.00012214447 -0.00012507791 -0.00012685148 -0.00012845688 -0.00012987072 -0.00013108123 -0.00013202191 -0.00013435026 -0.00013731676 -0.00013752034 -0.00013790061 -0.00013801186 -0.00013751388 -0.00013711159 -0.00013579398 -0.00013391405 -0.00013207474 -0.00013008993 -0.00012793908 -0.00012448393 -0.00012107449 -0.00011736187 -0.00011376157 -0.00010958349 -0.00010644955 -0.00010197631 -9.759399e-005 -9.3202092e-005 -8.8384293e-005 -8.3689467e-005 -7.8965203e-005 -7.4302206e-005 -6.9792003e-005 -6.493939e-005 -6.027751e-005 -5.5556009e-005 -5.1689172e-005 -4.7410847e-005 -4.3431852e-005 -7.9120248e-005 -6.7532726e-005 -2.3191226e-005 4.1386668e-005 0.00011573973 0.00019137747 0.00026040633 0.00031588279 0.000353733 0.00037279275 0.00037054446 0.00034678033 0.00030334086 0.00024795345 0.00018198897 0.00011288675 4.9319368e-005 1.2305947e-006 -2.0018452e-005 0 0 -2.7312802e-005 2.0730474e-006 9.9698217e-005 0.00027244119 0.00052942998 0.0008916582 0.0013851607 0.0020062905 0.002752743 0.0036487329 0.0046704788 0.0058893921 0.0073474698 0.0092113383 0.011464013 0.01431364 0.017684467 0.021711019 0.026580065 0.032726751 0.040131298 0.048840688 0.059119103 0.071092123 0.083697875 0.098174903 0.11449071 0.13141191 0.15045483 0.17083236
0 0 0 0 0 0 0 0 0 0 0 0 0 0 0 0 0 0 0 0 0 0 0 0 0 0 0 0 0 0 0 0 0 0 0 0 0 0 0 0 0 0 0 0 0 0 0 0 0 0 0 0 0 0 0 0 0 0 0 0 0 0 0 0 0 0 0 0 0 0 0 0 0 0 0 0 0 0 0 0 0 0 0 0 0 0 0 0 0 0 0 0 0 0 0 -0.00016439466 1.120675e-005 0.00049354367 0.0012516635 0.0022531941 0.0034648425 0.0048513805 0.0063882668 0.0080530755 0.0097981842 0.011576086 0.01341493 0.015251127 0.01704302 0.018807178 0.020488935 0.022292209 0.023843131 0.025271768 0.026614184 0.027966195 0.029077494 0.030020996 0.030770805 0.031383561 0.031833493 0.032095096 0.03217716 0.03208483 0.031824598 0.031393494 0.030785197 0.030001073 0.029064274 0.027964912 0.026702401 0.025330883 0.024018624 0.022434718 0.02076959 0.019043072 0.017271091 0.015487231 0.013706997 0.011944096 0.010217891 0.0085528229 0.0069730469 0.0055019654 0.0041617896 0.002985045 0.0019757087 0.0011447673 0.00050173029 5.5278469e-005 -0.00018431901 -0.00020565242 0 0 0 0 0 0 0 0 0 0 0 0 0 0 0 0 0 0 0 0 0 0 0 0 0 0 0 0 0 0 0 0 0 0 0 0 0 0 0 0 0 0 0 0 0 0 0 0 0 0 0 0 0 0 0 0 0 0 0 0 0 0 0 0 0 0 0 0 0 0 0 0 0 0 0 -3.9638927e-005 -3.2045486e-005 8.6476951e-006 6.9825205e-005 0.00014103427 0.00021350681 0.00028080624 0.00033500946 0.00037253118 0.00038955138 0.00038633183 0.00036138459 0.00031710538 0.00025811359 0.0001895787 0.00011755419 5.1828158e-005 1.2925866e-006 -2.0942e-005 0 0 -2.8201488e-005 2.1458629e-006 0.00010370361 0.00028511014 0.00055303278 0.00092625573 0.001428806 0.0020872295 0.0028860186 0.0038513165 0.0049378379 0.0062290276 0.0077505622 0.0096294215 0.011919809 0.014853026 0.018390236 0.022633004 0.0276378 0.033844135 0.041083759 0.04969809 0.060252586 0.072131856 0.084920555 0.10010739 0.11611563 0.1328017 0.15176953 0.17120256
0 0 0 0 0 0 0 0 0 0 0 0 0 0 0 0 0 0 0 0 0 0 0 0 0 0 0 0 0 0 0 0 0 0 0 0 0 0 0 0 0 0 0 0 0 0 0 0 0 0 0 0 0 0 0 0 0 0 0 0 0 0 0 0 0 0 0 0 0 0 0 0 0 0 0 0 0 0 0 0 0 0 0 0 0 0 0 0 0 0 0 0 0 0 0 -0.00016988002 1.1578582e-005 0.00051001044 0.0012929389 0.0023262014 0.0035744729 0.0050085326 0.0065879497 0.0083123192 0.010084181 0.01194867 0.013816548 0.01572474 0.017575433 0.019394646 0.021223914 0.023029109 0.024626737 0.026162275 0.027590348 0.028899336 0.030015843 0.031059434 0.031862236 0.032507178 0.032983704 0.033265258 0.033355139 0.033264146 0.032998913 0.032561789 0.031940486 0.031136319 0.030158115 0.02903568 0.02775151 0.026484477 0.024906777 0.023252506 0.02152623 0.019736383 0.017908096 0.016073328 0.014229695 0.012399074 0.010606711 0.008877958 0.0072378741 0.0057098488 0.0043175684 0.0030962201 0.0020487115 0.0011867989 0.00051966827 5.7257933e-005 -0.00019079621 -0.0002126998 0 0 0 0 0 0 0 0 0 0 0 0 0 0 0 0 0 0 0 0 0 0 0 0 0 0 0 0 0 0 0 0 0 0 0 0 0 0 0 0 0 0 0 0 0 0 0 0 0 0 0 0 0 0 0 0 0 0 0 0 0 0 0 0 0 0 0 0 0 0 0 0 0 0 0 -3.9873646e-005 -3.2278747e-005 8.7237179e-006 7.0456754e-005 0.00014284712 0.00021552369 0.00028271933 0.00034017969 0.00037774303 0.00039646622 0.00039388599 0.00036857953 0.00032463595 0.0002651294 0.00019524676 0.00012174169 5.3613433e-005 1.3418501e-006 -2.1507781e-005 0 0 -2.8965154e-005 2.2074169e-006 0.00010701976 0.00029692036 0.00058261568 0.00098178537 0.0015023557 0.0021725937 0.0029907488 0.0039739742 0.0050993829 0.0064475203 0.0080493048 0.0099000241 0.012176789 0.015161091 0.018816667 0.023211056 0.028393692 0.034720692 0.041947937 0.050724566 0.061264507 0.072569216 0.0853332 0.10082148 0.11684986 0.13393434 0.15390212 0.17455607
0 0 0 0 0 0 0 0 0 0 0 0 0 0 0 0 0 0 0 0 0 0 0 0 0 0 0 0 0 0 0 0 0 0 0 0 0 0 0 0 0 0 0 0 0 0 0 0 0 0 0 0 0 0 0 0 0 0 0 0 0 0 0 0 0 0 0 0 0 0 0 0 0 0 0 0 0 0 0 0 0 0 0 0 0 0 0 0 0 0 0 0 0 0 0 -0.00017500387 1.1954051e-005 0.00052634706 0.0013350562 0.0023962229 0.0036826583 0.0051553282 0.0068044593 0.0085603143 0.010384911 0.012280216 0.014230602 0.016175191 0.018068664 0.020028179 0.021865405 0.023732741 0.025378322 0.02695967 0.028444891 0.029756758 0.030915633 0.032127182 0.032954974 0.033734051 0.034178074 0.034384406 0.034479601 0.0343873 0.034103135 0.033668906 0.033031841 0.032199536 0.031201719 0.030023548 0.028702286 0.027272053 0.025780456 0.024051108 0.02224079 0.020356711 0.018449247 0.016550545 0.014643856 0.012742674 0.010880432 0.0090865105 0.007384344 0.0057975125 0.0043523881 0.0030853439 0.0019982633 0.0011068436 0.00041741904 -6.0556779e-005 -0.00031818195 -0.00034126971 -0.00012053969 -0.00012014824 -0.00012001926 -0.00011951509 -0.00011837397 -0.00011640129 -0.0001147464 -0.00011339026 -0.00011206686 -0.0001101365 -0.00010805194 -0.0001060161 -0.00010488167 -0.00010324217 -0.00010204116 -0.00010123227 -0.00010121297 -0.00010074845 -9.9797869e-005 -9.930809e-005 -9.9741152e-005 -9.9781319e-005 -0.00010036931 -0.00010079194 -0.00010207614 -0.00010264346 -0.00010428489 -0.00010518594 -0.00010643912 -0.00010865651 -0.00011023137 -0.00011184579 -0.00011343149 -0.00011534272 -0.00011668125 -0.00011917115 -0.00012052156 -0.00012248949 -0.00012367501 -0.0001259102 -0.00012732548 -0.00012852567 -0.00013009005 -0.00013088019 -0.00013207205 -0.00013411984 -0.00013394022 -0.00013562745 -0.00013469251 -0.00013374776 -0.00013347198 -0.00013160298 -0.00012953078 -0.00012712976 -0.00012508302 -0.0001223171 -0.00011913533 -0.00011575918 -0.0001122273 -0.00010838468 -0.00010492422 -0.00010108669 -9.7890808e-005 -9.3529922e-005 -8.899329e-005 -8.4629173e-005 -7.982742e-005 -7.525352e-005 -7.0535963e-005 -6.575489e-005 -6.1424829e-005 -5.7240304e-005 -5.2825437e-005 -4.8447784e-005 -4.4270954e-005 -8.0419423e-005 -6.9033528e-005 -2.3653803e-005 4.2477751e-005 0.00011885871 0.00019700403 0.00026884979 0.00032942777 0.00037149155 0.00039179402 0.00039104324 0.0003677201 0.00032563178 0.00026765649 0.0001978273 0.00012404792 5.4564102e-005 1.3706452e-006 -2.2140565e-005 0 0 -2.9656734e-005 2.2577395e-006 0.00011007345 0.00030654265 0.00060463554 0.0010212429 0.0015585864 0.0022264206 0.0030509519 0.0040519995 0.0051995405 0.0065969651 0.0082569837 0.010174742 0.012495442 0.015411724 0.019036595 0.023459921 0.028807912 0.035183313 0.04241799 0.051307351 0.0619185 0.073080142 0.08537076 0.1004203 0.11732784 0.13500642 0.15534097 0.17574695
