0.37488411 0.377207 0.377856 0.37951364 0.38186166 0.38366997 0.38613891 0.38836346 0.3889718 0.38948219 0.39013547 0.39141548 0.39147501 0.3913469 0.39206002 0.39206376 0.39273776 0.39485751 0.39477427 0.39604871 0.39592907 0.39795289 0.39952551 0.40102228 0.40304302 0.40547673 0.40924294 0.41248335 0.41544777 0.41844378 0.42140906 0.42426221 0.42731763 0.42933504 0.43181981 0.43359376 0.43469434 0.43662509 0.4395271 0.4430357 0.44490016 0.44814946 0.45133719 0.45492242 0.45819533 0.46167117 0.46493129 0.4695052 0.47326473 0.47519267 0.47722494 0.4803589 0.48610336 0.49251268 0.49833412 0.50187888 0.50538667 0.50994035 0.51502641 0.52097797 0.52504857 0.52750559 0.52962412 0.53170942 0.53223992 0.53348842 0.53606063 0.54098782 0.54746475 0.55224648 0.55507148 0.55634168 0.55737994 0.55780082 0.55687959 0.55603298 0.55547145 0.55741148 0.55968203 0.56369518 0.56735099 0.56973717 0.57009683 0.568583 0.56483166 0.55989243 0.55569324 0.55268121 0.5508686 0.5493515 0.54796024 0.54716434 0.54519079 0.54187592 0.53752936 0.53155691 0.52777752 0.52506399 0.52338179 0.52114808 0.51743381 0.51372299 0.51132912 0.51000116 0.50980076 0.51052192 0.5103168 0.51066557 0.51111718 0.51098244 0.50836606 0.50427911 0.49975536 0.49559095 0.491701 0.49124633 0.49412157 0.49971181 0.50623743 0.51214996 0.51590056 0.52340909 0.52844717 0.53449159 0.53732251 0.53817447 0.53725926 0.53468428 0.53197299 0.53119168 0.53010907 0.53032562 0.5319749 0.53348799 0.53554729 0.53715838 0.53747836 0.53856866 0.54173787 0.5460519 0.54684247 0.54480771 0.53901327 0.53420631 0.52961582 0.52521884 0.52117056 0.51976165 0.52078981 0.52113273 0.51855554 0.51654601 0.5165293 0.51909289 0.52010022 0.51894927 0.51540786 0.51286322 0.51165215 0.51084273 0.50893384 0.50736902 0.50575952 0.50568633 0.50610854 0.50723622 0.50798071 0.50943498 0.50991983 0.5092212 0.50649822 0.50262484 0.49889693 0.4940802 0.49134242 0.48888524 0.48507495 0.48070431 0.47645316 0.47245645 0.46947916 0.46510912 0.46055486 0.45541298 0.45215774 0.44802227 0.44558585 0.44439992 0.44430858 0.44421467 0.44630228 0.44805602 0.44866262 0.4471768 0.44438741 0.44032406 0.43583544 0.43163697 0.42895425 0.42718323 0.42876892 0.43112295 0.43439251 0.4377804 0.44110799 0.4429442 0.44398742 0.44754994 0.45118635 0.45631409 0.46285123 0.46989355 0.47985203 0.49283242 0.50672036 0.52146232 0.53619644 0.54980182 0.56235915 0.57357019 0.58425561 0.59388772 0.60171518 0.60846802 0.61336124 0.61745878 0.62101785 0.62386038 0.62737652 0.62995493 0.632939 0.63432625 0.63695355 0.64152897 0.64694651 0.65208476 0.65690058 0.66190248 0.66748092 0.6714275 0.67471945 0.67894048 0.68427892 0.69168785 0.7004192 0.70843144 0.71450296 0.71962659 0.72395382 0.72852558 0.73319655 0.73742412 0.74108451 0.74366409 0.74558779 0.74693852 0.74740129 0.7474704 0.74772036 0.74934488 0.7492344 0.74580788 0.73888692 0.7312816 0.72516771 0.7183578 0.71071659 0.70252155 0.69597077 0.69087441 0.68610302 0.68285187 0.68055603 0.67997228 0.67904896 0.67672553 0.6739821
0.35669047 0.35974277 0.36250348 0.36264486 0.36489879 0.36725769 0.37007269 0.37043017 0.37185426 0.3734466 0.37496771 0.37551145 0.37575069 0.37547218 0.37690194 0.37773622 0.37862762 0.37997556 0.3814888 0.38256909 0.3835113 0.38523365 0.38663417 0.38796217 0.39036921 0.39269373 0.39566151 0.39938278 0.40344399 0.40609681 0.40944553 0.41247953 0.41560983 0.41828063 0.42024608 0.42186981 0.42324574 0.42496683 0.42783618 0.43100373 0.43307247 0.43634651 0.43918811 0.44311568 0.44680612 0.4511186 0.45518042 0.46013127 0.46414906 0.46651946 0.46846856 0.47160338 0.4773744 0.48302507 0.48916022 0.49264132 0.49635266 0.50072659 0.50618274 0.5114217 0.51519949 0.51842441 0.5201166 0.5219608 0.5215901 0.52283858 0.52559738 0.53060748 0.53603173 0.53933664 0.53971286 0.53984848 0.54061488 0.54115718 0.54038632 0.54000224 0.53969152 0.54172047 0.54601036 0.54966801 0.55357961 0.55488539 0.55490926 0.55245263 0.54801003 0.54265197 0.53888336 0.53552269 0.53460078 0.53399557 0.53387575 0.53427149 0.53353574 0.53061575 0.52628727 0.52028442 0.51574445 0.51420127 0.5122806 0.50945667 0.50517196 0.5020738 0.50038656 0.5002911 0.50149156 0.50175669 0.50124222 0.50149095 0.50146702 0.50098051 0.49757592 0.49345207 0.48793813 0.48407344 0.48051136 0.48042492 0.48400986 0.4899705 0.49657137 0.50259753 0.50645017 0.5134284 0.51800112 0.52345613 0.52577951 0.52626384 0.52435107 0.5219253 0.51886991 0.51783262 0.51655581 0.5162414 0.5169661 0.51899229 0.52111611 0.52253221 0.52274088 0.52387155 0.52668052 0.53000765 0.53052163 0.52793498 0.52222344 0.51759896 0.51294197 0.50891128 0.5057306 0.5047512 0.50600158 0.50638503 0.50369316 0.5016283 0.50126956 0.50410384 0.50497261 0.50407596 0.50033391 0.49612508 0.49391836 0.4923757 0.49106276 0.49007865 0.4885936 0.48820141 0.48836579 0.48911722 0.49017854 0.49260445 0.4937867 0.4932654 0.49067952 0.48739799 0.4836383 0.47913772 0.47744569 0.47551646 0.47239676 0.46876108 0.46495009 0.46031303 0.45613086 0.45116728 0.44748671 0.44343713 0.43965452 0.43660351 0.43496271 0.43389859 0.43378561 0.43403521 0.43477106 0.43596969 0.43657881 0.43434867 0.43197924 0.42789233 0.42375605 0.41957869 0.41740728 0.41685388 0.417914 0.42010521 0.42377583 0.42849615 0.43163461 0.43351174 0.43498215 0.43837098 0.44199804 0.44766428 0.45469238 0.46156868 0.47107985 0.48403241 0.49803202 0.51335995 0.52772879 0.54090234 0.55352776 0.56529979 0.57588496 0.58587488 0.59375932 0.60057418 0.60576735 0.61054866 0.61408688 0.61734575 0.6215338 0.62443582 0.62787222 0.63029491 0.63414376 0.63884003 0.64436748 0.64942643 0.6541327 0.65948464 0.66525219 0.66962855 0.67351906 0.67791569 0.68359948 0.69104688 0.69982732 0.70773908 0.71310592 0.71786787 0.72276653 0.72849811 0.73425475 0.73893885 0.74303902 0.74592181 0.74796689 0.74940135 0.75007566 0.75034031 0.75096369 0.75275028 0.75245901 0.74880788 0.74124216 0.732689 0.72609787 0.71908772 0.71153615 0.70379312 0.69804131 0.69326085 0.68848251 0.68474373 0.68161184 0.68060893 0.68007119 0.67913633 0.67713969
0.33980881 0.34221102 0.34457343 0.34624631 0.34789406 0.34986538 0.35282302 0.35404439 0.35565774 0.35777355 0.35897656 0.35972877 0.35960919 0.35972297 0.36153983 0.36350051 0.36513999 0.36570312 0.36769305 0.36896606 0.37111648 0.37181049 0.37338488 0.37575346 0.37753486 0.38048812 0.38358392 0.38709698 0.39061369 0.39357814 0.39740502 0.40035369 0.40363269 0.40592562 0.40785264 0.40895012 0.41055501 0.41306252 0.415409 0.41818092 0.42067499 0.42426289 0.4271141 0.43094727 0.43467911 0.43942856 0.44388162 0.4498613 0.45373604 0.45611295 0.45832305 0.46195731 0.46722861 0.47362037 0.47938596 0.48311035 0.48737963 0.49202004 0.49738065 0.50202756 0.506504 0.50967297 0.51060078 0.51226953 0.51188906 0.5125896 0.51558777 0.51973383 0.5238586 0.52534431 0.5249257 0.52444214 0.52413196 0.5241221 0.52298613 0.52355622 0.52477909 0.52727159 0.53151742 0.53608976 0.53885528 0.54061786 0.53990932 0.53729895 0.53251676 0.52676386 0.52281391 0.51880448 0.51857007 0.51919082 0.51979141 0.52087759 0.52130373 0.51948469 0.51392882 0.50831428 0.5038481 0.50330189 0.50090459 0.49791708 0.4940443 0.49187084 0.49081747 0.49129403 0.49188768 0.49235564 0.49217945 0.49179816 0.49108816 0.4902097 0.48627081 0.48204952 0.47622378 0.4728365 0.46911978 0.4695337 0.47362275 0.4798342 0.4867412 0.49304241 0.49715707 0.50361776 0.50758557 0.51227477 0.51388412 0.51380503 0.51139001 0.50879217 0.50565586 0.50387652 0.5030947 0.50216737 0.50340401 0.50461839 0.50621627 0.50729025 0.50754497 0.50886428 0.51112301 0.51387051 0.51428726 0.51129508 0.50593783 0.50178624 0.49746025 0.49395622 0.49137178 0.49037257 0.4909571 0.49067737 0.48786333 0.48528891 0.4840906 0.4871885 0.48918601 0.48850301 0.4848764 0.48008743 0.47664287 0.4749794 0.47413176 0.47324093 0.47194145 0.47070898 0.47083104 0.47164378 0.47354598 0.47573714 0.47669372 0.47552628 0.47299675 0.47052446 0.46743353 0.46502985 0.46333086 0.46142757 0.45897706 0.45592638 0.45303217 0.44891866 0.44478065 0.43974989 0.43580248 0.43100063 0.42854062 0.42588179 0.42519006 0.42516816 0.4250945 0.42388713 0.42332012 0.4242918 0.42431074 0.42209888 0.41987594 0.41616178 0.41232902 0.40758202 0.40691018 0.40585899 0.40656415 0.40912692 0.41354071 0.41798971 0.42111707 0.42360008 0.42538946 0.42930616 0.43316752 0.43904497 0.44598349 0.45299461 0.46256077 0.47524702 0.49000219 0.50470195 0.51895489 0.53184214 0.54508154 0.55676745 0.56757527 0.57768847 0.58571452 0.59285668 0.59856001 0.60333346 0.60764845 0.61145733 0.61627627 0.61958716 0.62320177 0.62597676 0.63021903 0.63502082 0.6406178 0.64590863 0.65068928 0.65623638 0.66218094 0.66739675 0.67219182 0.6770523 0.68339404 0.69102071 0.69987112 0.70752814 0.71208364 0.71600571 0.72107785 0.72781764 0.73434087 0.73908897 0.74326444 0.74692625 0.74994045 0.75140513 0.7515621 0.75148339 0.75198094 0.75337905 0.75253431 0.74920211 0.74193901 0.73383155 0.72724778 0.72095026 0.71400391 0.70731218 0.70178547 0.69719788 0.69236484 0.68769479 0.68348797 0.68167789 0.68098447 0.68064162 0.67870254
0.32502817 0.32559562 0.3276239 0.32929704 0.33132675 0.33337198 0.33645326 0.33854028 0.34083215 0.34204018 0.34427501 0.34430384 0.34316404 0.34502695 0.34580848 0.34847906 0.35134201 0.35251715 0.35467516 0.35646274 0.35847711 0.3597352 0.36029732 0.36283284 0.36570288 0.36819112 0.3714367 0.3754105 0.37867072 0.3814565 0.38443829 0.38739763 0.3904222 0.39312941 0.39461776 0.39575565 0.39756455 0.40092346 0.40385487 0.40602831 0.40861466 0.41264598 0.41543726 0.4192087 0.42296318 0.42734618 0.43224277 0.43800135 0.44198815 0.44435208 0.44759159 0.45112143 0.45792701 0.46396641 0.46954463 0.47479468 0.47947503 0.48425485 0.4886618 0.49377018 0.49805996 0.50179028 0.50157247 0.50186377 0.50136775 0.50308109 0.50593233 0.50837349 0.51100882 0.51130857 0.50983051 0.50908827 0.508272 0.50788997 0.50683943 0.50789943 0.51011645 0.51365341 0.51765225 0.52115739 0.52388123 0.5260969 0.5254779 0.52213396 0.51743896 0.5120232 0.50741911 0.50381604 0.5042143 0.50561163 0.50605716 0.50766006 0.50751183 0.50652723 0.50184882 0.4970843 0.49213759 0.4911545 0.48858785 0.48596171 0.48248526 0.4812961 0.4805307 0.48171806 0.48217043 0.48244559 0.48281933 0.48172529 0.48027945 0.47762355 0.47462545 0.46969299 0.46477731 0.46136964 0.45863491 0.45924509 0.46358134 0.46992525 0.47707817 0.48335424 0.48721266 0.49263663 0.49599967 0.50030008 0.50111763 0.50084889 0.49835121 0.49562049 0.4921996 0.49027325 0.48944932 0.4875462 0.48918563 0.49042621 0.49153822 0.49198472 0.4918018 0.49306782 0.49533987 0.49729499 0.49719954 0.49454455 0.48947393 0.48559183 0.4812155 0.47843001 0.47619694 0.47494117 0.47510095 0.47458753 0.47172507 0.46869286 0.46716395 0.46976149 0.47196302 0.4719033 0.46867551 0.46404757 0.46068288 0.45884257 0.45807845 0.45694909 0.45486457 0.45391563 0.45339663 0.45436843 0.45643641 0.45842942 0.45877157 0.45706642 0.45463078 0.45320721 0.45111277 0.44975724 0.44837026 0.44674423 0.44513494 0.44233648 0.43971507 0.43542506 0.43170989 0.42794598 0.42376122 0.41926575 0.41680499 0.41464594 0.41489861 0.41483736 0.41483581 0.41338732 0.41151841 0.41173086 0.41200673 0.41200068 0.41006523 0.40532782 0.40169379 0.39760933 0.3960504 0.39549064 0.39652826 0.39932019 0.40320026 0.40731078 0.41069719 0.41310986 0.41515096 0.41944704 0.42417047 0.42982538 0.43684228 0.44429384 0.45344731 0.46677775 0.48104878 0.49572608 0.51004678 0.52289448 0.53575432 0.54779507 0.55884371 0.56933373 0.5778187 0.58581266 0.59195615 0.59713655 0.60177518 0.60623981 0.61151791 0.61502953 0.61892624 0.62214216 0.62636362 0.6307461 0.63574293 0.6406881 0.64553227 0.65196691 0.65855396 0.66464059 0.66948749 0.67488423 0.68197555 0.69026991 0.6989813 0.70641831 0.71067474 0.71389778 0.71890753 0.72595734 0.73317741 0.73816355 0.74276357 0.7471944 0.75095252 0.75258515 0.7519494 0.75132876 0.75157394 0.75313124 0.75093975 0.74743852 0.74155335 0.73464929 0.72853104 0.72408614 0.7187082 0.71298487 0.70758721 0.70282898 0.69789853 0.69269248 0.68777199 0.68454542 0.68279512 0.68178609 0.6793111
0.30696714 0.30937606 0.31096894 0.31321695 0.31443153 0.31704864 0.32033555 0.32313325 0.32486795 0.32644318 0.32830325 0.32838325 0.32846967 0.33014222 0.33174361 0.33427414 0.33702651 0.33859841 0.34017266 0.34209731 0.34409334 0.34604341 0.34741409 0.34931567 0.35215968 0.35496231 0.35889724 0.36254734 0.36659017 0.36951457 0.37209492 0.37501419 0.37788452 0.3806974 0.3822725 0.38322316 0.38574144 0.38885891 0.39253424 0.39437526 0.39702176 0.40121209 0.40454936 0.40823235 0.4115694 0.41568712 0.4204052 0.42507988 0.42866334 0.43172588 0.43559618 0.44063545 0.44827305 0.45512226 0.46267274 0.46707354 0.47170936 0.47549036 0.48034802 0.48442196 0.48759049 0.49002758 0.48993233 0.49054615 0.4907095 0.49352322 0.49570655 0.49752525 0.49827708 0.49732692 0.49527286 0.4944148 0.49414267 0.49409902 0.49352581 0.49519712 0.49768865 0.50109386 0.50419728 0.50682754 0.50958177 0.51029387 0.50964752 0.50686319 0.50233357 0.49707754 0.49390513 0.49231221 0.49394046 0.49509178 0.49599782 0.49591554 0.49633993 0.49435768 0.49013302 0.48573767 0.48118434 0.47977617 0.47783055 0.4745066 0.47119845 0.47075467 0.470619 0.4716927 0.47221259 0.47260697 0.47278307 0.47116184 0.46914304 0.46536848 0.46155897 0.45734195 0.45276263 0.45004844 0.44844201 0.44879844 0.45426572 0.46108872 0.46830865 0.47409501 0.47728022 0.48044152 0.4840328 0.48762463 0.48784191 0.48726906 0.48483464 0.48197393 0.4784087 0.47620509 0.47486324 0.47330847 0.47422139 0.47531666 0.47611198 0.47593874 0.47563902 0.47707079 0.47900056 0.48014635 0.47931984 0.47684138 0.47294815 0.46899314 0.4648994 0.46224046 0.45998547 0.45887712 0.45926898 0.45895537 0.45596346 0.45309792 0.45147328 0.45418443 0.45605881 0.45586099 0.45355573 0.44942372 0.44569462 0.44346965 0.44235218 0.44100653 0.43929715 0.43770593 0.43712626 0.43765241 0.43959948 0.44078494 0.44046216 0.43829341 0.43589032 0.4348617 0.43404554 0.43396908 0.43310424 0.43161611 0.43010298 0.42739916 0.4252782 0.42122151 0.41771944 0.41377779 0.41072444 0.40817492 0.40618473 0.40394883 0.40377615 0.40314303 0.40258873 0.40113277 0.39908864 0.40078752 0.40126931 0.40212878 0.39948178 0.39640039 0.39135909 0.38684995 0.38574824 0.38463896 0.38659334 0.38927953 0.39282035 0.39702055 0.40015595 0.40233406 0.40487197 0.40926647 0.41475072 0.42085019 0.42829984 0.43595183 0.44556765 0.45811562 0.47237652 0.48726442 0.50176562 0.5141597 0.52695399 0.53912118 0.55040096 0.56137163 0.57063016 0.57909923 0.58603068 0.59149809 0.59622862 0.60091139 0.60682815 0.61093834 0.61537889 0.61856842 0.62290164 0.62646242 0.63066831 0.63538751 0.64038294 0.64742146 0.65451429 0.66118166 0.6666212 0.67268193 0.68077765 0.68880205 0.69713403 0.70464643 0.70892578 0.71210504 0.71702698 0.72410052 0.73118226 0.73684092 0.74150827 0.74686254 0.75174633 0.75443071 0.75342904 0.75209173 0.75169029 0.7531154 0.75045759 0.74708794 0.74269304 0.73703511 0.73177528 0.72931216 0.72546038 0.72047144 0.71487579 0.70981366 0.70515833 0.69981377 0.69456437 0.69010505 0.68688581 0.68431796 0.68066388
0.28991025 0.29324075 0.29505109 0.29715373 0.29850564 0.30197439 0.30473584 0.30660328 0.3082934 0.311079 0.31306066 0.31436293 0.3140066 0.31664553 0.31815475 0.31985523 0.32211048 0.32404434 0.32502804 0.32720241 0.32972901 0.3321699 0.33450764 0.33626259 0.33911485 0.34221498 0.3462634 0.35031223 0.35403777 0.35630738 0.35903798 0.36191562 0.36536793 0.36771455 0.37011122 0.37189117 0.37477273 0.37768322 0.3806746 0.3831339 0.38625739 0.39082902 0.39445846 0.39781927 0.40068009 0.40401704 0.4075371 0.41177144 0.41517823 0.41880186 0.42364008 0.43056492 0.43875312 0.44716505 0.45362219 0.45822973 0.46308964 0.46653992 0.46899347 0.47142389 0.47352315 0.47669399 0.47823289 0.47897564 0.48043923 0.48343848 0.48482024 0.48590075 0.4849385 0.48328926 0.48093878 0.4808063 0.48142192 0.48226416 0.48243035 0.4845998 0.48704706 0.48985863 0.49141702 0.49266634 0.49411435 0.49436887 0.49418383 0.49167683 0.48796079 0.48351622 0.48201047 0.48175014 0.48414417 0.48558766 0.48712534 0.4872591 0.48671829 0.48407685 0.47942742 0.47543193 0.47136001 0.47036741 0.46723192 0.46378423 0.46044586 0.46056275 0.46135297 0.46228175 0.46238283 0.46262067 0.46227877 0.46030086 0.45733072 0.45321438 0.44870829 0.44504834 0.44173248 0.43943693 0.43821121 0.43988178 0.44521179 0.45285569 0.45958997 0.46428782 0.46645251 0.46833633 0.47145774 0.473694 0.47424547 0.47334606 0.47145063 0.46867482 0.46517415 0.46243862 0.46086641 0.45937896 0.45991118 0.46067647 0.46085429 0.4601311 0.46026433 0.46147424 0.46283833 0.46329064 0.46147073 0.45928998 0.45615845 0.45249653 0.448689 0.44606097 0.44364946 0.44309144 0.44337694 0.44282015 0.43996904 0.43745508 0.43690107 0.43914759 0.44084908 0.44038865 0.43797144 0.43391775 0.43067681 0.42777726 0.42662236 0.42517842 0.42306403 0.42200844 0.4206478 0.42097178 0.42260743 0.42312096 0.42208665 0.41950624 0.41806675 0.41754534 0.41727324 0.41767192 0.41696226 0.41553572 0.41423255 0.41231584 0.4105679 0.40665708 0.40257486 0.39922834 0.39791804 0.39684291 0.39575799 0.39356725 0.39184271 0.3907298 0.39028388 0.38916005 0.38686087 0.3876123 0.38892716 0.39045578 0.38948838 0.38659775 0.38130948 0.3776665 0.37582443 0.37516641 0.37627724 0.37992579 0.38299859 0.38710224 0.39017246 0.39251771 0.39570552 0.40046712 0.40587146 0.41246983 0.42012303 0.42865322 0.43756859 0.44965458 0.46402372 0.47911195 0.49339157 0.50575522 0.51860113 0.53083929 0.54248664 0.55410521 0.56365775 0.57260101 0.58019553 0.58616919 0.59133581 0.59635939 0.60306417 0.6075427 0.61209769 0.61515959 0.61911532 0.6223098 0.62639429 0.63084929 0.63585814 0.64302662 0.65075676 0.65766196 0.6636948 0.6699756 0.67874236 0.68620055 0.69443195 0.70196218 0.70713014 0.71148517 0.71637237 0.72364605 0.73030168 0.7368882 0.7421132 0.74809401 0.75346815 0.75695039 0.75601996 0.7536172 0.75220421 0.75325455 0.75099726 0.7478384 0.74443929 0.74028855 0.73604947 0.73479623 0.73248614 0.72831078 0.72307693 0.71804044 0.71418658 0.70904114 0.70403797 0.69875164 0.69370822 0.6886023 0.68303032
0.274864 0.27646311 0.27809468 0.28102975 0.28256588 0.28524651 0.28856563 0.29066022 0.29299041 0.29568612 0.29776362 0.29998756 0.30055015 0.30254814 0.30466865 0.30635004 0.30858844 0.30948168 0.31128165 0.31293943 0.31599698 0.31835037 0.32097705 0.32356667 0.32601566 0.32957937 0.33384391 0.337979 0.34106982 0.34364436 0.34610648 0.34909068 0.35175405 0.35464134 0.35734596 0.36000728 0.36371345 0.36684554 0.36979097 0.37297371 0.37638335 0.3807146 0.38423156 0.38741511 0.38990583 0.39261547 0.39553401 0.39951899 0.4028034 0.40677658 0.41272787 0.419909 0.42844101 0.43727955 0.44384339 0.44835495 0.45337272 0.45545674 0.45635583 0.4581134 0.45957396 0.46236725 0.46427015 0.46694882 0.46961684 0.47302528 0.47390045 0.4740519 0.47106587 0.46857193 0.46684307 0.46793762 0.46937732 0.47076446 0.47146062 0.47402395 0.47605418 0.47809233 0.47824017 0.47811959 0.47836105 0.47851 0.47857577 0.47644764 0.47365107 0.4707383 0.47115452 0.47168706 0.47363405 0.47542427 0.47711243 0.4774865 0.47603559 0.47246277 0.46783322 0.46481796 0.4618341 0.46000638 0.4567853 0.45374547 0.45052276 0.4500424 0.45137371 0.45199799 0.4519135 0.45162668 0.4508251 0.44890998 0.44599711 0.44219363 0.43798371 0.43506355 0.43219636 0.43033818 0.42963907 0.43155706 0.43705828 0.44458433 0.45074133 0.45461961 0.45563043 0.45677129 0.45902078 0.46023591 0.46046108 0.45936627 0.45761108 0.45575471 0.45201045 0.45004571 0.44815718 0.44675036 0.44673844 0.4468702 0.44667557 0.44626544 0.44649908 0.44705979 0.44740379 0.44590277 0.44406818 0.44194167 0.43888876 0.43562569 0.43284141 0.43068417 0.4287955 0.42829595 0.42759306 0.42650642 0.42433756 0.42226334 0.42130712 0.42355298 0.42483532 0.42498891 0.42330463 0.41991681 0.41638885 0.41363117 0.41191321 0.41021954 0.40859004 0.40665186 0.4061273 0.40580319 0.40671892 0.40629166 0.40495548 0.40264213 0.40154491 0.40128758 0.40088869 0.40173538 0.40111181 0.39976351 0.39905084 0.39819195 0.3962852 0.3929045 0.38860546 0.38595787 0.38631022 0.38512401 0.38460498 0.3826372 0.38055367 0.37971762 0.37851115 0.3755114 0.37315043 0.37271929 0.37495192 0.37660731 0.37775644 0.37596122 0.37186901 0.36770092 0.36547629 0.36452294 0.36695551 0.36985749 0.37358196 0.37810313 0.3812913 0.38418003 0.38756172 0.39207566 0.39782404 0.4050986 0.41313027 0.42124456 0.43011497 0.44222344 0.45651543 0.47128702 0.48553704 0.49791146 0.51069624 0.52284783 0.53471171 0.54648816 0.55650443 0.56590377 0.57411696 0.58069368 0.58656963 0.59185244 0.59872648 0.60341228 0.60793319 0.61099856 0.61480818 0.61769235 0.62189408 0.62660977 0.63200664 0.63941001 0.64735264 0.65432256 0.66048848 0.66714538 0.67669517 0.68453757 0.69273537 0.69981922 0.70568613 0.7108621 0.71637618 0.72398577 0.73038289 0.73698447 0.7428337 0.74897855 0.75396576 0.75732057 0.75597107 0.75279996 0.75097128 0.75123605 0.74987169 0.7476963 0.7449867 0.74198492 0.73866787 0.73735153 0.73525049 0.73191345 0.7276598 0.72313472 0.71999129 0.71571707 0.71184941 0.70710354 0.70143421 0.69486464 0.68855666
0.25922453 0.26016891 0.26255353 0.26587591 0.2679849 0.27087311 0.2722291 0.27543072 0.2771533 0.28084638 0.28310006 0.2860948 0.28784395 0.28949469 0.29183823 0.29304132 0.29459581 0.29582158 0.29686718 0.29930624 0.30173418 0.30405185 0.3077561 0.31031478 0.31318387 0.31714225 0.32079865 0.32474073 0.32848709 0.33107154 0.33319808 0.33603757 0.33851308 0.34115222 0.34466486 0.34834298 0.35234354 0.35539151 0.35840815 0.36180312 0.36548929 0.36979352 0.37272588 0.37586777 0.3782968 0.38120674 0.38365283 0.38699814 0.39036859 0.39526306 0.4021139 0.41025081 0.41868295 0.42665919 0.43265032 0.43764542 0.44112424 0.44247657 0.44347066 0.44452468 0.44595191 0.44878112 0.45135799 0.45472705 0.45771955 0.46050202 0.46105139 0.46073946 0.45714401 0.45454761 0.45380695 0.45599769 0.45811615 0.4597047 0.46089795 0.46330154 0.46448215 0.46472034 0.46382635 0.46367743 0.46278416 0.46283928 0.46285268 0.46164227 0.45966748 0.45928256 0.46082571 0.46174274 0.46304992 0.46480812 0.46662886 0.46647783 0.46420291 0.4603589 0.45562099 0.45299435 0.45057654 0.44925101 0.44676954 0.44429175 0.44118543 0.44014461 0.44089123 0.44147298 0.44114463 0.44056533 0.43924169 0.43736344 0.43455153 0.43135409 0.42768955 0.4254424 0.42304402 0.42144423 0.42126605 0.42330411 0.42871004 0.43559869 0.44107746 0.44378527 0.44424952 0.444586 0.44614577 0.44671937 0.44688547 0.44565149 0.44436174 0.44252623 0.43982377 0.43818381 0.43668471 0.43510067 0.4343597 0.43370491 0.43326527 0.4336284 0.43400079 0.4341374 0.43313834 0.42994495 0.42765706 0.42540355 0.42288204 0.41957122 0.41696873 0.41510359 0.41345481 0.41293715 0.41191087 0.41087277 0.40963687 0.40835771 0.40779061 0.40948588 0.41062041 0.41074811 0.40912766 0.4060421 0.40263793 0.39972736 0.39664465 0.39486269 0.3937422 0.39262707 0.39131449 0.39001406 0.38984585 0.38882899 0.3878851 0.38636656 0.38621176 0.38614177 0.38557528 0.38659514 0.38658764 0.38558492 0.38493135 0.38413933 0.38241532 0.37943773 0.37602475 0.37464759 0.37466321 0.37461255 0.3737989 0.37185828 0.36917475 0.36760327 0.36508872 0.36156108 0.35985866 0.35967997 0.36124093 0.36445218 0.3668483 0.36616048 0.3617308 0.35714804 0.35566434 0.3552852 0.35727622 0.36049595 0.36440626 0.36885107 0.37423331 0.37619583 0.37960318 0.38435653 0.39014678 0.39723862 0.40641377 0.41504504 0.42501692 0.43614596 0.44932273 0.46361772 0.47791974 0.49054352 0.50369765 0.51553358 0.5282866 0.53928423 0.54947886 0.55910953 0.56765081 0.5748732 0.58141483 0.58715354 0.59409731 0.59896345 0.60340933 0.6064326 0.60994383 0.61271663 0.61736433 0.62309161 0.62948627 0.63694273 0.64448934 0.65141459 0.65781621 0.66499875 0.6748735 0.68338255 0.69130762 0.69839834 0.70481049 0.71089472 0.71722921 0.72504481 0.73111236 0.7372155 0.74332172 0.74908479 0.75257294 0.75457939 0.75231835 0.74899266 0.74697635 0.74691587 0.74614175 0.7450741 0.74375102 0.74193767 0.73922207 0.7377809 0.73566137 0.73323028 0.73042401 0.72699467 0.72495211 0.72196417 0.71912073 0.71527971 0.70978772 0.70296175 0.69588944
0.24323048 0.24513826 0.24761769 0.24973261 0.25329203 0.2556784 0.25724062 0.25983175 0.26248646 0.26576683 0.26879489 0.27149328 0.27349269 0.27542904 0.27791416 0.27896682 0.2807235 0.28137996 0.28343334 0.28536489 0.28775718 0.29020404 0.29381514 0.29677939 0.30057208 0.30413579 0.30796465 0.31110196 0.31407801 0.31757758 0.31996252 0.32270413 0.32575425 0.32889222 0.33269973 0.33661412 0.34050144 0.34359199 0.34625669 0.34982964 0.35340228 0.35787603 0.36080528 0.36359898 0.36616641 0.36948846 0.37208214 0.3752832 0.37883976 0.38413807 0.39185236 0.40115608 0.40929522 0.41611282 0.42221811 0.42572027 0.42831162 0.42915676 0.42966821 0.43101373 0.43336189 0.4369265 0.43998622 0.44333242 0.44591665 0.44759402 0.44813506 0.44726493 0.44388963 0.44160734 0.44175328 0.44450551 0.44715744 0.44908203 0.45071153 0.45236932 0.45263225 0.45227561 0.4512638 0.45048404 0.44965538 0.44953209 0.44900833 0.44736625 0.44710761 0.44837369 0.44957977 0.45051355 0.45136441 0.45277919 0.45388989 0.45324492 0.45071928 0.4469363 0.44297267 0.44087734 0.43960902 0.43874854 0.43723529 0.43535275 0.43254555 0.43141653 0.43163417 0.43171348 0.43091094 0.42999286 0.42842147 0.42569618 0.42270004 0.42002111 0.41734689 0.41608886 0.41480453 0.4138092 0.41392062 0.41561271 0.42036189 0.42666053 0.4311728 0.43299995 0.43302684 0.4328074 0.43376455 0.43351522 0.43371902 0.43270469 0.43167528 0.43007746 0.42810793 0.42642606 0.42513806 0.42313184 0.42234626 0.42104061 0.42072206 0.42164923 0.42150593 0.4206489 0.41736217 0.41401565 0.41159603 0.40948498 0.40711448 0.40397173 0.4016459 0.40023615 0.39911041 0.3981592 0.39670484 0.39630523 0.39587894 0.39463106 0.39426266 0.39570195 0.3966329 0.39698367 0.39520639 0.39191644 0.38794615 0.38448527 0.38243003 0.38105746 0.38026704 0.3787165 0.37721779 0.37591223 0.37518456 0.37360889 0.37265276 0.37152248 0.37131218 0.37135447 0.37106016 0.3719797 0.37144774 0.37160691 0.37094198 0.36997021 0.36837163 0.36611083 0.36418216 0.36244441 0.3632944 0.36208833 0.36092375 0.35892738 0.35712643 0.35430583 0.35174331 0.34900537 0.34778343 0.34880859 0.35069154 0.35356666 0.35634219 0.35615335 0.35244043 0.34744877 0.34496207 0.34466131 0.34678163 0.35050255 0.35495391 0.35963213 0.36497214 0.36905383 0.37291075 0.37770021 0.38348828 0.39025741 0.39986585 0.40968704 0.41941379 0.43037895 0.44264269 0.45598147 0.47012057 0.48292266 0.49730191 0.50879335 0.52049476 0.53243802 0.54244819 0.55202428 0.56096769 0.56851955 0.57544877 0.58151723 0.58867909 0.59373253 0.59815939 0.60132086 0.60492082 0.60800049 0.61357586 0.62056298 0.62767625 0.63525881 0.64274822 0.64993617 0.65665111 0.66435912 0.67427879 0.68314368 0.69136476 0.69855686 0.70430423 0.71017377 0.71629947 0.72386603 0.72918948 0.73496791 0.74075653 0.74556393 0.74732224 0.74771595 0.74531404 0.74301895 0.74172498 0.74163127 0.74052542 0.7399741 0.73978915 0.7388279 0.73688537 0.73597848 0.73329465 0.73174747 0.73038294 0.72811549 0.72754066 0.7256727 0.72371389 0.71975719 0.71444448 0.70800059 0.70146633
0.22711788 0.22982556 0.23218808 0.23482414 0.23823244 0.24011599 0.24250601 0.24523432 0.24761536 0.25139873 0.25415883 0.25642481 0.25859915 0.26096801 0.26368363 0.26468396 0.26621469 0.26777937 0.26933678 0.27125648 0.27391721 0.27687005 0.28001939 0.28379262 0.28735662 0.29083947 0.29468429 0.29754421 0.30101139 0.30383755 0.3067062 0.30943451 0.31292139 0.31616574 0.3199787 0.32455121 0.32842235 0.33184516 0.33486394 0.33791234 0.34116197 0.34567914 0.3489101 0.3520694 0.35498594 0.35844112 0.36143812 0.36447942 0.36839156 0.37446826 0.38236491 0.3916077 0.39944988 0.40552508 0.41043003 0.413955 0.41562544 0.41643062 0.41714916 0.419209 0.42222811 0.42612594 0.42982862 0.43383637 0.43609543 0.43671704 0.43644157 0.43556776 0.43342554 0.43157809 0.43241875 0.4337396 0.43623002 0.43781111 0.43931274 0.44008881 0.44006569 0.43924671 0.43806713 0.43737944 0.43796879 0.4378343 0.43719489 0.43564933 0.4356624 0.4367664 0.43830214 0.43943696 0.44038782 0.4415736 0.44165629 0.4404551 0.43784859 0.43467995 0.43099892 0.42941627 0.42824716 0.42826503 0.42775312 0.42652875 0.42457577 0.42379665 0.4228852 0.42262073 0.42178838 0.42160458 0.41911293 0.41611477 0.41270756 0.41025086 0.4081261 0.40721019 0.40673713 0.40623185 0.40641445 0.40764304 0.41158558 0.41706 0.42073392 0.42206996 0.42236618 0.42187775 0.42225323 0.42112105 0.42144115 0.42060422 0.41980558 0.41857747 0.41649807 0.41483396 0.41324225 0.41083367 0.409559 0.40857627 0.40836501 0.40905092 0.40846268 0.40700359 0.40252028 0.39870298 0.39634359 0.39438425 0.39163017 0.38881059 0.38711384 0.38632093 0.38562123 0.38424688 0.38258988 0.38194184 0.38149422 0.38058428 0.37918829 0.38042822 0.38157501 0.38264347 0.38129223 0.3780497 0.37417283 0.37062055 0.36861131 0.36694035 0.36600795 0.36458037 0.36296438 0.36175577 0.36101269 0.36003756 0.35930926 0.35836672 0.35773356 0.35740047 0.35693616 0.35771874 0.35720904 0.35787072 0.35758125 0.35641534 0.35442277 0.35264463 0.3523706 0.35082695 0.35024737 0.34858961 0.34746461 0.346099 0.343976 0.34105398 0.34014914 0.33793645 0.337652 0.33879961 0.34117948 0.344174 0.34643977 0.34626206 0.34235166 0.33741536 0.33488507 0.33470935 0.33669038 0.34081635 0.34567343 0.35034812 0.35622779 0.36066517 0.36625563 0.37205966 0.37746322 0.38445133 0.39314135 0.4035053 0.41314595 0.42397204 0.43559613 0.44828194 0.46331181 0.4760159 0.48946302 0.50103372 0.51243096 0.52444466 0.53495894 0.54514277 0.55476723 0.56258017 0.56978658 0.57603599 0.58334612 0.58837363 0.59269698 0.59590465 0.59972142 0.60331663 0.60968487 0.61784347 0.62567336 0.63392607 0.64178403 0.64929261 0.65628486 0.6642265 0.67416333 0.68330816 0.69151356 0.69850361 0.70436553 0.7093955 0.7144154 0.72061377 0.72491126 0.72977999 0.73496133 0.73869896 0.73965307 0.7392714 0.73720577 0.73615928 0.73568841 0.73627978 0.73441483 0.73398287 0.73411496 0.73381479 0.7324349 0.73220209 0.72999832 0.72957824 0.72932104 0.72823627 0.72846855 0.7273393 0.72580592 0.72161221 0.71653594 0.71116806 0.70631399
0.2124725 0.21480312 0.21770679 0.2200977 0.22321057 0.22573939 0.22873589 0.23073582 0.23428912 0.23723106 0.24035387 0.24252132 0.24527932 0.24715922 0.24912053 0.25051703 0.2522887 0.25371521 0.25590931 0.25807615 0.2602278 0.26374173 0.2667094 0.27016553 0.27417329 0.27801932 0.28111979 0.28449472 0.28780026 0.2905332 0.29375362 0.29650934 0.30037408 0.30415153 0.30820764 0.31296486 0.31727703 0.32064124 0.32371094 0.32669731 0.32978931 0.33395964 0.33753038 0.34095639 0.34441676 0.34800136 0.35081004 0.35526254 0.35987481 0.36622086 0.37375501 0.3822461 0.38915076 0.39456707 0.3987639 0.40203425 0.40341325 0.40421034 0.40555924 0.40850668 0.4123584 0.41647665 0.4206646 0.4235196 0.42522848 0.42535554 0.42483524 0.42402223 0.42175906 0.42086407 0.42154216 0.42378761 0.42558023 0.42693425 0.42811288 0.42863829 0.42839432 0.42713185 0.4261766 0.42730323 0.42709633 0.42690177 0.42606653 0.42476212 0.42492513 0.42558098 0.42693401 0.42808593 0.42927499 0.42969277 0.42942223 0.42783578 0.42509092 0.42186754 0.41895507 0.41790925 0.41735661 0.41795765 0.41817049 0.41790411 0.41676575 0.41553539 0.41457418 0.41398511 0.41420136 0.41246766 0.41012098 0.40696773 0.40341876 0.40100521 0.39928492 0.39830785 0.39818153 0.39833811 0.39859715 0.3995419 0.40275518 0.40762072 0.41071999 0.41175862 0.4122371 0.41148792 0.41118731 0.40943312 0.41021571 0.4099672 0.40904797 0.40769227 0.40594186 0.4039664 0.40155821 0.39830798 0.39661559 0.39602721 0.39584738 0.39593298 0.39456387 0.39162356 0.38715497 0.38340308 0.38087988 0.37888952 0.37626463 0.37385685 0.37250248 0.37199351 0.37141421 0.36959023 0.36816364 0.36714992 0.36636051 0.36528007 0.36414036 0.36424744 0.36544249 0.36675389 0.36663735 0.3641679 0.36089663 0.35783763 0.35602969 0.35389563 0.35266277 0.35111783 0.34951281 0.34797672 0.34734088 0.34614139 0.34543 0.34480751 0.34380062 0.34345729 0.34352318 0.34429753 0.34408022 0.3446658 0.34438564 0.34290044 0.34074494 0.33908895 0.33903871 0.33745158 0.33673699 0.33504594 0.3345145 0.33319821 0.33129458 0.32924067 0.32820943 0.32706687 0.32738667 0.32900342 0.33170606 0.33425324 0.33591477 0.33554533 0.33227498 0.32794425 0.32608409 0.32562506 0.32778414 0.33213513 0.33732674 0.3422471 0.34769378 0.35388767 0.36035694 0.36689191 0.37196189 0.37828023 0.38589989 0.39609458 0.40589384 0.41736641 0.42892182 0.44122393 0.45543557 0.46822963 0.48166682 0.49347892 0.50516395 0.51697459 0.52801636 0.5388506 0.54928036 0.5577992 0.56569332 0.57219148 0.5794091 0.58389633 0.58771435 0.59086462 0.59487526 0.59907596 0.60604924 0.61490062 0.62354008 0.63288411 0.6416397 0.64991481 0.65740192 0.66525678 0.67471454 0.68258495 0.68971298 0.69583132 0.70104503 0.70513158 0.70886787 0.71338349 0.71667863 0.72118668 0.72649353 0.73027218 0.73154775 0.73148513 0.73062275 0.73031416 0.73051543 0.73183243 0.72947654 0.72904769 0.72912982 0.72948596 0.72835335 0.72854567 0.72694359 0.727178 0.72765805 0.72696465 0.72735285 0.72624236 0.72498991 0.72056787 0.71559933 0.71137015 0.70804654
0.19790918 0.20057512 0.20269755 0.20518283 0.20887703 0.21165041 0.21428662 0.21726053 0.22038693 0.22279602 0.22601101 0.22871791 0.23157043 0.23282154 0.23520196 0.23681248 0.23829319 0.24011486 0.24209949 0.24452695 0.24733317 0.25078087 0.25401422 0.25747656 0.26101133 0.26486203 0.26813535 0.27143914 0.2749147 0.27785424 0.2809092 0.28395231 0.2876633 0.29205189 0.29648487 0.30125314 0.30609984 0.30957392 0.3127475 0.31597244 0.31902019 0.32326758 0.32700029 0.33064219 0.33458027 0.33832212 0.34174972 0.34654259 0.35128567 0.35722152 0.36390119 0.37166916 0.37831096 0.38285054 0.38649255 0.38991267 0.39135185 0.39286384 0.39516628 0.39888761 0.40306821 0.40735187 0.41036164 0.41270694 0.41429859 0.41413963 0.41340551 0.41215367 0.41009289 0.41004371 0.41097278 0.41290677 0.41471573 0.41496962 0.41581471 0.41586756 0.41584667 0.41515015 0.41592271 0.41579773 0.41585759 0.41560915 0.41450895 0.414101 0.4140272 0.41507376 0.41598455 0.41682492 0.41779017 0.41825312 0.41777414 0.41591621 0.41317021 0.4100688 0.40775358 0.40666771 0.40667083 0.40767418 0.40863993 0.40844126 0.40743702 0.40624611 0.40495515 0.40318914 0.40425965 0.40290284 0.40096693 0.39833368 0.39532416 0.3933834 0.3920486 0.39126402 0.39119512 0.39097062 0.39092409 0.39114223 0.39365049 0.39790538 0.40050756 0.40151858 0.40207549 0.40121973 0.40045031 0.39896719 0.39984575 0.39984469 0.39881406 0.39761139 0.39561333 0.39331532 0.39007071 0.38632083 0.38431662 0.38355222 0.38285647 0.38178765 0.38057705 0.37672783 0.3724011 0.36896543 0.36622313 0.3641816 0.36131474 0.35976379 0.35851078 0.35770842 0.35658861 0.35472822 0.35331793 0.35236565 0.35108064 0.35004538 0.34932402 0.34974766 0.35020586 0.35178119 0.3516119 0.35013322 0.34755768 0.34505194 0.34342743 0.34110408 0.33904356 0.33718544 0.33553643 0.33378408 0.33270411 0.33181556 0.33121484 0.33098708 0.33000815 0.33043111 0.33021234 0.33090466 0.33102843 0.33173179 0.33099598 0.32920594 0.32713263 0.32587218 0.32563047 0.32352145 0.32254636 0.32200557 0.32137271 0.3211639 0.3196764 0.31714257 0.31671337 0.31622567 0.31767513 0.31956879 0.3219953 0.32411769 0.3250594 0.3247189 0.32257124 0.31865894 0.31677123 0.31697505 0.3195712 0.32398682 0.3291735 0.33468275 0.34042484 0.34694742 0.35362723 0.36047431 0.36574412 0.37258765 0.37992525 0.38833901 0.39789048 0.40905311 0.42136035 0.43418992 0.44810245 0.46138585 0.47450241 0.48646899 0.49806247 0.51050483 0.52299666 0.53367101 0.54456582 0.55344643 0.562061 0.56924176 0.57648862 0.58059162 0.58350232 0.58620222 0.58981818 0.59436272 0.60165961 0.61115701 0.62077583 0.63149725 0.64143995 0.65031898 0.65759343 0.66440652 0.67287986 0.67934051 0.68536721 0.69077966 0.69478798 0.69850407 0.70180467 0.70615845 0.70909946 0.71313261 0.71787131 0.72134722 0.72365278 0.72529158 0.72603452 0.72638514 0.72685375 0.7286392 0.72680183 0.72693714 0.72708976 0.72659448 0.72497135 0.72608557 0.72573625 0.72663708 0.72764235 0.72703448 0.72689868 0.72468172 0.7229729 0.71852815 0.71348379 0.70956835 0.70683474
0.18384859 0.1856505 0.18803413 0.19094724 0.19459025 0.19687476 0.20022507 0.20345597 0.20660094 0.20927867 0.21196309 0.21457326 0.21712489 0.21918743 0.22091991 0.22290062 0.22538459 0.22711845 0.22987013 0.23239813 0.23516746 0.23793359 0.24142004 0.24463555 0.24801566 0.25194537 0.25498325 0.25838861 0.26192297 0.26529436 0.2687943 0.27215533 0.27614423 0.28054701 0.28542108 0.29035231 0.29477143 0.29849759 0.30174995 0.30517975 0.30831913 0.31282165 0.31685988 0.32078248 0.3247163 0.3287285 0.33233487 0.33754205 0.34264701 0.34810199 0.35380953 0.36065853 0.36695598 0.37124468 0.37434832 0.37804584 0.37963953 0.38203485 0.38523338 0.38937848 0.39317822 0.39611165 0.39853766 0.40140935 0.40316535 0.40306256 0.40204815 0.40035064 0.39865781 0.39931202 0.40054444 0.40284994 0.40392482 0.40412412 0.40442456 0.40437389 0.40385658 0.40478012 0.40556956 0.40573804 0.40538558 0.4048979 0.40330511 0.40301524 0.40315954 0.40368929 0.40437956 0.40507254 0.40585615 0.40617705 0.40578523 0.40405967 0.40193283 0.39952643 0.3974034 0.3965358 0.39692402 0.39847346 0.39898184 0.39843607 0.39726971 0.39586429 0.39429135 0.39480983 0.39437363 0.39303379 0.39142938 0.38936373 0.38709813 0.38543095 0.38449908 0.38413453 0.38420133 0.38400022 0.38347985 0.38297041 0.38473011 0.38852993 0.3906899 0.39168328 0.39219508 0.3909044 0.38989849 0.38867487 0.3896653 0.38972947 0.3885143 0.38702407 0.38512399 0.38262119 0.37901885 0.37523356 0.3727859 0.37138049 0.36865458 0.36818079 0.36674868 0.36271838 0.35856612 0.3552272 0.35269523 0.35067705 0.34783083 0.34642513 0.34519212 0.34407124 0.34193041 0.33932008 0.33757853 0.3371309 0.33614969 0.33509468 0.33467735 0.33467339 0.33516014 0.33654514 0.33702522 0.33594698 0.33379694 0.33078644 0.32866194 0.32631958 0.32442513 0.3224966 0.3208018 0.3195946 0.31834012 0.31771791 0.31732925 0.31751104 0.31656432 0.31680641 0.31726897 0.31806468 0.31846048 0.31842039 0.31727304 0.31528513 0.31414934 0.3132172 0.31251778 0.31085915 0.30971411 0.30992694 0.30967428 0.30998252 0.30863914 0.30674732 0.30589646 0.30642683 0.30806637 0.3097671 0.31175653 0.31315816 0.31381555 0.31364913 0.31199733 0.30940101 0.30840899 0.30949214 0.31196669 0.31593462 0.32096056 0.32656981 0.33251174 0.3387125 0.34540208 0.35240887 0.35880978 0.36516848 0.37211917 0.38041038 0.39019148 0.40121546 0.41418139 0.42712141 0.44178128 0.45472993 0.46792203 0.47946611 0.49113683 0.50443152 0.51663075 0.5276402 0.53942679 0.54870582 0.55700747 0.56403369 0.57152917 0.57562558 0.57867581 0.58127528 0.58471064 0.58963561 0.59710204 0.60697362 0.61715396 0.62886013 0.63989445 0.64925302 0.65651949 0.66223871 0.66935074 0.67383081 0.67823275 0.68296874 0.68675483 0.69073032 0.69512638 0.699847 0.70342952 0.70807218 0.71298059 0.71712713 0.71983642 0.72253517 0.72404915 0.72489602 0.72541731 0.72743591 0.72638327 0.72689767 0.72675322 0.72575955 0.72407688 0.72626078 0.72687587 0.72771655 0.72806021 0.72729545 0.72684199 0.72348382 0.72136857 0.71761306 0.71244282 0.70843105 0.70564748
0.16969355 0.1719466 0.17465741 0.17766324 0.18034006 0.18344786 0.18589996 0.18947373 0.19248619 0.1956146 0.19837125 0.20079962 0.20277816 0.20516042 0.20761799 0.20968588 0.21224688 0.21506843 0.21789962 0.22060597 0.22302454 0.22634234 0.22903206 0.23226285 0.23560759 0.23922847 0.24261056 0.24604213 0.24992699 0.25306587 0.25658185 0.26051071 0.26410979 0.26963021 0.27436003 0.27951456 0.28401777 0.28741626 0.29096906 0.29442407 0.29808845 0.30288733 0.30717015 0.31152356 0.31592682 0.32012809 0.3241868 0.33008623 0.33443473 0.33913277 0.3436047 0.34923215 0.35478021 0.35883204 0.36322962 0.36580768 0.36809915 0.37123224 0.37521044 0.37965848 0.38336272 0.38575806 0.38777621 0.38996738 0.39143571 0.39124618 0.39005595 0.38854126 0.38740665 0.38855277 0.39096079 0.3925895 0.39261507 0.39332405 0.39406338 0.39412851 0.39362635 0.39415728 0.39440043 0.39451075 0.39413942 0.39377569 0.39182094 0.39153246 0.3917329 0.39267474 0.39323305 0.39435687 0.39416692 0.39419869 0.39382078 0.39312246 0.39168853 0.38947144 0.38784359 0.38700703 0.38773983 0.38801272 0.38860509 0.38817473 0.38726452 0.38598937 0.38457587 0.38550287 0.3849382 0.38329476 0.380904 0.37993198 0.37767155 0.37728087 0.37684147 0.37675398 0.37715278 0.37707821 0.37637228 0.37502805 0.37592545 0.37893115 0.38083257 0.38176147 0.38189857 0.38078421 0.37960908 0.37941178 0.37949146 0.37958107 0.37804783 0.3763363 0.37386254 0.37138563 0.36785406 0.36434195 0.36148352 0.35948987 0.35626526 0.35480644 0.35313927 0.34950906 0.34577977 0.34251849 0.33999634 0.33795186 0.33470623 0.33323366 0.3317892 0.33041557 0.32787344 0.3251119 0.32279462 0.32210594 0.32130416 0.32093321 0.32008583 0.3196707 0.32030009 0.32182846 0.32245212 0.32146774 0.31882478 0.31601143 0.3138259 0.31076644 0.30893371 0.30739462 0.30615069 0.30520499 0.30498113 0.30448069 0.30440771 0.30353312 0.30364581 0.30324858 0.30390512 0.30487602 0.30518755 0.30477458 0.30355308 0.30218051 0.30155026 0.30067958 0.29995836 0.29808893 0.29682494 0.29778973 0.29953241 0.29972772 0.29802164 0.29616647 0.29640527 0.29713229 0.29880763 0.30021093 0.301359 0.30224587 0.30276835 0.30326276 0.30206617 0.30065103 0.3003886 0.30205803 0.30455892 0.30819773 0.31285873 0.31839439 0.32428124 0.33018903 0.33661301 0.34374438 0.35063843 0.35729056 0.36454767 0.37291916 0.3825319 0.39459809 0.40709731 0.4203903 0.43470006 0.44793756 0.46075355 0.47277397 0.48547263 0.49772382 0.51075956 0.52204942 0.53248415 0.54197414 0.55068041 0.55751248 0.56572811 0.56980015 0.57329389 0.57616284 0.58019932 0.58555685 0.59298398 0.60261715 0.61248476 0.62406574 0.635414 0.64510954 0.65296201 0.65847234 0.66428509 0.66696753 0.67068868 0.67562897 0.68026128 0.68497799 0.6899746 0.69579744 0.6998441 0.70472448 0.70987918 0.71467288 0.71774581 0.72093051 0.72254322 0.72371555 0.72414647 0.72625496 0.72573146 0.72629352 0.72578719 0.72489734 0.72379126 0.726754 0.72763092 0.72746045 0.72654893 0.72565255 0.72541673 0.72169598 0.71959488 0.71762279 0.71370854 0.71066655 0.70837262
0.15536315 0.15862713 0.16163175 0.1641066 0.1671066 0.16963042 0.17287213 0.17590962 0.17855704 0.18164136 0.1846819 0.1871919 0.18932321 0.19188261 0.19450851 0.19671578 0.19948259 0.20258457 0.20541497 0.20843103 0.21174394 0.21449977 0.21701122 0.22036269 0.22399895 0.22732075 0.23073973 0.2340195 0.23784772 0.24142548 0.24501762 0.24907423 0.25317272 0.25855109 0.2628424 0.26865084 0.27306027 0.27662208 0.28019152 0.28399653 0.28807421 0.29324614 0.29768008 0.30285856 0.3074305 0.31118422 0.31539204 0.32162516 0.32559 0.33006659 0.3341578 0.33872198 0.34344968 0.34696072 0.35138755 0.35443721 0.35732915 0.36110561 0.36527813 0.3695049 0.37299387 0.37523316 0.37694939 0.37854635 0.3792683 0.37881769 0.3779599 0.37717378 0.37715097 0.37832501 0.38133108 0.3819601 0.38231273 0.38310316 0.38520738 0.38517686 0.38458838 0.38396844 0.38355667 0.38352966 0.38314473 0.38236679 0.38099179 0.38040971 0.38056946 0.38143245 0.38247145 0.38288938 0.3829389 0.38270668 0.38244951 0.38205434 0.38082915 0.37919489 0.37807663 0.37752707 0.37800676 0.37848443 0.37868265 0.37824724 0.37696442 0.37592619 0.37479887 0.37547222 0.37461869 0.37316018 0.37104052 0.37092519 0.36945085 0.36947214 0.36925078 0.36923429 0.36980603 0.36995816 0.36916389 0.3674095 0.36768086 0.36969775 0.37134398 0.37218481 0.37226358 0.37117391 0.3703694 0.36959128 0.36961613 0.36894728 0.36753654 0.3652838 0.36288 0.36001923 0.3565127 0.35310555 0.35008432 0.34707683 0.34501513 0.34293565 0.34040292 0.33686682 0.33375255 0.3301999 0.32791167 0.32535404 0.32165618 0.31982349 0.31813711 0.31634767 0.31359255 0.3106141 0.30827256 0.30741394 0.30648562 0.30591295 0.30520383 0.30477644 0.30527595 0.30704943 0.30763749 0.30689121 0.30432044 0.30150588 0.29901438 0.29624998 0.29467572 0.29314601 0.29209164 0.29148006 0.29130344 0.29056894 0.290396 0.29019318 0.28963142 0.28992596 0.29074427 0.29176352 0.29192889 0.29141058 0.29057233 0.28961312 0.28893641 0.28834495 0.28732441 0.28645589 0.28636358 0.28723414 0.28875438 0.28953202 0.2884378 0.28704708 0.28769507 0.28808899 0.28958927 0.29008017 0.29066269 0.29110962 0.29209789 0.29249388 0.29185375 0.2915763 0.29214632 0.29414545 0.29690583 0.30032902 0.30465758 0.30969862 0.31549276 0.32121139 0.32793286 0.33529081 0.34236315 0.34920471 0.35722216 0.36577021 0.37623738 0.38764496 0.40007629 0.41355073 0.42705474 0.44033504 0.45328072 0.46542045 0.47778604 0.49118473 0.50329274 0.51418588 0.52458818 0.53373913 0.54178792 0.5491439 0.5579306 0.56282045 0.56729573 0.57130571 0.57667262 0.58284031 0.59047273 0.59971591 0.60885011 0.61928307 0.63003791 0.63928738 0.64761242 0.65314493 0.65848046 0.66043089 0.66421094 0.67006907 0.67543442 0.68054509 0.68601006 0.69275194 0.69793251 0.70339607 0.70875643 0.71371581 0.71684662 0.72011051 0.72159754 0.72264616 0.72279174 0.72472118 0.72450937 0.72503489 0.72437622 0.72349411 0.72275944 0.72519314 0.72545025 0.72478752 0.72277004 0.72109901 0.7208653 0.71785366 0.71629078 0.71573132 0.71404344 0.71254334 0.71076956
0.14174685 0.14511569 0.14820997 0.15135142 0.15476329 0.15703426 0.15997846 0.16237934 0.16545727 0.16816488 0.17148555 0.17400575 0.17730976 0.17915271 0.18161415 0.18416138 0.18690847 0.19047942 0.19359516 0.19663846 0.20000985 0.20288418 0.20546693 0.20847415 0.21262435 0.21599679 0.21951517 0.22301862 0.22649132 0.23032747 0.2342493 0.23822213 0.24219546 0.247238 0.2515314 0.25753778 0.26225592 0.26613147 0.26996302 0.27392276 0.27829617 0.28388685 0.28872011 0.29346464 0.29793307 0.30191436 0.30717265 0.31237725 0.31656135 0.32096436 0.32466957 0.3286565 0.33286851 0.33593842 0.34040318 0.34354982 0.34663916 0.35103844 0.35481398 0.35924556 0.36229778 0.36440481 0.36574788 0.36715672 0.3675572 0.3669442 0.36642897 0.36600582 0.36709768 0.36871419 0.37161611 0.37200004 0.37420216 0.37438395 0.37478569 0.37440931 0.37387961 0.37289966 0.37273828 0.3724943 0.37219644 0.37198363 0.37085858 0.37019821 0.37072233 0.37138763 0.37202432 0.37222818 0.37203935 0.37216637 0.37229567 0.37117125 0.36993892 0.36902697 0.3682958 0.36842842 0.36880936 0.36914497 0.36905438 0.36831172 0.36718508 0.36618274 0.36492621 0.36511889 0.36385433 0.36214995 0.36141633 0.36223673 0.36164203 0.36198244 0.36181427 0.36170976 0.36231888 0.36247396 0.36161625 0.35948544 0.3589765 0.3602672 0.3617045 0.36255067 0.36271937 0.36142439 0.36064403 0.35994435 0.36004674 0.35892374 0.35682768 0.35406771 0.35095749 0.34879457 0.34524842 0.34170461 0.3386049 0.33557353 0.33336594 0.33128162 0.32843377 0.32478593 0.32142337 0.31847551 0.31548803 0.31267269 0.30918855 0.30660538 0.30456453 0.30219567 0.29947984 0.29676832 0.29435352 0.29317602 0.29219483 0.29162855 0.29072905 0.29040245 0.2905882 0.29202586 0.29230135 0.29159381 0.28907081 0.28616474 0.28366918 0.28123495 0.28002816 0.27906865 0.27820646 0.2776377 0.27749352 0.27681755 0.27682357 0.27673227 0.2765533 0.27697486 0.277695 0.27856231 0.27856884 0.27822724 0.2780122 0.27717039 0.27666671 0.27582744 0.27515881 0.27492502 0.27562678 0.27638244 0.27963621 0.27939652 0.27822093 0.2773768 0.27821787 0.27900608 0.27984513 0.28011693 0.2800358 0.28089396 0.28169958 0.2818652 0.2816217 0.28174611 0.28295412 0.28576972 0.28873591 0.29228173 0.29625253 0.30104057 0.30669091 0.31261505 0.31974384 0.32701165 0.33416742 0.34121193 0.34995587 0.35937997 0.36916437 0.38074042 0.39322875 0.40673603 0.41926695 0.43198219 0.44485421 0.45733239 0.47048302 0.4833568 0.49503293 0.5060147 0.51626908 0.5259716 0.53383086 0.54138886 0.549323 0.55522143 0.56077296 0.56640516 0.57341633 0.58080767 0.58849143 0.59665252 0.60429917 0.61325433 0.62304573 0.63209404 0.64132541 0.64805765 0.65453935 0.65747782 0.66214037 0.66838227 0.67371678 0.67876579 0.68365707 0.69071741 0.69566827 0.70118272 0.70629808 0.71149367 0.71540489 0.71888014 0.72023608 0.72093553 0.72087488 0.72259432 0.72217746 0.72246641 0.72209674 0.72113293 0.72019462 0.72198968 0.72177364 0.72071467 0.71822283 0.71618275 0.71655434 0.71478895 0.7142958 0.71483109 0.71490197 0.71487167 0.71352102
0.12902072 0.13203606 0.13513056 0.13802397 0.14080688 0.14336073 0.14632157 0.14923571 0.15208835 0.15527322 0.15806382 0.16091933 0.16412676 0.16675214 0.16958912 0.17235543 0.17504089 0.17859813 0.18172314 0.1849773 0.1879607 0.1913627 0.19400561 0.19774083 0.20130112 0.20464455 0.20821546 0.21175322 0.21552911 0.21924568 0.22319146 0.22718401 0.23192933 0.23644383 0.24074259 0.24690441 0.25169485 0.25574379 0.25979807 0.26404696 0.26959868 0.27404357 0.27884519 0.28359544 0.28803049 0.29213706 0.2977621 0.30269346 0.30669301 0.31091338 0.31463729 0.31836833 0.32257977 0.32556687 0.33021584 0.33353875 0.33679365 0.34129063 0.3451939 0.34906283 0.35165238 0.3535927 0.35482734 0.35570116 0.35600021 0.35563505 0.35587163 0.35606277 0.35805929 0.36131372 0.36494413 0.36517415 0.36517046 0.36500369 0.36438569 0.36367918 0.36309177 0.36240156 0.36191617 0.36197488 0.36166454 0.36158995 0.36079774 0.36070086 0.3618063 0.36289611 0.36309785 0.36211465 0.36181244 0.36272267 0.36191115 0.36079203 0.35977938 0.35901238 0.35913496 0.35947737 0.36030734 0.36019666 0.35930036 0.35820358 0.35743023 0.35673482 0.35643184 0.35540956 0.35379589 0.35270711 0.35237151 0.35356643 0.35352137 0.35408479 0.35407618 0.35387251 0.35437899 0.35436184 0.3531064 0.35112576 0.35038699 0.35103122 0.35233774 0.35315809 0.35351281 0.35262323 0.35191451 0.35101241 0.3500665 0.34846225 0.34606273 0.34314864 0.33988616 0.33678804 0.33396808 0.33028857 0.32698155 0.3247997 0.32275144 0.32102653 0.31703472 0.31379995 0.3092425 0.30627702 0.3029573 0.29991537 0.29629681 0.29374972 0.29157857 0.28890279 0.28597767 0.28332277 0.2808904 0.27974538 0.27875632 0.27788451 0.27707472 0.27640378 0.27598369 0.27670629 0.27666398 0.27611125 0.2738386 0.27156062 0.26956017 0.26785362 0.26715511 0.26604659 0.26563737 0.26507294 0.2648636 0.26434089 0.26425075 0.26450005 0.26415478 0.26442794 0.26481055 0.26541129 0.2653397 0.26498152 0.26537209 0.26504648 0.26441047 0.26391746 0.2640341 0.26470465 0.26523833 0.26552259 0.26958948 0.26933676 0.26872969 0.2690561 0.26950039 0.26996684 0.27078008 0.27054214 0.27087367 0.27137573 0.27168803 0.27189378 0.27165843 0.2723551 0.27430209 0.27745162 0.28083327 0.2842664 0.28812929 0.29261169 0.29830199 0.30461443 0.31173794 0.3186511 0.32578312 0.3329222 0.34301685 0.35168089 0.3618052 0.37348253 0.38618634 0.3992177 0.41171507 0.42436719 0.43646045 0.44900859 0.46202535 0.47468898 0.48657788 0.49731853 0.50848649 0.51797606 0.52651696 0.53319979 0.54204371 0.54902654 0.55519958 0.56174185 0.56951397 0.57735341 0.58511769 0.5929869 0.60024139 0.60894184 0.61830453 0.62717261 0.63616533 0.64448964 0.65245909 0.65742726 0.66369953 0.66955541 0.6739844 0.67808385 0.68181059 0.6883602 0.69318638 0.69838891 0.70373115 0.70950602 0.71502283 0.71917122 0.72039619 0.71997201 0.71941133 0.72077593 0.72064499 0.72077714 0.72031468 0.71894874 0.71766422 0.71805491 0.71679457 0.71572177 0.71383614 0.71177417 0.71271115 0.71306308 0.7143841 0.71571862 0.71628128 0.71644805 0.71559055
0.11715425 0.11978788 0.12204042 0.12466454 0.12772263 0.13054631 0.13371506 0.13653098 0.13925137 0.14247479 0.14546352 0.1485536 0.15156352 0.15427505 0.15736444 0.16042535 0.16368346 0.16696515 0.17031154 0.17329135 0.17659 0.17970529 0.18309487 0.18664289 0.1901825 0.19364802 0.19726948 0.20094955 0.20493687 0.20854413 0.21236877 0.21640104 0.22118239 0.22553412 0.22985342 0.23463103 0.24020275 0.2455456 0.25039618 0.25541239 0.25978648 0.26420373 0.26886879 0.27360935 0.27807982 0.28254075 0.28839365 0.29326483 0.29724296 0.30127604 0.30480011 0.30821515 0.31160641 0.31576774 0.32040992 0.32341662 0.32690509 0.33114367 0.33489479 0.33865052 0.34104263 0.34281824 0.34337895 0.34387358 0.34510217 0.34499472 0.34583274 0.34748032 0.34905259 0.35311657 0.35563343 0.35564996 0.35547372 0.3549989 0.35412662 0.35318617 0.3524363 0.35203663 0.35176176 0.35215842 0.35225684 0.35197215 0.3511592 0.35202048 0.35316183 0.35353304 0.35503264 0.35504688 0.35488946 0.35462611 0.35381028 0.35139562 0.35027418 0.3502171 0.3505573 0.35118301 0.35148434 0.35092937 0.35004597 0.34859169 0.34789855 0.34753714 0.34709625 0.34625025 0.34478191 0.34393711 0.34331262 0.34420875 0.34574902 0.34641546 0.34661648 0.34658387 0.34677221 0.3465124 0.34512478 0.34307924 0.34203447 0.34214187 0.34396783 0.34462257 0.34478621 0.34395881 0.34327538 0.34225647 0.34085791 0.33874238 0.33578387 0.33243586 0.3289789 0.32570983 0.32215603 0.31893612 0.31617654 0.31531712 0.31264432 0.31013251 0.30576214 0.30213413 0.29812647 0.29415612 0.29116382 0.28794235 0.28417419 0.28167376 0.27917266 0.2763714 0.27359555 0.27077089 0.26821035 0.26680643 0.26536604 0.26425527 0.26298892 0.26205831 0.26132366 0.26188956 0.26174536 0.26192058 0.26017906 0.25810695 0.2563172 0.25526766 0.25473395 0.25435378 0.25294608 0.25248261 0.25251023 0.25223231 0.25269681 0.25251384 0.25286122 0.25297832 0.25299909 0.25322425 0.25304263 0.25294535 0.25322844 0.25287724 0.25256122 0.25274564 0.25297535 0.25562487 0.25765712 0.25820092 0.25839439 0.25856415 0.25847569 0.26000694 0.26117512 0.26109592 0.2612559 0.26177889 0.26210726 0.26246431 0.26296421 0.26308131 0.26277936 0.26399017 0.26620647 0.26964212 0.273016 0.27659084 0.28018994 0.28468296 0.29038212 0.29662875 0.30349799 0.31047757 0.31862438 0.32648641 0.33492224 0.34391759 0.35393139 0.36606889 0.37829322 0.39146046 0.40417075 0.41651175 0.42855318 0.44119048 0.45414524 0.46732894 0.47890155 0.4904096 0.5012985 0.51026088 0.51862483 0.52641874 0.53536934 0.54264189 0.54921151 0.55626272 0.56400322 0.57156929 0.57922179 0.58778324 0.59617131 0.60630137 0.61632604 0.625891 0.63413613 0.64213133 0.65139512 0.65874989 0.66616503 0.6718132 0.67521627 0.67781337 0.68030582 0.68635865 0.69109288 0.69671995 0.70195626 0.70833632 0.71544077 0.72086858 0.72282696 0.72168921 0.72025054 0.72081924 0.72124271 0.72130074 0.72082978 0.71879881 0.71713384 0.71685841 0.71566233 0.71459776 0.71266266 0.71096456 0.71236494 0.71356118 0.7149921 0.71589037 0.7168829 0.71704456 0.71655402
0.1052626 0.1077201 0.11013487 0.11247986 0.11535827 0.11841347 0.12088256 0.12391544 0.12707709 0.12989604 0.13332889 0.13622474 0.1393978 0.14255985 0.14567208 0.14883587 0.15228213 0.15568774 0.15897639 0.1623672 0.16572566 0.16887739 0.17233856 0.17595851 0.17950162 0.18285987 0.18664899 0.19051699 0.19432881 0.19809745 0.20221837 0.20626357 0.21072275 0.2152226 0.21954464 0.2242506 0.22963296 0.23461695 0.24091822 0.24520011 0.24994069 0.25437448 0.25919047 0.26382782 0.26829036 0.27297724 0.27901735 0.28392523 0.28800405 0.2920201 0.29560016 0.29909555 0.3026512 0.306072 0.30965593 0.31373008 0.31762043 0.32144337 0.32484384 0.32764002 0.32992343 0.33181472 0.33297738 0.33342977 0.33415257 0.33455126 0.33569209 0.33791157 0.33943152 0.34365062 0.34609961 0.34600165 0.34582901 0.34517849 0.34421217 0.34318363 0.3423352 0.34207834 0.34221409 0.34251622 0.34249085 0.34225185 0.34247805 0.34311373 0.34388107 0.34413997 0.3456079 0.34546895 0.34534058 0.34515006 0.34449001 0.34345211 0.34265627 0.34233204 0.34215721 0.34248178 0.34272036 0.34207557 0.34100087 0.33968181 0.33917163 0.33895926 0.33895581 0.33846226 0.33745565 0.33683876 0.33701238 0.33617419 0.33841227 0.33927847 0.33897324 0.33948765 0.3395147 0.33898921 0.33746359 0.33528141 0.33407316 0.33415562 0.33480755 0.33573884 0.33611333 0.33545418 0.33471943 0.33350727 0.33166802 0.32909859 0.32560319 0.32196516 0.31805103 0.31413277 0.31163442 0.30831882 0.30555845 0.30460783 0.30159619 0.29901757 0.29522369 0.29100821 0.28711532 0.28248337 0.27940093 0.27661907 0.27372903 0.26992559 0.26738336 0.26464497 0.26138217 0.25839365 0.25579679 0.25418961 0.25252505 0.25144217 0.24996153 0.24886109 0.24786552 0.248018 0.24787443 0.24828767 0.24694101 0.24517927 0.24381791 0.24302941 0.24305534 0.24284736 0.24263196 0.24215294 0.24206871 0.2410057 0.24127504 0.24092979 0.24117921 0.24126854 0.241139 0.24111473 0.24082929 0.24064296 0.24127106 0.24119932 0.24379106 0.24360258 0.24420778 0.24640514 0.24750693 0.24773095 0.24882832 0.24926691 0.24982546 0.25122483 0.25177716 0.25237871 0.25201217 0.25262951 0.25299642 0.25399798 0.25459849 0.25499698 0.25511569 0.25620137 0.25875843 0.26187262 0.26562967 0.2690379 0.27271241 0.27728615 0.28264411 0.28863889 0.29556204 0.30361663 0.31123118 0.31991545 0.32730487 0.33697674 0.34787416 0.35885115 0.37094361 0.38387675 0.39623517 0.40886175 0.42113341 0.43444021 0.44703663 0.45974257 0.47247657 0.48382009 0.49464994 0.50357312 0.51241728 0.52085471 0.53088609 0.53819357 0.54598931 0.55338925 0.56105158 0.56844079 0.57601875 0.58496932 0.59426925 0.60548492 0.61636312 0.62554764 0.63406006 0.6413983 0.65068886 0.65963907 0.66847073 0.67428057 0.67690238 0.6782321 0.67994693 0.685363 0.68994994 0.69628973 0.70217708 0.70947035 0.71797505 0.72453342 0.72736359 0.72641409 0.72402751 0.72364296 0.72410128 0.72407084 0.72245204 0.71994219 0.71815156 0.71801184 0.71670094 0.71540533 0.71401915 0.71297287 0.71447867 0.7156951 0.71679469 0.71749129 0.71836671 0.7181467 0.71735842
0.09398726 0.09635587 0.098842327 0.10123604 0.10363561 0.10654098 0.1094221 0.11264281 0.11567836 0.11858794 0.1216934 0.12507147 0.12814614 0.13135552 0.13468441 0.13783937 0.1414249 0.14457579 0.14813112 0.15145415 0.15527583 0.15823126 0.16167711 0.16530601 0.16921042 0.17276142 0.17643927 0.18032616 0.1840898 0.18794747 0.19251907 0.19666178 0.20073114 0.20528508 0.20974295 0.21443118 0.21991218 0.22509696 0.23101586 0.23568672 0.24012932 0.24491716 0.24980332 0.25449068 0.25909641 0.2636236 0.26965371 0.27456066 0.27868942 0.28268778 0.28655371 0.29028392 0.29407023 0.29742498 0.30092704 0.30491025 0.3085152 0.31215478 0.31524628 0.31765725 0.31943533 0.32125851 0.32304567 0.32414299 0.32461189 0.32534672 0.32727509 0.32843687 0.32983097 0.33387771 0.33452053 0.33537371 0.33497255 0.3341676 0.33340508 0.33339978 0.33272321 0.33244346 0.33261475 0.3328602 0.3330365 0.33316468 0.33371722 0.33419188 0.33470452 0.33486954 0.33640044 0.33622475 0.33607897 0.335775 0.33518624 0.33436703 0.33349854 0.33323068 0.33343072 0.33373637 0.33378544 0.33340077 0.33251636 0.33148728 0.33174794 0.33125804 0.33214194 0.33142509 0.33057734 0.33035994 0.32982718 0.32976545 0.33215087 0.33303783 0.33306612 0.33240275 0.33262446 0.33183257 0.33012921 0.32841899 0.32723152 0.32601685 0.32576206 0.32684474 0.32786677 0.32688484 0.32594121 0.32461724 0.32244003 0.31962219 0.315998 0.3122273 0.30815998 0.30393673 0.30157755 0.29771584 0.29583869 0.2944773 0.29125004 0.28861195 0.28486309 0.28063408 0.27666447 0.27282386 0.26869438 0.26563495 0.26281561 0.25871341 0.25608095 0.25316719 0.25022184 0.24673761 0.24396355 0.24216448 0.24064921 0.23923817 0.23801129 0.23655756 0.23506276 0.23477138 0.23468422 0.23521482 0.23418293 0.23277548 0.23172443 0.23103302 0.23099216 0.23092834 0.23097483 0.23062714 0.23061212 0.23024828 0.22964589 0.22981842 0.23001022 0.23012657 0.23061539 0.23048136 0.23012119 0.23093704 0.23135604 0.23244533 0.23283079 0.23353198 0.23471731 0.23580853 0.23706357 0.23787878 0.23889763 0.23943366 0.24002881 0.24083586 0.24167592 0.24307516 0.24272417 0.24319852 0.2444552 0.2454448 0.24746123 0.24754446 0.24764172 0.24907858 0.25121698 0.25431652 0.2576875 0.26131126 0.26536678 0.26984507 0.27492179 0.28080994 0.28899708 0.29647501 0.30482131 0.31288885 0.32056776 0.33197029 0.34184711 0.35233747 0.36436574 0.37664924 0.38891076 0.40168184 0.41427198 0.42751476 0.4401779 0.45388928 0.46667258 0.47800699 0.48906486 0.49844224 0.50782527 0.51706391 0.52716558 0.5343468 0.54286172 0.55097226 0.55943723 0.56646833 0.57414052 0.58317946 0.59332504 0.60537399 0.61598126 0.62583824 0.63356517 0.64043019 0.64966735 0.66044842 0.6704897 0.67745888 0.68011665 0.68116538 0.68245387 0.68649762 0.68973311 0.69580175 0.70266351 0.71132935 0.72027968 0.72757369 0.73071768 0.73081986 0.72880676 0.72799778 0.72753244 0.72697998 0.72422959 0.72138235 0.7194811 0.7191814 0.71773759 0.71674401 0.71559151 0.71495486 0.71608582 0.71714268 0.71854835 0.71951425 0.71968537 0.71875732 0.71732465
0.083197656 0.085559375 0.087765579 0.090156428 0.09268722 0.095376588 0.09848016 0.1014549 0.10455752 0.10788626 0.11076114 0.11388064 0.11731542 0.12041177 0.12381344 0.12725227 0.13073548 0.13404662 0.13739763 0.14092377 0.14462301 0.14825991 0.15180555 0.15543502 0.15932634 0.16317091 0.16697758 0.17067372 0.17474501 0.17884492 0.18284558 0.18722753 0.19183226 0.19620306 0.20099612 0.20521082 0.21062351 0.21607616 0.22144904 0.22637749 0.23105973 0.23602021 0.24073879 0.24564621 0.25037008 0.25473327 0.26067969 0.26552619 0.26968732 0.27370983 0.27780089 0.28171325 0.28561543 0.28908354 0.29266916 0.29655614 0.29995721 0.30389017 0.30671026 0.30890134 0.3104221 0.31149468 0.31335188 0.31456195 0.31484707 0.31581722 0.31785728 0.31905768 0.32022993 0.32138811 0.32476257 0.32502598 0.32498619 0.32437282 0.32382614 0.32316481 0.3225785 0.32348769 0.323591 0.32388816 0.32413082 0.32450554 0.32513935 0.32554166 0.32593278 0.32597646 0.32751247 0.3274444 0.32724304 0.32690267 0.32627324 0.32562831 0.32498986 0.32496317 0.32520364 0.32544385 0.32539655 0.32516204 0.32449428 0.32378044 0.32425861 0.32386208 0.32474541 0.32443517 0.32431897 0.32374906 0.32330995 0.32333993 0.32597306 0.32589786 0.32598802 0.32503911 0.32550977 0.32445104 0.32365451 0.32081759 0.319189 0.31807384 0.31723596 0.31828713 0.31932154 0.31852941 0.31743306 0.31590729 0.31349221 0.31059262 0.30680193 0.30312132 0.29907929 0.29516435 0.29266179 0.28921329 0.28646389 0.28490878 0.28181636 0.27913354 0.27507974 0.27081168 0.26676848 0.26272672 0.25817129 0.25450255 0.25219852 0.24790589 0.24515526 0.24212029 0.2392026 0.23580149 0.23321875 0.23129288 0.22955236 0.22795539 0.22636609 0.22506924 0.22348673 0.22270774 0.22252013 0.22263278 0.22205548 0.22093268 0.22003015 0.2193821 0.21928103 0.21935603 0.21952735 0.21933782 0.21932707 0.21904267 0.2186572 0.2189963 0.21914197 0.21916174 0.21928639 0.21927146 0.21964213 0.22004974 0.22157856 0.22189285 0.22262262 0.22323922 0.22438197 0.22534227 0.22628747 0.22754736 0.22854294 0.22910757 0.22996194 0.23100206 0.2338311 0.23403095 0.23459192 0.23482409 0.23597463 0.2367725 0.23951295 0.2407438 0.24033834 0.24149378 0.24386451 0.24628447 0.24952085 0.25358106 0.25772571 0.26307121 0.26837546 0.27466084 0.28202647 0.2903957 0.29829468 0.30747715 0.31621706 0.32542413 0.33588035 0.34670111 0.35833285 0.3705491 0.3828463 0.39591846 0.40883361 0.42168286 0.43494868 0.44814728 0.46093208 0.47251089 0.48394317 0.49406884 0.50464102 0.5152667 0.52497095 0.53244069 0.54140169 0.5502283 0.55900492 0.5665617 0.57478495 0.58375368 0.59362939 0.6039737 0.61463831 0.6243857 0.63156117 0.63905074 0.6488209 0.66063738 0.67216685 0.68104637 0.68496313 0.68698225 0.68789039 0.68955327 0.69070418 0.69611794 0.70326327 0.71266736 0.721306 0.72865662 0.73136698 0.73166834 0.7305097 0.73025997 0.73028974 0.72922103 0.72607885 0.72248048 0.72011174 0.71933008 0.7179451 0.71734617 0.71650674 0.71632197 0.71778005 0.71899208 0.72068061 0.72151413 0.72121947 0.7202341 0.71909186
0.072983892 0.075307478 0.077293136 0.079758073 0.082443548 0.085177565 0.08805764 0.091144155 0.094181712 0.097453673 0.1006338 0.10376058 0.10725795 0.11022415 0.11343356 0.11676401 0.12041367 0.12375909 0.12737053 0.13096596 0.13445163 0.13836996 0.14222237 0.14601198 0.14998545 0.15378052 0.15762404 0.1618398 0.16587064 0.1698209 0.17402527 0.17834305 0.18293032 0.18762599 0.19202635 0.19669651 0.20216435 0.20771138 0.21314647 0.21786861 0.22261491 0.22742416 0.23242387 0.23722503 0.24206202 0.24650029 0.25255598 0.25693192 0.2608913 0.26541201 0.26948136 0.27341053 0.27737017 0.28084832 0.28430094 0.28810758 0.29131142 0.29425102 0.2974144 0.29947241 0.30178546 0.30235765 0.30424162 0.30546599 0.30625263 0.30698594 0.30898756 0.31008246 0.31109561 0.31209045 0.31526445 0.31564493 0.31571803 0.31511122 0.31446167 0.3142848 0.31418153 0.31406378 0.3151312 0.3155713 0.31599537 0.31628517 0.3167257 0.31704677 0.31743101 0.31759825 0.31921737 0.31910029 0.31880424 0.31847392 0.3179894 0.31743991 0.31712114 0.31716329 0.3174556 0.31745936 0.31745175 0.31740933 0.31711264 0.31750569 0.31721396 0.31701505 0.31768898 0.31827269 0.31772497 0.31721607 0.31675562 0.31688818 0.31957653 0.31998352 0.31923058 0.31812025 0.31639133 0.31543663 0.31579539 0.31353514 0.31149465 0.31009242 0.31097042 0.31168654 0.31140823 0.31066389 0.30896237 0.30771019 0.3056565 0.30213981 0.298505 0.29499257 0.29097097 0.28717957 0.28395041 0.28050078 0.27761333 0.27585884 0.27305457 0.26971594 0.26565657 0.26138615 0.25726456 0.25307718 0.24883916 0.24518208 0.24216654 0.23873134 0.23478553 0.23188852 0.22872424 0.22586166 0.22297995 0.22100275 0.21930052 0.21731122 0.21550164 0.21393707 0.21245175 0.21125741 0.21063103 0.21051595 0.2103776 0.20965998 0.20929234 0.20864859 0.20883823 0.20877341 0.20894501 0.20882099 0.20844567 0.2083062 0.20946362 0.20919122 0.20870087 0.20888776 0.20876945 0.2089176 0.20919918 0.2109526 0.21150874 0.21231139 0.21289485 0.21351647 0.21461255 0.21526467 0.21658076 0.21754047 0.21837247 0.21922279 0.2201584 0.22203839 0.22438966 0.22538845 0.22629825 0.2264719 0.22756011 0.22825711 0.23085146 0.23318925 0.23355711 0.23395664 0.23612326 0.23841103 0.24211967 0.24594569 0.25109366 0.25575083 0.2613366 0.26774152 0.27602798 0.28368937 0.29298468 0.30175367 0.31083519 0.32022865 0.33102823 0.34173675 0.35311718 0.36517577 0.37763701 0.39112793 0.40394478 0.41691828 0.43033248 0.44326413 0.45574847 0.46785893 0.47950699 0.49051817 0.50264975 0.51310885 0.52266415 0.53054022 0.5397671 0.54871025 0.55746254 0.56672167 0.57618893 0.58544236 0.59478465 0.60422768 0.61455752 0.62380969 0.63146426 0.64051984 0.65083602 0.66365687 0.67560575 0.68561828 0.69047314 0.69307943 0.6928858 0.69263262 0.69222973 0.69651095 0.70346734 0.71275444 0.72072952 0.72728301 0.72940266 0.72948668 0.7291482 0.73012969 0.73103568 0.7298512 0.72679328 0.72260085 0.71983177 0.71821955 0.71659744 0.71582291 0.71508166 0.71540528 0.71779278 0.71934269 0.72099067 0.72149396 0.7215103 0.72135305 0.7211755
0.063573842 0.065660342 0.067840013 0.070268707 0.072941219 0.075560916 0.078392902 0.081183245 0.084244689 0.08745384 0.090699671 0.094105406 0.097269584 0.10060797 0.10409727 0.10728296 0.11080231 0.11420041 0.11786658 0.12173883 0.12542385 0.12926902 0.13315538 0.13694796 0.14099788 0.14494058 0.14898881 0.15293806 0.15735836 0.16153981 0.16599629 0.17027371 0.17473915 0.17927415 0.18387193 0.18821283 0.19437317 0.1999466 0.2047257 0.20952738 0.2139812 0.21949095 0.22440533 0.22948331 0.23407384 0.23852795 0.24294002 0.24827577 0.25259326 0.25728483 0.26147161 0.26545558 0.26935722 0.27284357 0.27623501 0.27993428 0.28308612 0.28576591 0.28810983 0.2907119 0.29210022 0.29381604 0.29575888 0.29698236 0.29748979 0.29871694 0.29990524 0.30116856 0.30256922 0.30341092 0.30629675 0.30669723 0.30676847 0.3064773 0.3060174 0.3055675 0.30577643 0.30573314 0.30682337 0.30781053 0.3080258 0.30818097 0.30842027 0.30882699 0.30921644 0.30941402 0.30954557 0.30941803 0.31072176 0.31032885 0.3099493 0.30963977 0.30970177 0.3098911 0.31018651 0.31029521 0.3103193 0.31031101 0.31109117 0.3108086 0.31046318 0.31149462 0.31177329 0.31142345 0.31103031 0.31061145 0.31027626 0.31041045 0.31317842 0.31263427 0.31146938 0.31108904 0.30948259 0.30949063 0.30838123 0.30674324 0.30438644 0.30511515 0.30413318 0.30468337 0.30446522 0.30348761 0.30115522 0.29911425 0.29765284 0.2939738 0.29042773 0.28593211 0.28223076 0.2789542 0.2756733 0.27213918 0.26941684 0.26707837 0.26410409 0.26049796 0.25670936 0.25251177 0.24818658 0.24413546 0.24002893 0.23619509 0.23266134 0.22961553 0.22586811 0.22258191 0.21906718 0.21620195 0.21346839 0.21118888 0.20927757 0.207226 0.20530248 0.20373259 0.20191617 0.20059608 0.1996428 0.19931006 0.19903434 0.19893333 0.19889963 0.19845639 0.19951902 0.19940418 0.19950064 0.19835921 0.19831936 0.19928149 0.19903194 0.19865384 0.19872097 0.1990362 0.19929187 0.20015738 0.20076911 0.20169807 0.20219238 0.20283385 0.203431 0.20429029 0.20507701 0.20635012 0.20741933 0.20815719 0.20915406 0.21001813 0.21170931 0.21410774 0.21576766 0.21633086 0.21847518 0.21961773 0.21994988 0.22041525 0.222365 0.22613671 0.22585254 0.22730015 0.22932834 0.23122147 0.23442323 0.23934411 0.24463285 0.2498581 0.25625324 0.26206683 0.26932684 0.27839233 0.28726815 0.29648953 0.30580936 0.31577961 0.3268941 0.33740875 0.34854177 0.36058415 0.37321284 0.38627306 0.39897439 0.41237331 0.42544336 0.43803093 0.45071229 0.46299176 0.47514119 0.48787648 0.49978274 0.50982192 0.51945831 0.52827302 0.53781225 0.5468308 0.55575076 0.56533008 0.57592209 0.5857667 0.59580411 0.60474344 0.6136851 0.62374598 0.63191623 0.6428962 0.6547456 0.66831737 0.67953618 0.68900018 0.69384063 0.69726028 0.69784412 0.69745515 0.69782188 0.7014057 0.70748056 0.71485894 0.72101628 0.7256807 0.72638051 0.72580851 0.72602834 0.72813351 0.72890075 0.72744292 0.72423808 0.72043526 0.71879002 0.7169896 0.71564319 0.71456565 0.71417141 0.71497292 0.71779077 0.71870381 0.71967106 0.72012831 0.72092437 0.72166522 0.72217436
0.05455676 0.056632484 0.058836739 0.061160213 0.063885051 0.066409304 0.069223987 0.072007159 0.075031564 0.077984225 0.081445845 0.084788736 0.088177256 0.091461239 0.094957235 0.0982131 0.10173432 0.10541888 0.10933147 0.11296144 0.11696713 0.12084568 0.12467499 0.12871504 0.1328173 0.13667968 0.14078217 0.14483629 0.14940916 0.15371899 0.15798227 0.16260019 0.16726367 0.17159307 0.17607674 0.18076408 0.18647594 0.191435 0.1970471 0.20170071 0.20627575 0.21135506 0.21688038 0.22183386 0.2261134 0.23087532 0.2353086 0.24065023 0.24498702 0.24977193 0.25375144 0.25781843 0.26162479 0.26519388 0.26859788 0.27231832 0.27531928 0.27783676 0.28003676 0.28278558 0.28410781 0.28532011 0.28787253 0.28834755 0.28922338 0.29071717 0.29201123 0.2931356 0.29409502 0.29523052 0.29751271 0.2982629 0.29833402 0.29818189 0.29793519 0.29766419 0.2980343 0.29810372 0.29941546 0.29973641 0.30017299 0.30065187 0.3005645 0.3009188 0.30123903 0.30168649 0.30170987 0.30194493 0.30176409 0.30247524 0.30245385 0.30237026 0.30256576 0.30285171 0.30319913 0.3034082 0.30347111 0.3046108 0.30450195 0.30442505 0.30415026 0.30497423 0.30491982 0.30505135 0.30473605 0.30439414 0.30416462 0.30415275 0.30682177 0.30614863 0.30474423 0.30439555 0.30507845 0.30380125 0.30166061 0.29965123 0.29875406 0.29858828 0.29833853 0.29801523 0.29746599 0.29634593 0.29471522 0.29158231 0.29015953 0.2867516 0.28298118 0.27852771 0.27459258 0.27154258 0.26772959 0.26410288 0.26151719 0.25864712 0.25597929 0.25227879 0.24771526 0.24381477 0.23967361 0.23540061 0.23145893 0.22773328 0.22414944 0.22111698 0.21755303 0.21422826 0.21069498 0.20733133 0.20460556 0.20209925 0.19997029 0.19779766 0.19598472 0.1941949 0.19249951 0.19115157 0.19018161 0.18948941 0.189611 0.1896792 0.18998574 0.18967447 0.19028014 0.19011983 0.19018938 0.18904035 0.18950776 0.18942472 0.18913933 0.18923732 0.19077876 0.1904975 0.19021826 0.19091538 0.19153969 0.1924738 0.19291672 0.19439693 0.19445216 0.19616123 0.19666171 0.19780843 0.19873833 0.19981849 0.20071067 0.20223196 0.20461885 0.20627122 0.20801046 0.20960965 0.21092692 0.21200487 0.21312356 0.21444599 0.21475354 0.21874026 0.21930586 0.22072729 0.22238458 0.22516313 0.22795105 0.23269439 0.23796997 0.24404091 0.25011838 0.25683446 0.26462616 0.27305325 0.28216649 0.29178026 0.30147107 0.31188 0.32253768 0.33363577 0.34486638 0.35699851 0.36906995 0.38175726 0.39440718 0.40746679 0.41899793 0.4324044 0.44486593 0.45749452 0.47132834 0.48403486 0.49578585 0.50562551 0.51559497 0.5253167 0.53544245 0.5448439 0.55324872 0.56342922 0.57512043 0.58581982 0.59734629 0.60682037 0.61572174 0.62482041 0.63375151 0.64600332 0.6586489 0.67101998 0.6805042 0.68850996 0.69346545 0.69821815 0.70070546 0.70283118 0.70596235 0.70876919 0.71296511 0.71746736 0.72173836 0.7245815 0.72407839 0.72356716 0.72433869 0.72680814 0.72665355 0.72458322 0.72109143 0.7173648 0.71657588 0.71459469 0.71364915 0.71249791 0.71237408 0.71298289 0.71566714 0.7169592 0.71804569 0.71887346 0.71991301 0.7211476 0.72214613
0.046304513 0.048230757 0.050492204 0.052738739 0.055237474 0.057649056 0.060346378 0.063152548 0.066079323 0.069294912 0.072639028 0.075965014 0.079326472 0.082833666 0.0865159 0.089981662 0.093578073 0.097097841 0.10104046 0.10510496 0.10935758 0.11330356 0.11728731 0.12125305 0.12524726 0.12920048 0.1335942 0.13773358 0.14182843 0.14662361 0.15095817 0.15557915 0.15998172 0.1643379 0.16902767 0.17385206 0.17966792 0.18459564 0.18945622 0.1944596 0.19935172 0.20396919 0.20901651 0.2139369 0.2186132 0.22331826 0.22807778 0.23251912 0.23687869 0.24219474 0.24578691 0.25050073 0.25435089 0.25788055 0.26214539 0.26504769 0.26796103 0.2703528 0.27247529 0.27529198 0.27663459 0.27791994 0.27931857 0.28066683 0.28193322 0.28309964 0.28444307 0.28558961 0.286473 0.28729335 0.28943106 0.29009336 0.29061294 0.29054663 0.29052654 0.29053385 0.2911325 0.2912209 0.29245016 0.29285948 0.29284128 0.29327372 0.29346303 0.29388722 0.29427654 0.29452952 0.29480422 0.2952189 0.29506247 0.29584329 0.29558991 0.29576733 0.29609533 0.29644021 0.29673488 0.29694575 0.29722028 0.29835722 0.29815599 0.29850182 0.29854793 0.29911433 0.29910636 0.29913946 0.29907161 0.29897367 0.29860511 0.29831442 0.3008736 0.2997515 0.29854757 0.30065598 0.29875277 0.29759299 0.29553384 0.2935713 0.29291901 0.29274152 0.2921496 0.29137629 0.29041757 0.28901865 0.28737683 0.28475058 0.28262 0.27939038 0.2744392 0.27112619 0.26770291 0.26454309 0.26098526 0.25733304 0.25407472 0.25124296 0.2478874 0.24407928 0.24010614 0.2362942 0.23208199 0.22793315 0.22409086 0.22041299 0.21671289 0.21345857 0.20968862 0.20608106 0.20261726 0.19936119 0.1964699 0.19403611 0.19145155 0.18920007 0.1872501 0.18540704 0.18369642 0.18213804 0.1810909 0.18010861 0.18007903 0.18021528 0.18075262 0.1809547 0.1809855 0.18109189 0.18144858 0.18140484 0.18133488 0.1813074 0.18131961 0.18251496 0.18227591 0.18203428 0.18234773 0.18285892 0.18367521 0.184635 0.184821 0.18585734 0.18589119 0.18815285 0.18864536 0.18957448 0.19093828 0.19184344 0.19343068 0.19580276 0.19745302 0.19924228 0.20099891 0.20247549 0.20380055 0.2049818 0.20613341 0.20760485 0.20778391 0.21107032 0.21183781 0.21417118 0.21557069 0.21895504 0.22171914 0.22647778 0.23227717 0.23773037 0.24404211 0.25166125 0.25969291 0.2682382 0.27751048 0.28750479 0.29748921 0.30813323 0.31894343 0.32990811 0.34187272 0.35366865 0.36536891 0.37787634 0.38981355 0.40192461 0.41468429 0.42740371 0.43982332 0.45340479 0.46717552 0.48025644 0.49190703 0.50202347 0.51240428 0.52306918 0.53305982 0.54247858 0.55111435 0.5621363 0.57424341 0.58586839 0.59844027 0.60900078 0.6181176 0.62773801 0.63771414 0.65008651 0.66266457 0.67320388 0.68100441 0.68726134 0.6916807 0.69685839 0.70162553 0.70698527 0.71344057 0.71673827 0.71948338 0.72137151 0.72353974 0.72421336 0.72278864 0.72254816 0.72340208 0.72556457 0.72446709 0.72181618 0.71763495 0.71385268 0.71382041 0.71281202 0.71346487 0.7134268 0.71348633 0.71311856 0.71466056 0.71576657 0.71668893 0.71785603 0.71935081 0.72102387 0.72182536
0.038501705 0.040409954 0.042655972 0.044799361 0.047142851 0.049744154 0.052338893 0.055021875 0.058024573 0.061292409 0.064832209 0.068050955 0.071390751 0.074995934 0.078760255 0.08228701 0.086050318 0.089781677 0.093489732 0.097588198 0.10175109 0.10615761 0.11023607 0.11435352 0.118286 0.1223704 0.12651913 0.13094948 0.13520207 0.14002427 0.14434308 0.14896349 0.15335864 0.15805752 0.16273013 0.16766652 0.17257978 0.17777725 0.18254256 0.18708396 0.19193931 0.19679635 0.20209531 0.20700547 0.21174792 0.21638882 0.22115029 0.2258578 0.23021213 0.23462336 0.23871059 0.24307727 0.24748201 0.25101526 0.25498132 0.25829799 0.26110008 0.26337604 0.26624394 0.26839736 0.26971522 0.27103727 0.27237843 0.27383237 0.27485748 0.27619602 0.27729456 0.27853063 0.27954893 0.28034385 0.28230828 0.28269685 0.28313139 0.28367985 0.283343 0.2837427 0.28407443 0.28510952 0.28646079 0.28637064 0.28627766 0.28654684 0.2868216 0.28739873 0.28753612 0.28809093 0.28832538 0.28866798 0.28895821 0.28978412 0.28982042 0.28994527 0.29038202 0.29073416 0.29114796 0.29151393 0.29143647 0.29275054 0.29255228 0.29279325 0.29299073 0.29370697 0.29369039 0.29381205 0.29399555 0.29379862 0.2934826 0.29292025 0.29532155 0.29427914 0.2934937 0.29485925 0.29294167 0.29190154 0.28989979 0.28810237 0.28753719 0.28729485 0.28649437 0.28571399 0.28429476 0.28264837 0.28037998 0.2777827 0.27571229 0.27266466 0.2690575 0.26480113 0.26136567 0.25813073 0.25453273 0.25084075 0.24747966 0.24445734 0.24103563 0.23719628 0.23375005 0.22951154 0.22534901 0.22113544 0.21744192 0.21366386 0.20974139 0.20557815 0.2024113 0.19885691 0.19543837 0.19213593 0.1892441 0.18650995 0.18391511 0.18139802 0.17926594 0.17729689 0.17578654 0.1742606 0.17281398 0.17194984 0.17154203 0.17158846 0.17183017 0.17189722 0.17238663 0.17250098 0.17285899 0.17312844 0.1734103 0.17310106 0.17314285 0.17448179 0.17431958 0.17461663 0.17493293 0.1755418 0.17605913 0.17682213 0.17698592 0.17801439 0.18034703 0.18087747 0.18195858 0.18246948 0.18352684 0.18510031 0.18768512 0.18925574 0.19108573 0.19287825 0.19441698 0.19586691 0.19728092 0.19857566 0.20009379 0.20195713 0.20409804 0.20583392 0.20729897 0.20811087 0.21089958 0.2132192 0.2161794 0.22150635 0.22640854 0.23210514 0.23941502 0.24704852 0.25513712 0.26380115 0.2731955 0.28334699 0.29344494 0.30426106 0.31536523 0.32645526 0.33808118 0.34967251 0.36097075 0.37381425 0.38489901 0.39785587 0.41035345 0.42313038 0.43561431 0.44988369 0.4637976 0.47689612 0.48819862 0.4985627 0.5091563 0.52032383 0.53087628 0.54046119 0.55033036 0.5617506 0.57502634 0.58785256 0.60044381 0.61215305 0.6219724 0.63177784 0.64338431 0.65536204 0.66709449 0.67538934 0.68153597 0.68698291 0.69093676 0.69614013 0.70269613 0.71039088 0.71808258 0.72214012 0.72450032 0.72478042 0.7248322 0.72368889 0.72155817 0.7212123 0.72233872 0.72457941 0.72338003 0.72080826 0.71653644 0.71258177 0.7127218 0.7122203 0.71447722 0.71608685 0.7172096 0.71675082 0.71652092 0.71652949 0.71680856 0.71795322 0.72004005 0.72165263 0.7215048
0.031599013 0.033448854 0.035492357 0.037684201 0.039978887 0.042421567 0.045048057 0.047876527 0.050821134 0.054076014 0.05744829 0.060830346 0.064135125 0.067808913 0.071466201 0.075297767 0.0789474 0.082989183 0.086784946 0.090737775 0.09495989 0.099273554 0.1037886 0.107817 0.11176657 0.11603081 0.12031233 0.12494721 0.12930456 0.13381715 0.1383499 0.14296663 0.14748072 0.15187607 0.15661242 0.1612677 0.16626642 0.1711232 0.1761565 0.18069947 0.1858202 0.19057308 0.19539037 0.20061565 0.20555652 0.2102615 0.21486356 0.21952349 0.22415926 0.22841647 0.23257009 0.23643348 0.24051909 0.24463954 0.24793947 0.25080081 0.25490025 0.25697411 0.25904476 0.26223075 0.26341579 0.26471701 0.26609675 0.26722152 0.26784154 0.26885726 0.27085306 0.27189951 0.27304738 0.2740218 0.27581823 0.27619012 0.27642585 0.27691458 0.27726563 0.2779285 0.27835801 0.27867213 0.27960195 0.2798417 0.28030829 0.28056344 0.28116531 0.2815577 0.28173989 0.28241238 0.28293654 0.28348032 0.28347836 0.28401616 0.28434759 0.28478225 0.28530721 0.2856602 0.28625058 0.28642821 0.28688536 0.28793955 0.28777701 0.28841437 0.28915574 0.28942609 0.2890578 0.28941556 0.28936922 0.28921737 0.28885731 0.28849652 0.29030608 0.28938144 0.28814401 0.28962476 0.28821012 0.28672017 0.28527927 0.28449415 0.28256043 0.28253441 0.28098663 0.27957559 0.27820154 0.27684946 0.2744966 0.27302825 0.269443 0.2664961 0.26297149 0.25958227 0.2556245 0.25237998 0.24884279 0.24508292 0.24157468 0.23846311 0.23491798 0.2309554 0.22731325 0.22345782 0.21948797 0.21521836 0.21153337 0.20817919 0.20356815 0.20010693 0.19608451 0.1924168 0.18898025 0.18577949 0.1826342 0.17973721 0.1770163 0.17463919 0.17241232 0.17033128 0.16859858 0.16680975 0.16555509 0.16439843 0.16381591 0.16360339 0.16404743 0.16444557 0.16476213 0.16493811 0.16522788 0.16560195 0.16577856 0.1659225 0.16834803 0.16827728 0.16810404 0.16784139 0.16826764 0.16870147 0.16947096 0.16994407 0.17088828 0.17322799 0.17394454 0.17499701 0.17562736 0.17673187 0.17735122 0.18009726 0.18158639 0.18336766 0.18518715 0.18677009 0.18826361 0.18981713 0.19134234 0.193018 0.19507297 0.1967016 0.19963618 0.20197016 0.20197514 0.2039882 0.20582046 0.2081279 0.21187309 0.21617758 0.22128296 0.22808696 0.23521214 0.24279456 0.25102265 0.25988486 0.26928881 0.27936092 0.28956835 0.30056669 0.31185216 0.32312519 0.33494113 0.34682825 0.35944626 0.37052335 0.38267339 0.39475456 0.40667938 0.42003518 0.43293684 0.44774782 0.46160524 0.47475411 0.48585 0.49613312 0.50680285 0.51794097 0.52854137 0.53962783 0.55087609 0.56321823 0.57795037 0.5902705 0.60288538 0.61437858 0.62477853 0.63515969 0.64710578 0.65919102 0.67083819 0.67861886 0.68389816 0.68874589 0.69221594 0.69740499 0.70460335 0.71348145 0.72115953 0.72530448 0.72766934 0.72690002 0.72562147 0.72318552 0.72087062 0.72136274 0.72297253 0.72500665 0.72392161 0.72168296 0.71778626 0.71411279 0.71426362 0.7145153 0.71731867 0.71972705 0.72158154 0.72149463 0.72051727 0.71915279 0.71879323 0.71977675 0.72213916 0.72306949 0.72160395
0.02539153 0.027148041 0.02914883 0.03124111 0.033594293 0.036014417 0.038541903 0.041427804 0.044204802 0.047646909 0.050981605 0.054354667 0.057833022 0.06133157 0.065117048 0.068986946 0.07278662 0.076699754 0.080803329 0.084831251 0.089128709 0.093334187 0.097672835 0.10189246 0.10619102 0.1106996 0.11502847 0.11960465 0.12372532 0.1284251 0.13295222 0.13717504 0.14199901 0.1462213 0.15112 0.15553842 0.16030545 0.16531509 0.16993328 0.1747083 0.17995987 0.18499853 0.18975161 0.19457875 0.19981439 0.20467325 0.20926779 0.2137997 0.21838645 0.22277682 0.22685756 0.23074217 0.23437202 0.23862064 0.24217736 0.24518601 0.2495287 0.25152708 0.25338264 0.2553123 0.25737384 0.2592608 0.26015354 0.26087499 0.26192575 0.26315969 0.26415365 0.26602448 0.26707295 0.26830042 0.26959893 0.27038951 0.27069682 0.27100083 0.27143078 0.2717715 0.27214017 0.27280938 0.27371192 0.27465976 0.27449729 0.27516551 0.27590293 0.27617608 0.27714958 0.2775124 0.27794106 0.27840453 0.27862836 0.27930031 0.27966661 0.28015354 0.28060165 0.28116392 0.28176148 0.28236259 0.28357084 0.28363945 0.28442146 0.28431682 0.28464295 0.28537276 0.28523529 0.28522031 0.28525316 0.28504657 0.28477532 0.28462025 0.28400097 0.2843855 0.2862339 0.28474773 0.28344789 0.28197371 0.28036575 0.28005653 0.27800157 0.27791643 0.27609513 0.2749415 0.27330728 0.2710097 0.26891284 0.26755877 0.26393434 0.26102388 0.25760148 0.25481734 0.25130336 0.24738143 0.24387464 0.24003849 0.23638252 0.23316347 0.23006862 0.22562076 0.22202493 0.21823848 0.21424547 0.21026051 0.20684339 0.20292903 0.19808763 0.19446166 0.19012378 0.18673761 0.18318294 0.17998398 0.17677167 0.17376913 0.17112196 0.16865464 0.16631238 0.16420414 0.16221272 0.16057282 0.15907509 0.15789392 0.1574332 0.1570056 0.15694951 0.15727456 0.15793988 0.15812182 0.15850341 0.15922458 0.15935244 0.16157714 0.16181148 0.1617133 0.16194444 0.1625311 0.16232005 0.16283484 0.16339912 0.16448833 0.16489124 0.16771055 0.16836433 0.16947382 0.17085023 0.17198245 0.17320279 0.17456423 0.17636192 0.17818764 0.17976514 0.18132447 0.18295969 0.18458926 0.18633333 0.18862361 0.19028769 0.19257614 0.19409922 0.19633672 0.19842445 0.19938346 0.20114748 0.20341354 0.20804825 0.21253882 0.21784831 0.22425266 0.23120859 0.23886105 0.24727686 0.25628883 0.26578109 0.27591436 0.28637317 0.29728391 0.30845216 0.31974473 0.33158743 0.34508369 0.35657684 0.36831712 0.38058792 0.3921862 0.40547405 0.41826494 0.43160476 0.44648263 0.46045012 0.4734072 0.48428237 0.4947229 0.50575982 0.51614513 0.52739863 0.53894969 0.55206169 0.56566967 0.57949993 0.59193713 0.60558128 0.61712615 0.62771208 0.63873907 0.65099278 0.66285918 0.67378968 0.6811807 0.68604363 0.69086439 0.69450831 0.70063433 0.70854698 0.7177127 0.72494116 0.72904344 0.73164566 0.73101357 0.72883463 0.7256705 0.72405618 0.72584112 0.72771884 0.72927701 0.72738777 0.72444914 0.72080268 0.71711841 0.71768633 0.71816623 0.72036606 0.72279278 0.72511045 0.72526516 0.72374208 0.72155473 0.72067657 0.72145985 0.7240062 0.72443423 0.72179192
0.019946283 0.021644801 0.023569899 0.025636852 0.027876068 0.03028614 0.032812654 0.035571789 0.038445388 0.04178945 0.045260622 0.048542313 0.052216394 0.055713917 0.059424239 0.063425745 0.06742206 0.071306143 0.075388367 0.079669661 0.083985357 0.088038813 0.092285311 0.096775426 0.1007824 0.10513754 0.10941173 0.11473229 0.11917651 0.12347459 0.12778547 0.13203158 0.13687059 0.14108328 0.14567466 0.15042189 0.15516779 0.15978229 0.1645951 0.16978536 0.17460778 0.17983629 0.18485937 0.18959697 0.19441399 0.19946468 0.20422701 0.20875971 0.21312926 0.21776862 0.22170661 0.22558699 0.22924243 0.23276129 0.23584094 0.23836298 0.24460959 0.24626688 0.24870752 0.25018314 0.2510656 0.25281858 0.25449429 0.25556848 0.25688843 0.25791024 0.25904072 0.26008303 0.26184606 0.26294348 0.2636129 0.26487752 0.26568081 0.26594294 0.26620635 0.26686715 0.26732319 0.26768457 0.26841932 0.26930972 0.26993954 0.27050356 0.27081346 0.27133403 0.2716922 0.27333736 0.27375525 0.27418019 0.27441712 0.27518637 0.27553208 0.27592546 0.27624549 0.27702978 0.27815159 0.27902826 0.27944068 0.27974154 0.28060279 0.28059987 0.28090279 0.28164011 0.28162075 0.28168073 0.28165222 0.28152858 0.28151425 0.28094965 0.28045597 0.282122 0.28214954 0.28121592 0.28001305 0.27868159 0.27755086 0.27605006 0.27446608 0.27377586 0.27170385 0.27014241 0.26885043 0.26705403 0.26451839 0.26275619 0.25911537 0.25624134 0.25313245 0.25018612 0.24674573 0.24282452 0.23958108 0.23539923 0.23183702 0.22861429 0.22513424 0.22109082 0.2174304 0.21343713 0.20946956 0.20561547 0.20214807 0.1981466 0.19339369 0.1895493 0.18583012 0.18203768 0.17861728 0.1753427 0.17196421 0.16865833 0.16600665 0.16344658 0.16118233 0.15890068 0.15679268 0.15500044 0.1535426 0.15274739 0.15180682 0.15115534 0.15094506 0.15111919 0.15177549 0.15280191 0.15311455 0.15337218 0.15549023 0.15582486 0.15599394 0.1562352 0.15708312 0.15690227 0.1571492 0.15763209 0.1586278 0.15916757 0.15968979 0.16227297 0.16310499 0.16485877 0.16597951 0.16712899 0.16838301 0.17011229 0.17190865 0.17348485 0.17497602 0.1764865 0.17833857 0.18013023 0.18260859 0.18427815 0.18677358 0.18825181 0.18963382 0.19155796 0.19360491 0.19462874 0.19693331 0.19979244 0.20384631 0.20853905 0.21437154 0.22059954 0.22758713 0.23544565 0.24401298 0.25316671 0.26285353 0.27326269 0.28382796 0.29465712 0.30568986 0.31660881 0.32850793 0.34169031 0.3541777 0.36574973 0.37875181 0.3916977 0.40497406 0.4179756 0.43207282 0.44629924 0.45996523 0.47218223 0.48281649 0.49338465 0.50386394 0.51442699 0.5261312 0.53921543 0.55373657 0.56794566 0.58101109 0.59377939 0.60636126 0.61846176 0.63052512 0.64325409 0.65556763 0.6663825 0.67576476 0.68285598 0.68809302 0.69352035 0.69762554 0.7052173 0.71482229 0.72512771 0.73273987 0.73767439 0.74037892 0.73968176 0.7363374 0.7325247 0.73105755 0.73380229 0.7357614 0.73661081 0.7333826 0.72892564 0.72489077 0.7229324 0.72493374 0.72551584 0.72585606 0.72657764 0.72811087 0.72791814 0.72561667 0.72275119 0.72151203 0.72188802 0.72388188 0.7238792 0.72056828
0.015201722 0.016914046 0.018818372 0.020840464 0.023051861 0.025391442 0.027961972 0.030736258 0.033601366 0.036708563 0.040213259 0.043795413 0.047241139 0.051025718 0.054681924 0.058533403 0.062663176 0.06677483 0.070866261 0.075009779 0.079128587 0.083615772 0.087918417 0.092308236 0.09634595 0.10089515 0.10537908 0.10928869 0.11360514 0.11788786 0.12371541 0.12685252 0.13126498 0.13602443 0.14103219 0.1459177 0.15060604 0.15516877 0.16030775 0.16508056 0.16939566 0.17511508 0.18033107 0.18529204 0.18995642 0.194688 0.19961346 0.20423616 0.20856966 0.21281625 0.21648677 0.22106519 0.22477301 0.22829058 0.23164293 0.23423419 0.23987017 0.24205101 0.24409741 0.24557884 0.24667874 0.2486088 0.25014556 0.25119952 0.25221061 0.25346737 0.25446317 0.25558731 0.25669363 0.25849045 0.25948141 0.26082454 0.26139667 0.26167042 0.26192905 0.26217714 0.26311039 0.2635722 0.26397173 0.26472672 0.26544781 0.2661841 0.2668058 0.26758672 0.26829033 0.26993337 0.2704702 0.27045969 0.27109642 0.27161271 0.27195698 0.27253104 0.27288271 0.27433385 0.27533746 0.27586008 0.27615603 0.27644566 0.27781595 0.27781318 0.27780462 0.27849088 0.27851393 0.27869428 0.27870141 0.27893848 0.27857434 0.27799207 0.27948204 0.27856268 0.27872105 0.27762082 0.27627024 0.27507206 0.27401137 0.27243269 0.27083806 0.27016091 0.26796487 0.26629535 0.26482407 0.26312652 0.26168798 0.25868081 0.25498431 0.25213637 0.24909526 0.24619256 0.24279908 0.23953722 0.23541402 0.23190414 0.22824645 0.2249435 0.22110258 0.21717777 0.21333757 0.20933853 0.20545356 0.20153329 0.19823306 0.19415133 0.18962442 0.18546593 0.18175894 0.17815282 0.17474862 0.17159292 0.16809301 0.1647025 0.16175257 0.1591072 0.15694765 0.15447042 0.15240092 0.15092084 0.14933662 0.14808247 0.14707898 0.14638435 0.14631971 0.14686995 0.14737249 0.14759672 0.14824201 0.15028409 0.15041152 0.15113796 0.15157266 0.15207666 0.15230723 0.15253623 0.1527868 0.15368209 0.15426546 0.15473557 0.15751934 0.15850835 0.15960756 0.16071516 0.16189652 0.16305617 0.16478597 0.16656967 0.16815701 0.1695971 0.1711895 0.17269224 0.17592096 0.17732575 0.1789082 0.18159022 0.18308262 0.1845001 0.18580679 0.18766972 0.1897258 0.19083069 0.19311211 0.19641169 0.20035366 0.20557634 0.211154 0.21742562 0.22458493 0.23255201 0.24125507 0.25057592 0.2605537 0.27087289 0.28122702 0.29205365 0.30281959 0.31408968 0.32763391 0.34052026 0.35286202 0.36533085 0.37843014 0.39146545 0.40531135 0.41829793 0.43275118 0.44676266 0.4604054 0.4716448 0.48262339 0.49212685 0.50260739 0.51362717 0.52611367 0.53985587 0.55462882 0.56832233 0.58120328 0.59437473 0.60691266 0.62029436 0.63371713 0.64769488 0.65996961 0.67019871 0.67857943 0.68527767 0.69025582 0.69577578 0.70120018 0.71026144 0.7207209 0.73153104 0.73959757 0.74382082 0.74614315 0.74524058 0.74228816 0.7386554 0.73787293 0.74048662 0.74257043 0.74239691 0.73812342 0.7321989 0.72827367 0.72784277 0.73083017 0.73130619 0.73058354 0.7303925 0.73093122 0.73018453 0.72736633 0.72445546 0.72314379 0.72269674 0.72323118 0.7222325 0.71859381
0.011275881 0.012983862 0.014851529 0.016904075 0.019093835 0.021459743 0.024075975 0.026798353 0.029666854 0.032666587 0.035889768 0.039563576 0.043276638 0.046897109 0.050821205 0.054695412 0.058598131 0.062841047 0.067070778 0.071118684 0.07534948 0.079695451 0.084023542 0.088488667 0.092529233 0.096832814 0.10116856 0.10573103 0.11004493 0.11432264 0.11840494 0.12333117 0.12765101 0.13214759 0.13689755 0.14187811 0.14667072 0.15111863 0.15554958 0.15994327 0.16454552 0.17056896 0.17623419 0.18138682 0.18622419 0.19077305 0.19538425 0.2001951 0.20470545 0.20897892 0.21295091 0.21696207 0.22090992 0.22442148 0.22765603 0.2300624 0.233447 0.23789071 0.2398865 0.24161461 0.24257292 0.24320148 0.24486321 0.24663422 0.2471232 0.24803246 0.25062707 0.25096639 0.25283778 0.25395476 0.2556611 0.25606555 0.25766699 0.25794237 0.25824644 0.25867396 0.2590022 0.26008665 0.26052571 0.26149456 0.2622386 0.26293087 0.26360227 0.26417226 0.26484913 0.26551284 0.26718936 0.267632 0.26832847 0.26856385 0.26920882 0.26984565 0.27060684 0.27138251 0.27235414 0.2728132 0.27354042 0.27387384 0.27517452 0.27526781 0.27530341 0.27596748 0.27599052 0.27714158 0.27678594 0.27652054 0.27618807 0.27576315 0.27641911 0.27550361 0.27560928 0.27437736 0.27392735 0.27304501 0.27170427 0.27009024 0.26839927 0.26706529 0.26509755 0.26310125 0.26167797 0.25991081 0.25763655 0.25525472 0.25204128 0.24867692 0.24566806 0.24281464 0.23943512 0.23616924 0.23232776 0.2286001 0.22484032 0.22194594 0.21806288 0.21407032 0.21018226 0.20603401 0.20220553 0.19828357 0.19499365 0.19084004 0.18666234 0.18265809 0.17861555 0.17525905 0.17160681 0.16848878 0.16512573 0.16160257 0.15845308 0.1558546 0.15327061 0.15098109 0.14888882 0.14709003 0.14560706 0.1442721 0.14331334 0.14274038 0.1431239 0.14325345 0.14305968 0.14342524 0.14598227 0.14621175 0.1467367 0.14711942 0.1479713 0.14819391 0.14849097 0.14879323 0.14964077 0.15026059 0.15075129 0.15098572 0.15454698 0.154925 0.15603139 0.15738279 0.15851403 0.16028283 0.16210245 0.16366112 0.1650844 0.16672024 0.16817049 0.16987253 0.1727388 0.1758929 0.17719511 0.17864667 0.18011072 0.18144126 0.18303959 0.18508589 0.18661472 0.1878734 0.19052968 0.19359874 0.19816541 0.20298289 0.20852209 0.21501351 0.22232018 0.23029829 0.23923764 0.24887751 0.25878416 0.26883935 0.27918245 0.28977101 0.30060846 0.31382967 0.32673036 0.34028889 0.35281114 0.36592618 0.38003246 0.3922998 0.40621239 0.41942818 0.43367815 0.44757508 0.46039007 0.47167121 0.48175607 0.49126925 0.50205396 0.51345621 0.5260933 0.53982047 0.55424783 0.56826971 0.58110469 0.59454716 0.6077964 0.62216168 0.63639653 0.6512648 0.66372385 0.67386768 0.68231314 0.68874388 0.69362355 0.69905976 0.70614081 0.71626755 0.72744802 0.73785614 0.74578863 0.7490014 0.75088845 0.74935902 0.74730465 0.74440777 0.74448771 0.74599735 0.74637486 0.74490746 0.73992041 0.73344587 0.72982687 0.73051711 0.73396402 0.73458224 0.73388161 0.73408961 0.73429173 0.73386122 0.73124507 0.72932278 0.72818585 0.72748346 0.7256539 0.72256393 0.71794819
