0.71566072 0.71463144 0.71258992 0.71284293 0.71296866 0.71354723 0.71303461 0.71222511 0.71091802 0.70917259 0.70525267 0.70554465 0.70437867 0.70253078 0.69932388 0.69820872 0.69883893 0.69852 0.69800099 0.69358553 0.69119048 0.69058259 0.68795892 0.68694516 0.68422004 0.68368097 0.6816336 0.68283114 0.68375236 0.68138789 0.67798625 0.67438543 0.67080503 0.66907726 0.66840218 0.66301683 0.66008616 0.65828181 0.6599763 0.65920136 0.65830889 0.65551661 0.65125239 0.65104695 0.64901454 0.65040251 0.64814969 0.64948374 0.65396349 0.65611134 0.65740733 0.66335777 0.66567013 0.66684775 0.67052693 0.67073115 0.67311909 0.67593163 0.67958511 0.68363797 0.68882447 0.69224638 0.69309429 0.69526323 0.69902976 0.69820107 0.70041221 0.70083804 0.70126164 0.70526816 0.70725871 0.70966932 0.71163502 0.71240572 0.71610208 0.71938412 0.72005648 0.71997296 0.72211969 0.72286904 0.72219901 0.72341965 0.72301536 0.72236532 0.72074358 0.71690401 0.71496887 0.70956422 0.70700353 0.70212019 0.69939941 0.69740358 0.69758209 0.69555393 0.69282436 0.69020913 0.68586555 0.67905402 0.67728553 0.67380245 0.67259251 0.67149446 0.67119456 0.67270806 0.67054368 0.66964362 0.66818697 0.66778846 0.6691671 0.67201372 0.67255039 0.6737109 0.67422582 0.67292523 0.67210563 0.67307962 0.67123942 0.67136187 0.6681982 0.66749049 0.66789851 0.66852298 0.66752494 0.66705777 0.66634367 0.66322237 0.66138224 0.65853332 0.65690017 0.65460948 0.65761438 0.65708205 0.65514325 0.64982454 0.65109775 0.64986024 0.64784558 0.6446409 0.64844277 0.64840156 0.65035194 0.65481379 0.65777642 0.65855105 0.66046527 0.65969776 0.66161988 0.66421539 0.66623037 0.66746038 0.66830662 0.67039938 0.67185044 0.67563443 0.67844416 0.6816311 0.68542828 0.69003578 0.69510881 0.69804533 0.69922733 0.69523965 0.69475555 0.69352109 0.6975331 0.70307229 0.70708159 0.7104608 0.71097205 0.71097467 0.71184619 0.71126459 0.71237872 0.71277954 0.71458086 0.71669274 0.71648807 0.71668249 0.71659171 0.71536078 0.71829767 0.72033319 0.7222787 0.72329625 0.7218167 0.71699789 0.71377096 0.71118931 0.70982932 0.70703569 0.70437396 0.70225748 0.70098701 0.70029698 0.69873068 0.69576437 0.69248442 0.68811003 0.6856536 0.68538198 0.6833547 0.68200053 0.67963361 0.67723454 0.67474829 0.6736183 0.67128225 0.67016867 0.66891976 0.66778241 0.66513881 0.66222196 0.65762997 0.65563176 0.65419804 0.64948524 0.64391391 0.64209835 0.64005337 0.63733018 0.63461608 0.63241128 0.63062958 0.62757345 0.62570164 0.6249778 0.62582378 0.62555012 0.62555635 0.62474387 0.62332754 0.62079399 0.6192629 0.61919752 0.61879116 0.61895235 0.61800368 0.61909509 0.61933743 0.62083936 0.62148055 0.62150094 0.6221022 0.62087837 0.620235 0.61926091 0.61802875 0.61670368 0.61266549 0.61065756 0.60655539 0.60118029 0.59602367 0.58968515 0.58291058 0.57693616 0.56978723 0.56468327 0.55927242 0.55430281 0.54783335 0.54155142 0.53394336 0.52599644 0.51986558 0.5150989 0.50931953 0.50393978 0.49924455 0.49640161 0.49388287 0.49062514 0.48642975 0.48174588
0.7134881 0.7122663 0.71142386 0.712994 0.71352073 0.71371102 0.71510066 0.71378934 0.70957895 0.70816249 0.70513809 0.7048904 0.70328995 0.7022606 0.6998841 0.69945426 0.69916556 0.69907086 0.69632664 0.69472791 0.69194341 0.69050932 0.688831 0.68687175 0.68288486 0.68244819 0.68274971 0.68297661 0.68126253 0.67954745 0.67810629 0.67324452 0.67091427 0.66768416 0.66506193 0.66396164 0.66216804 0.66022752 0.65895552 0.65893777 0.65784808 0.65645059 0.65194686 0.65074664 0.6508545 0.64862442 0.64806115 0.64949049 0.65008829 0.6521659 0.65467329 0.65907523 0.66082751 0.66345438 0.66668823 0.66863975 0.67069885 0.67315833 0.67600443 0.67848822 0.68250912 0.68670201 0.68833271 0.69179449 0.69371207 0.69184425 0.69452328 0.69583711 0.69564318 0.69868391 0.70111972 0.703265 0.70556308 0.70708272 0.71066645 0.71382101 0.71448883 0.71371821 0.71614547 0.71572334 0.71756182 0.71766827 0.7187008 0.71908163 0.71799904 0.71515636 0.71151145 0.70788537 0.70344382 0.70022204 0.69819633 0.69513251 0.69540233 0.69170315 0.69034106 0.68803747 0.68436961 0.67891028 0.67599692 0.67414211 0.67377529 0.67215214 0.67233066 0.67330462 0.67287433 0.67244585 0.67221862 0.67202985 0.67386135 0.67535031 0.67847531 0.68044853 0.67922957 0.6799666 0.67887541 0.67737305 0.67702636 0.67620639 0.67437657 0.67337218 0.67453562 0.67471619 0.67420804 0.67338115 0.67125171 0.66836957 0.6675352 0.66526212 0.664307 0.66348307 0.66335775 0.66135724 0.6604909 0.65739148 0.65517729 0.65494897 0.6537778 0.65161624 0.65186677 0.65365532 0.65523643 0.65737398 0.65980452 0.66004689 0.6620827 0.66435413 0.6644375 0.66424612 0.66606828 0.66832563 0.66945782 0.67185578 0.67452141 0.6767134 0.6789409 0.6825997 0.68587071 0.69096608 0.69641622 0.70108016 0.70121938 0.69805134 0.6994437 0.70081295 0.70429459 0.70782639 0.71061926 0.71177778 0.71264809 0.71103755 0.71094397 0.71048802 0.71120904 0.71315139 0.71568718 0.71901296 0.71787317 0.71869249 0.71842975 0.71690557 0.7177153 0.71923267 0.72159823 0.72205201 0.71852494 0.71369093 0.70917905 0.70611073 0.70520864 0.70312627 0.70269827 0.70122954 0.70040784 0.69902895 0.6960748 0.69365034 0.6912988 0.68673616 0.68576393 0.68498184 0.68309218 0.68280603 0.68008092 0.67880272 0.67600859 0.67472032 0.67272585 0.67340084 0.67317867 0.66927026 0.66778282 0.66492748 0.65981611 0.65817428 0.65775401 0.65422144 0.64690039 0.6430354 0.6371972 0.63494719 0.63485711 0.63187739 0.62915194 0.62579052 0.62491794 0.62555803 0.62539854 0.6240033 0.62139078 0.62102737 0.62145812 0.61913791 0.61848916 0.61725085 0.61802755 0.61814207 0.61658703 0.61796144 0.61978506 0.61922068 0.62095106 0.62022014 0.62229918 0.62041959 0.61815986 0.61870278 0.61898215 0.61644311 0.6144075 0.60963691 0.60665221 0.6009509 0.59643669 0.58776527 0.58154001 0.57510053 0.56820832 0.56214576 0.55509942 0.5503274 0.54613861 0.5382695 0.53028759 0.52481073 0.51869 0.51172229 0.5070506 0.50052063 0.49595418 0.49096711 0.48779393 0.48427403 0.47931857 0.47370315
0.71045943 0.70964354 0.71157857 0.71319913 0.71385178 0.71553593 0.71510526 0.71394416 0.71283009 0.70955694 0.70751513 0.70592338 0.70544809 0.70287667 0.70235178 0.70255045 0.6993782 0.69898439 0.69917128 0.69498196 0.69164131 0.69100705 0.68841701 0.68699198 0.6825564 0.68382853 0.68368374 0.68186411 0.68098963 0.6780397 0.67674031 0.67181912 0.66911907 0.66594404 0.66515928 0.6647429 0.66289663 0.66413115 0.66227959 0.66226849 0.660313 0.65786812 0.65430871 0.65166758 0.65144292 0.64813193 0.64645347 0.64707375 0.64855519 0.64894352 0.65000475 0.65507595 0.6567191 0.6585818 0.66415814 0.6659508 0.66829707 0.66891614 0.67058949 0.67321551 0.67813276 0.68107126 0.68376988 0.68582069 0.68707712 0.68589636 0.6880751 0.68952406 0.69041067 0.6933058 0.69671361 0.69947889 0.69991934 0.70163343 0.7032753 0.70647599 0.70767783 0.70946134 0.70979618 0.7117827 0.71152978 0.71392727 0.71480481 0.71626973 0.71578735 0.71227906 0.70971912 0.70496419 0.70250933 0.69746052 0.69433174 0.69354646 0.69256628 0.69022287 0.68818159 0.68575329 0.68296702 0.67982718 0.67592664 0.6741141 0.67523048 0.67500928 0.67597469 0.67585025 0.67552893 0.675447 0.67724954 0.67770511 0.67953368 0.68358846 0.68400676 0.68682935 0.68666455 0.68550615 0.68768594 0.68651968 0.68502807 0.68202592 0.68158375 0.68271195 0.68280224 0.68300834 0.68214592 0.68027313 0.67639857 0.67355068 0.67370217 0.67270159 0.67209267 0.67230208 0.67068964 0.67078988 0.66788135 0.66478506 0.6641233 0.65992952 0.65788623 0.65696255 0.6566874 0.6572928 0.65910397 0.66164828 0.66302795 0.66326947 0.66406577 0.66631504 0.66708316 0.66678417 0.66692624 0.6683176 0.67162399 0.67454208 0.67635119 0.67631855 0.6780765 0.68210104 0.68589859 0.69252791 0.69907253 0.70365044 0.70441332 0.70206349 0.70253675 0.7043363 0.70899808 0.71218795 0.71316464 0.71305934 0.71329643 0.71184647 0.71032255 0.70853611 0.7096398 0.71275434 0.71601471 0.71708082 0.71870733 0.71804796 0.71827463 0.72090268 0.72040419 0.7206724 0.72016502 0.72051204 0.71543571 0.70975343 0.70425752 0.70171986 0.70095682 0.70088523 0.70073463 0.69931979 0.69909557 0.69575554 0.69365112 0.69190905 0.69049556 0.68657453 0.68607573 0.68477946 0.68340712 0.68269957 0.68246656 0.6797799 0.67890978 0.67615766 0.674379 0.67611422 0.67459288 0.67303056 0.66856725 0.66589248 0.66375914 0.66123833 0.65925336 0.65615893 0.64939034 0.64485655 0.638904 0.63567104 0.63354728 0.63053671 0.62693333 0.62394211 0.62402294 0.62330464 0.62317184 0.62330355 0.62289989 0.62116995 0.62000337 0.61848797 0.61909325 0.61852325 0.61926165 0.61859315 0.61761936 0.61806382 0.61817588 0.61848051 0.61998271 0.6195693 0.6203477 0.61916577 0.61911696 0.61900624 0.61860808 0.61695998 0.6141836 0.60970165 0.60510521 0.60053483 0.59531512 0.58772257 0.58100612 0.57459701 0.56793647 0.56040817 0.55509073 0.54990643 0.54364389 0.53618202 0.52836072 0.52242216 0.51529264 0.50961565 0.50378819 0.49718099 0.49166977 0.48685941 0.48239258 0.47809607 0.4727813 0.46790731
0.70863841 0.70709667 0.70871289 0.71059652 0.71377031 0.714291 0.71511989 0.71350416 0.71398779 0.71222844 0.7095496 0.70735994 0.70560758 0.70586115 0.70385446 0.70287838 0.70098375 0.70015917 0.6981338 0.69642787 0.69342029 0.69077545 0.68817018 0.68793534 0.68532537 0.68319199 0.68298272 0.68100272 0.67933324 0.67576303 0.67375081 0.671187 0.66795716 0.66762843 0.6653323 0.66428947 0.66380256 0.66504279 0.6650198 0.66435735 0.66174471 0.66025708 0.65585419 0.65373103 0.65079316 0.64811087 0.64595083 0.6467063 0.64733026 0.64736852 0.64905784 0.64988855 0.65341643 0.65453004 0.65840315 0.65972342 0.66240293 0.66499164 0.66863749 0.67025662 0.67325206 0.67579343 0.67819883 0.67954818 0.68205152 0.68001939 0.68120476 0.68315646 0.68554343 0.68671406 0.68997579 0.6941752 0.69500769 0.69546427 0.6965312 0.69923167 0.70090443 0.70370749 0.70363918 0.70570213 0.70815015 0.71039857 0.71085097 0.71288213 0.71160047 0.71020862 0.70715733 0.70426162 0.70055803 0.69411231 0.69154801 0.6908076 0.68790232 0.68599411 0.68593991 0.68376872 0.68147477 0.67935726 0.67682604 0.67538406 0.67679353 0.67871334 0.67936849 0.68080174 0.67976935 0.680834 0.68146294 0.68321232 0.6864937 0.69041034 0.69277485 0.6921762 0.69204611 0.69379722 0.69350515 0.69342653 0.69171315 0.68902232 0.69010778 0.69118044 0.69107186 0.69154436 0.68885006 0.68441535 0.68249804 0.68174256 0.68183716 0.68251664 0.67898218 0.6785276 0.6781664 0.67829021 0.67680223 0.67437008 0.67109159 0.66821873 0.66394276 0.66426141 0.66291582 0.66191505 0.66434185 0.66592355 0.66463294 0.66587246 0.6670847 0.66865306 0.66903022 0.66893823 0.66963355 0.67174355 0.67298158 0.67564748 0.67682081 0.67753578 0.67874145 0.68224855 0.68775105 0.69355392 0.69738613 0.70255248 0.70360401 0.70356522 0.70396192 0.70553396 0.70948277 0.71244508 0.71308741 0.71266638 0.71259611 0.71238398 0.71030019 0.70808663 0.70932684 0.71271333 0.71399784 0.71430266 0.71686883 0.71642644 0.71738418 0.71774399 0.71755595 0.71701112 0.71718879 0.71459342 0.71107216 0.70551718 0.70150842 0.69871922 0.69952094 0.69913875 0.69794869 0.69871943 0.69683229 0.6939136 0.69184172 0.69061145 0.68920926 0.68805124 0.68698403 0.6850086 0.68546598 0.68403119 0.68430245 0.68183544 0.67970069 0.67957591 0.67798192 0.67825106 0.67795778 0.67523049 0.67077633 0.66950872 0.66980728 0.66534158 0.66094215 0.65690285 0.65253511 0.64762114 0.6403896 0.63790681 0.63159501 0.63030548 0.62638723 0.62377169 0.62246097 0.62474195 0.62469393 0.62285455 0.62152859 0.62220262 0.62131085 0.62117323 0.617803 0.618123 0.6180492 0.62016017 0.61747983 0.61837513 0.62015393 0.61872525 0.6187485 0.61821813 0.61895275 0.61668333 0.61691907 0.62031322 0.61902849 0.61620646 0.61291643 0.61018445 0.60447934 0.60147434 0.59670076 0.58685061 0.57978795 0.57265488 0.56716248 0.56008895 0.55425406 0.54800283 0.54076499 0.53380213 0.52663911 0.51986224 0.5133898 0.5070711 0.5002435 0.49433354 0.48801164 0.48173427 0.47690546 0.47117757 0.46698424 0.4626578
0.70582681 0.70598513 0.7071608 0.70924219 0.71277075 0.71378331 0.7157793 0.71424447 0.71379768 0.71185143 0.71090286 0.70783949 0.70534575 0.70606552 0.70503867 0.7041941 0.70150626 0.69983669 0.69878031 0.69535882 0.6932965 0.69031577 0.68951628 0.68659254 0.68483423 0.68445948 0.68158593 0.67917217 0.67678376 0.67367575 0.67159203 0.67054227 0.66791889 0.66776147 0.66637185 0.66560823 0.66384872 0.66605879 0.66704725 0.66460597 0.6630338 0.66161016 0.65825663 0.65531072 0.65057232 0.64880376 0.64524645 0.64374526 0.64398726 0.64548017 0.64590642 0.64796118 0.64924443 0.65001655 0.6524499 0.65392351 0.65706985 0.65958602 0.66222763 0.66577088 0.66796506 0.67116876 0.6730867 0.67396113 0.67507545 0.67619622 0.6761957 0.67795791 0.67941559 0.68262967 0.68382231 0.68642512 0.68750588 0.68894639 0.68954425 0.69307029 0.69512083 0.69596339 0.69800121 0.69940853 0.70261843 0.70295963 0.7041649 0.7071717 0.70598591 0.70652278 0.70514776 0.70016692 0.697026 0.69327733 0.68973196 0.68711649 0.68546711 0.68492518 0.68462746 0.68302113 0.68151716 0.67992826 0.68037518 0.6790899 0.6795878 0.679595 0.68180023 0.68632065 0.68563731 0.68371946 0.68433114 0.6872279 0.69102673 0.69469473 0.69779629 0.69923624 0.70042828 0.70080387 0.70140249 0.70265025 0.69987391 0.69823793 0.69932499 0.69997253 0.69725433 0.69902841 0.69622684 0.69119256 0.69073465 0.68797341 0.6897412 0.69069705 0.68857618 0.68653738 0.68733292 0.6852562 0.68248471 0.6810049 0.67760034 0.67463709 0.67167214 0.66906436 0.66772841 0.66766645 0.66917934 0.6708621 0.66898978 0.66693754 0.66813302 0.669853 0.67057391 0.67174336 0.67328034 0.67283551 0.67641319 0.67759834 0.67821912 0.67894013 0.68037328 0.68363661 0.68868233 0.69217463 0.69564427 0.69917019 0.70064932 0.70305522 0.70338621 0.70605878 0.70762351 0.71116459 0.71289959 0.71195305 0.71091895 0.71248319 0.71089724 0.70795538 0.70937344 0.71105399 0.71260767 0.71146312 0.71365464 0.7138394 0.71453976 0.71317385 0.71441756 0.71265714 0.71101751 0.70963889 0.70770666 0.70364624 0.70020931 0.69619778 0.69713185 0.69551292 0.69515614 0.69649921 0.69534989 0.69367428 0.69134372 0.68980595 0.69014623 0.68789876 0.68603955 0.6849974 0.68619616 0.68566732 0.68460307 0.6833717 0.68203481 0.68202096 0.68058034 0.67867688 0.67727225 0.67668789 0.67445469 0.67166706 0.66885596 0.66524202 0.66215484 0.65809799 0.65413688 0.64844256 0.64424987 0.639999 0.63481119 0.63082145 0.62818705 0.62442346 0.62464978 0.62367678 0.62291475 0.62178799 0.62223729 0.62073556 0.61855659 0.62067557 0.62031369 0.62061448 0.61959393 0.62080404 0.62133206 0.61965202 0.62132318 0.62067311 0.62117205 0.62011575 0.61810932 0.61780107 0.61788227 0.61936897 0.61814815 0.61439749 0.61249202 0.6084703 0.60368127 0.59917026 0.59290033 0.58608954 0.5768252 0.57102262 0.56388842 0.55704373 0.55147311 0.54547968 0.53879217 0.53074819 0.52398739 0.51576149 0.50997796 0.50390452 0.49753944 0.49010725 0.48417345 0.47736797 0.47089399 0.46549012 0.46148131 0.45773667
0.70206601 0.7043393 0.70342359 0.70668308 0.70762083 0.71170928 0.71498498 0.7128353 0.71036396 0.71017755 0.70891917 0.7060079 0.70448873 0.70483148 0.70347564 0.70374455 0.70057222 0.699435 0.69904919 0.69616765 0.69456746 0.69191656 0.68714085 0.68733188 0.68634766 0.68413436 0.6814413 0.6790214 0.6778654 0.67417922 0.67086127 0.67193472 0.66984171 0.66863972 0.66579749 0.66640006 0.66472678 0.66752103 0.66647252 0.66479995 0.66291268 0.65968028 0.65750516 0.65367423 0.65089723 0.64907859 0.64629156 0.6437046 0.64217881 0.64123967 0.64276866 0.64301878 0.64342326 0.6454844 0.64752091 0.64741079 0.64969631 0.65350525 0.65756721 0.65897163 0.66147653 0.66366864 0.66649995 0.66850747 0.66863819 0.66847452 0.67055063 0.67068496 0.67379575 0.67501588 0.67545222 0.67709978 0.67851192 0.68208464 0.6828919 0.68544517 0.68678426 0.68949068 0.69254112 0.695043 0.69582536 0.6969701 0.69766945 0.69941999 0.70104112 0.70196025 0.70032588 0.69788974 0.6955353 0.69105851 0.68748885 0.68532481 0.68425461 0.68328881 0.68338264 0.68274891 0.68354971 0.68388724 0.68241055 0.68198343 0.68299805 0.6831129 0.68536489 0.68890781 0.68991869 0.69148067 0.69122515 0.69265368 0.69530597 0.70159421 0.70186477 0.70558724 0.70577843 0.70607473 0.70955718 0.7101266 0.70646414 0.70555286 0.70520742 0.70588204 0.70536637 0.70313839 0.70147726 0.70057801 0.69960152 0.69780043 0.69610568 0.69498629 0.69461379 0.69365192 0.69169537 0.69092026 0.68901563 0.6851676 0.68200539 0.68082765 0.67929848 0.67617056 0.67581451 0.67381175 0.67385792 0.67369496 0.67323785 0.67202752 0.67208936 0.67369045 0.67375098 0.67416041 0.67399266 0.67534686 0.67739893 0.67734635 0.67847473 0.68045562 0.68342815 0.68595586 0.68754917 0.69065515 0.69380963 0.69518214 0.69908774 0.70065634 0.7011712 0.70379938 0.70556514 0.70845155 0.70935669 0.70865069 0.71047571 0.71232363 0.71088141 0.71005292 0.71063762 0.71210936 0.71047244 0.70914777 0.70987456 0.70984818 0.70994974 0.71066682 0.70890829 0.70819139 0.70670675 0.70550343 0.70393643 0.69979204 0.69755491 0.6953836 0.69489171 0.6931798 0.69345989 0.69453006 0.69460988 0.69282883 0.69174147 0.69167072 0.68995158 0.68855972 0.6884761 0.68776596 0.68601338 0.68533527 0.68575416 0.68468804 0.6842731 0.68310328 0.68078477 0.67987467 0.67857038 0.67730254 0.67581823 0.67330311 0.6686347 0.66546924 0.66410535 0.65777738 0.6531808 0.64952061 0.64533196 0.64160216 0.63879211 0.63375085 0.62990276 0.62591237 0.62525474 0.62492011 0.62259369 0.62293388 0.62171245 0.61995582 0.61943309 0.62076763 0.6227459 0.62337788 0.62234525 0.62241589 0.62287308 0.62223172 0.62447706 0.62248499 0.62017835 0.62082907 0.61970147 0.61769023 0.61792427 0.61800576 0.617322 0.61409845 0.61192238 0.60853475 0.60303432 0.59665892 0.59060117 0.58219867 0.57434656 0.56818393 0.56029249 0.55477685 0.54810243 0.54227607 0.53553994 0.52741818 0.52012205 0.51247924 0.50572131 0.50012885 0.49380552 0.48735747 0.48099578 0.47326033 0.46719134 0.46075089 0.4575876 0.45382355
0.70353311 0.70356225 0.70277249 0.70417638 0.70662565 0.70862536 0.71061837 0.7095178 0.7092897 0.70829724 0.7058962 0.70517453 0.70431005 0.70274824 0.70459322 0.70260416 0.70136633 0.69942221 0.69869668 0.69638948 0.6942496 0.69251039 0.69005799 0.68793978 0.68514161 0.68362257 0.68076266 0.67787782 0.6775867 0.67499972 0.67387425 0.67170732 0.67171507 0.66983415 0.66571464 0.66516829 0.66689735 0.66716046 0.66709929 0.66458897 0.66155717 0.65855647 0.65421929 0.65233733 0.64983882 0.64593717 0.64270244 0.64176015 0.63962966 0.63722268 0.63693654 0.639237 0.63911952 0.64174155 0.64175742 0.64139973 0.64240228 0.64538602 0.64960366 0.65248009 0.65338616 0.6555385 0.65911752 0.66117905 0.66065965 0.66149234 0.66306975 0.66617575 0.66768297 0.66976304 0.67074806 0.67215714 0.67215139 0.67495811 0.67692575 0.67828531 0.6804399 0.68252946 0.68301209 0.68604887 0.68749769 0.68792418 0.69028633 0.69261696 0.6933312 0.69519425 0.69379738 0.6927464 0.69206806 0.69006 0.68543648 0.68456502 0.68309896 0.68280962 0.68399745 0.68396133 0.68595708 0.68647379 0.68533876 0.68496295 0.68436587 0.68526784 0.68783969 0.69201207 0.69384125 0.69638533 0.69558531 0.69783021 0.70190508 0.70835316 0.70866022 0.71017671 0.71257753 0.71378884 0.71546823 0.71733649 0.71480087 0.71303405 0.71275605 0.71160418 0.71353084 0.71292695 0.7106445 0.70817302 0.70740488 0.70708605 0.70473278 0.70118756 0.69975139 0.70044385 0.69698236 0.69417422 0.69242272 0.69112548 0.68874891 0.68398666 0.68326536 0.68321513 0.68185731 0.68054442 0.67838121 0.67839506 0.67772946 0.67786556 0.67637292 0.67648693 0.67496897 0.67558241 0.67600736 0.67636298 0.67820164 0.6795829 0.67820127 0.68110566 0.68457834 0.68706937 0.68787977 0.68957765 0.69213674 0.69444433 0.69587037 0.69659926 0.69716058 0.6974808 0.70065568 0.70311928 0.70607179 0.70670103 0.70923117 0.71060745 0.70870148 0.70998449 0.7096277 0.71082917 0.71041558 0.70680175 0.70765306 0.70793568 0.70683084 0.70765975 0.70391949 0.70176089 0.70375865 0.70394974 0.70034397 0.69983773 0.69697482 0.69307831 0.69374133 0.69242711 0.69149304 0.69457873 0.69295987 0.69530462 0.69304569 0.69297182 0.6893242 0.68841708 0.68952066 0.68834669 0.68802218 0.68501308 0.68584552 0.68498349 0.6853417 0.68409219 0.68219731 0.6805544 0.6803079 0.67971872 0.67664744 0.67488767 0.67083839 0.6671693 0.66346698 0.65952401 0.65545656 0.65189706 0.64750303 0.64488436 0.64106295 0.63652121 0.63107871 0.62851637 0.62691359 0.6239846 0.62555714 0.6239456 0.62335909 0.62251881 0.62374803 0.62375191 0.62302787 0.62513895 0.62597011 0.62455647 0.62299412 0.62348431 0.62329604 0.62350709 0.62359676 0.62325299 0.62306743 0.62189279 0.62091136 0.61973062 0.61830265 0.61306435 0.60987803 0.60763041 0.60359027 0.59536684 0.58888009 0.58229762 0.57407784 0.56564309 0.5581765 0.55260572 0.54515659 0.53931579 0.53195628 0.52458764 0.51732022 0.50966971 0.50306237 0.49715919 0.48995182 0.48406053 0.47734174 0.47011626 0.46413291 0.45976475 0.45443997 0.44873884
0.70136119 0.70268932 0.70424633 0.70277357 0.70315106 0.70486372 0.7045043 0.70619569 0.70677624 0.70285945 0.70185978 0.70085074 0.70180678 0.70135969 0.70281637 0.70169455 0.70035211 0.70040745 0.69908265 0.69525675 0.69280958 0.69245399 0.690381 0.68918413 0.68566765 0.68383461 0.68322749 0.67963531 0.67650778 0.67488438 0.67410762 0.67307363 0.67304143 0.6710393 0.66841401 0.66645357 0.66637196 0.66714818 0.66503046 0.66307653 0.66117232 0.65706241 0.65268487 0.64897317 0.64568139 0.64274292 0.63832736 0.635654 0.63466549 0.63474907 0.63224104 0.63357128 0.63552075 0.63599563 0.63456415 0.63320437 0.63614695 0.63933862 0.64280804 0.64367295 0.64551962 0.64829214 0.65218327 0.65418816 0.65377882 0.65444496 0.65689137 0.66138684 0.66075368 0.66283394 0.66383319 0.66588275 0.66600913 0.66781219 0.67067392 0.6707229 0.67211897 0.67392041 0.67661161 0.67688535 0.67887123 0.68216724 0.6831691 0.68489231 0.68672952 0.68802949 0.68783705 0.689395 0.68790332 0.68720727 0.68390663 0.68445966 0.68387166 0.685546 0.68480151 0.68706199 0.68701914 0.68775291 0.68805518 0.68865566 0.68642751 0.68917685 0.69078405 0.69427702 0.69804014 0.6999066 0.70352317 0.70489072 0.70976746 0.71277462 0.71287773 0.71638702 0.71790446 0.72030903 0.72133849 0.72087788 0.72118231 0.7172425 0.71747419 0.71975235 0.72070758 0.72050621 0.71642332 0.71617448 0.71283468 0.71093225 0.71192471 0.71045346 0.70721201 0.70512127 0.70366984 0.70139605 0.69901612 0.69610409 0.69336327 0.69154933 0.68993035 0.68989613 0.6876904 0.68642078 0.68424732 0.68295886 0.68070812 0.68083052 0.68007065 0.67874811 0.67736937 0.67756555 0.67773245 0.67810245 0.67856747 0.67789676 0.67833347 0.67999457 0.6831684 0.68446809 0.68624067 0.68665305 0.68764244 0.68798136 0.68916097 0.6901958 0.69309204 0.69219073 0.6941464 0.69780048 0.69861373 0.69984267 0.70272584 0.70473202 0.70518735 0.70739677 0.70742195 0.70796234 0.70864891 0.70551807 0.70616982 0.70513024 0.70390443 0.70167841 0.70182995 0.6991734 0.69879655 0.69826555 0.69881856 0.69734856 0.69449054 0.69231671 0.69060946 0.68959869 0.69050349 0.69209719 0.69179361 0.69162349 0.69289937 0.6902243 0.68919341 0.68914658 0.69035438 0.68978405 0.68794424 0.68731034 0.6858468 0.68564727 0.68640072 0.68436719 0.68358382 0.68298328 0.67978744 0.67993683 0.67820185 0.67462063 0.67140756 0.66837426 0.66393693 0.65926641 0.65930155 0.65319668 0.65039475 0.64664982 0.64501433 0.64014715 0.63557533 0.63063183 0.62742262 0.62675432 0.62763869 0.62659359 0.62703912 0.6267332 0.62707305 0.62484172 0.62373429 0.6242889 0.6275846 0.62589825 0.62709184 0.62539652 0.62517153 0.62687685 0.62838847 0.62699125 0.62361433 0.62226625 0.6217074 0.62014871 0.61892832 0.61293601 0.60810014 0.60608624 0.60260281 0.59417877 0.58670693 0.58130446 0.57226804 0.5651672 0.55903284 0.55062985 0.54291809 0.53606205 0.52822769 0.52212897 0.51504402 0.50704541 0.50006226 0.49329021 0.48621585 0.47996835 0.47348683 0.46773618 0.46097455 0.45715522 0.45109414 0.44489247
0.69571496 0.69941803 0.70056097 0.70174736 0.70116156 0.70091604 0.7013306 0.7014564 0.70241309 0.70012735 0.69815263 0.69728668 0.69670426 0.69785334 0.69767165 0.69901844 0.6984408 0.69844394 0.6961611 0.69557996 0.69472917 0.69106361 0.69030303 0.68899594 0.68758506 0.68646783 0.68333062 0.68125035 0.67779913 0.67599449 0.67448885 0.67149933 0.67246096 0.67121999 0.66924998 0.66606282 0.66603456 0.66531287 0.66540529 0.66186403 0.65933472 0.65378318 0.6487492 0.64567374 0.6427637 0.63973931 0.63508335 0.63227899 0.62965287 0.62968873 0.62869147 0.63025689 0.62984861 0.6290607 0.62618476 0.62547151 0.62698954 0.63120993 0.63525429 0.63699565 0.63923112 0.64151053 0.64490049 0.64646585 0.64703304 0.64931471 0.6514027 0.6532291 0.65420747 0.6547339 0.65725158 0.6594944 0.66086233 0.66211744 0.6645524 0.66618666 0.66689601 0.66893146 0.6698493 0.67179695 0.67259246 0.67457911 0.67609867 0.67982664 0.68171243 0.68298738 0.68392276 0.68425867 0.68324164 0.68211481 0.68246618 0.68261477 0.68361429 0.68650441 0.68727147 0.69007703 0.68886114 0.69105064 0.69079369 0.6897251 0.69001776 0.69278635 0.69425649 0.69996726 0.70355243 0.70756208 0.709949 0.71127847 0.71499873 0.71766151 0.72017228 0.72071225 0.7234889 0.72807867 0.7285523 0.72677161 0.72499887 0.72283958 0.72521407 0.72791433 0.7253682 0.72478908 0.72323347 0.72408937 0.71884657 0.71694432 0.71620556 0.71680717 0.71382693 0.71065203 0.70819264 0.70917811 0.70423016 0.69959153 0.69630399 0.6958801 0.69372728 0.69444673 0.69219371 0.69300505 0.68922061 0.68542735 0.6838124 0.685518 0.68272476 0.68174548 0.67834822 0.67710826 0.67729518 0.67749868 0.6795747 0.67726093 0.67917312 0.67984527 0.68399695 0.68514344 0.6840083 0.68342573 0.68452851 0.68524961 0.68533941 0.68555147 0.6865505 0.68820271 0.69051686 0.69230699 0.69308863 0.69436076 0.69751885 0.69933282 0.70114578 0.70089421 0.70302793 0.70395426 0.70444206 0.706455 0.70588888 0.70365172 0.70069039 0.69911502 0.69797063 0.69875278 0.69725919 0.69654158 0.69378232 0.6908603 0.69073704 0.68828556 0.68733504 0.68678612 0.68823302 0.68743526 0.68899563 0.68914626 0.68929363 0.68829644 0.68982549 0.68910379 0.6885189 0.68930921 0.68894968 0.68829775 0.68863876 0.68810223 0.68715722 0.68597543 0.68373813 0.68321058 0.68066729 0.6793544 0.67759333 0.67612715 0.67223178 0.66827165 0.66334766 0.66002939 0.6571734 0.65510861 0.65172192 0.6472461 0.64406403 0.63976133 0.63584649 0.63287023 0.62741564 0.62862293 0.62657847 0.628569 0.62940323 0.62784219 0.62709952 0.62771578 0.62612483 0.62573971 0.62684457 0.62726528 0.62733608 0.62765083 0.62832965 0.63040859 0.62975066 0.62959173 0.62857815 0.62589154 0.62502757 0.62388291 0.62174528 0.61422501 0.6094171 0.60631775 0.60226407 0.59487657 0.58959178 0.58161614 0.5721677 0.56498282 0.55827127 0.54962469 0.54250788 0.5343249 0.52614063 0.52067574 0.51347363 0.50618226 0.49775534 0.48989537 0.48292345 0.47714487 0.47075473 0.46429245 0.45834763 0.45343796 0.44744955 0.44040663
0.69002664 0.6930695 0.6966252 0.6962443 0.6983948 0.69994052 0.70032106 0.69958319 0.69883848 0.69516034 0.69209567 0.69381398 0.69325697 0.69305368 0.69299789 0.69437006 0.69348144 0.69428201 0.69579269 0.69415597 0.69134188 0.69111274 0.6891462 0.68839767 0.6872377 0.68607818 0.68511723 0.6823372 0.67831351 0.67685637 0.67271051 0.67116368 0.6697307 0.66797083 0.6680001 0.66610502 0.66518595 0.66468297 0.66410375 0.66035451 0.65591618 0.65056102 0.64683378 0.6435652 0.63991018 0.63462372 0.63063274 0.62890511 0.62580559 0.62467232 0.62589636 0.62488637 0.62357898 0.62232239 0.61910613 0.61860992 0.61974954 0.62363114 0.62657605 0.62795426 0.63264289 0.63469717 0.63561091 0.63726412 0.63991372 0.64180612 0.64534787 0.6472675 0.64812417 0.64945546 0.65269799 0.65675156 0.65637647 0.65659442 0.65792342 0.65860797 0.66101714 0.66039754 0.66351549 0.66724324 0.66749763 0.66933118 0.67081825 0.6721418 0.67570273 0.67678165 0.67799148 0.68025901 0.67842113 0.67945152 0.67964141 0.68198709 0.68381028 0.68663811 0.68976606 0.69124073 0.6901363 0.69017837 0.69159502 0.69190716 0.69495488 0.69680378 0.6998989 0.70498366 0.70689162 0.71060361 0.71461313 0.71908227 0.72119793 0.72524846 0.72719531 0.72652682 0.72770567 0.732607 0.73350807 0.7334629 0.7328372 0.73074714 0.73180718 0.73248105 0.73100823 0.72966096 0.72711043 0.72617327 0.72363366 0.72287864 0.72169484 0.72064071 0.71856011 0.71559501 0.71214629 0.71018094 0.70764371 0.70268068 0.7002909 0.69823213 0.69946117 0.69587829 0.69397574 0.69385033 0.6924768 0.68889702 0.68802466 0.68680708 0.68609013 0.68490969 0.68135727 0.67984606 0.68012941 0.68061209 0.67952122 0.6802824 0.68031895 0.6792886 0.68167945 0.68278463 0.6818615 0.68092303 0.67985176 0.67923714 0.68091718 0.68015827 0.68150666 0.68459957 0.6870726 0.68744462 0.68890787 0.68893348 0.69269073 0.69499096 0.69385636 0.69562377 0.69772721 0.69882781 0.70230808 0.70348697 0.70340634 0.70100486 0.69735701 0.69709486 0.69526064 0.69244095 0.69019033 0.68870356 0.68778044 0.68838445 0.68816646 0.68504216 0.68494835 0.68636913 0.68527069 0.68742013 0.68697547 0.68700669 0.68813063 0.68868014 0.68888147 0.68769564 0.68691712 0.68802418 0.68860501 0.68930677 0.68946597 0.6909342 0.68975626 0.68823961 0.68593986 0.68557761 0.68265056 0.68146821 0.67874624 0.67460048 0.67314964 0.6679978 0.66331922 0.66044629 0.65837118 0.65445342 0.6529153 0.64938576 0.64360017 0.63835776 0.63683287 0.63086429 0.627229 0.62867344 0.62636522 0.62950765 0.63137073 0.63127393 0.63007856 0.62780949 0.62756914 0.62846242 0.63033826 0.63062465 0.62896486 0.63081188 0.63315747 0.63326102 0.63323128 0.63279254 0.6317949 0.63089523 0.6282306 0.62719559 0.62213507 0.61797877 0.61188889 0.608947 0.60306228 0.5984172 0.5923693 0.58414826 0.57469442 0.56524042 0.55651985 0.54874932 0.54024802 0.53252174 0.5265449 0.52007847 0.51428324 0.50598702 0.49717393 0.4882075 0.48009671 0.47259605 0.46675877 0.46008302 0.4547029 0.44972053 0.44327138 0.43525844
0.68618801 0.68930278 0.69145673 0.69291082 0.69428585 0.6949482 0.69534799 0.69429778 0.69266297 0.69200835 0.68909774 0.68951377 0.68981132 0.69015403 0.69277812 0.69024629 0.69179176 0.69250964 0.69071316 0.69030235 0.68978536 0.69015687 0.69148409 0.68844674 0.68559176 0.68599527 0.68511362 0.6825996 0.67830723 0.67565718 0.67400964 0.67173422 0.66844893 0.66644402 0.66568772 0.66381083 0.66272698 0.66198077 0.66231753 0.65905552 0.65459784 0.64945848 0.64528401 0.6403945 0.63777234 0.63237862 0.62593959 0.62335507 0.62238648 0.62096816 0.62075927 0.61910432 0.61853498 0.61391513 0.61084174 0.61105846 0.61518146 0.61585508 0.61793413 0.62010265 0.62476951 0.62832828 0.62815878 0.63132746 0.63336055 0.63554134 0.63811679 0.64121268 0.64303493 0.64373294 0.64739221 0.64988898 0.64948852 0.6492616 0.6511814 0.65093633 0.65429298 0.65490709 0.65971229 0.66097542 0.66248367 0.66489906 0.66559803 0.66634782 0.66865209 0.6718965 0.6749778 0.67477693 0.67567604 0.67653211 0.67753776 0.68141296 0.68515937 0.6869059 0.68957753 0.69034155 0.69027149 0.6918847 0.69390521 0.69525939 0.69948224 0.70091432 0.70528371 0.70873595 0.7117481 0.71560513 0.71922948 0.7267408 0.72861409 0.73044728 0.73088339 0.73221246 0.73342173 0.73495797 0.73754048 0.73941449 0.73840135 0.7353237 0.73675445 0.73466837 0.73508516 0.73246584 0.73098616 0.72837461 0.72633703 0.72580946 0.72575767 0.72109798 0.71970912 0.71895266 0.71425434 0.71062386 0.71009064 0.70733464 0.70453592 0.7028088 0.70123976 0.70041343 0.69768309 0.69400663 0.69462477 0.69273497 0.69186785 0.69205136 0.68890432 0.68698568 0.68428823 0.6805407 0.68163823 0.68090661 0.68010794 0.6815816 0.6797747 0.67931113 0.68064373 0.68155847 0.680423 0.67809753 0.67553476 0.67405405 0.67789768 0.67699731 0.67743003 0.67950214 0.68143586 0.68240821 0.68367159 0.68218565 0.68632946 0.68987893 0.68972049 0.69023146 0.69499892 0.69566451 0.69770627 0.70031248 0.69962596 0.69698992 0.69336916 0.69173168 0.69202337 0.68822181 0.6853253 0.68225483 0.68452586 0.68647947 0.68556502 0.68278714 0.68439117 0.68631688 0.68599733 0.68550262 0.68790628 0.6887398 0.68802911 0.69011259 0.68820376 0.68646214 0.68586896 0.68508693 0.68587104 0.68801028 0.69089729 0.69259468 0.69206247 0.69105503 0.68859593 0.68792899 0.68559442 0.6818848 0.67898305 0.67537609 0.67244465 0.66719398 0.66253083 0.65800357 0.65513518 0.65362474 0.65056264 0.6485604 0.64650639 0.64003719 0.63760221 0.63136843 0.63036366 0.62808588 0.62749768 0.63050882 0.63151029 0.63175283 0.63158772 0.62876605 0.62849857 0.6301347 0.62923865 0.63011515 0.632511 0.63316549 0.63232863 0.63220416 0.63404347 0.63608177 0.63716947 0.63755032 0.63692083 0.63111542 0.62821649 0.62134303 0.61730783 0.61061457 0.60573842 0.6000757 0.59224273 0.58444348 0.57613098 0.56576221 0.55609226 0.54588939 0.53959028 0.53164881 0.52623001 0.5192181 0.51307502 0.50437777 0.49603406 0.4870875 0.47837766 0.46989411 0.46217074 0.45617061 0.45032439 0.44467604 0.43806276 0.43027771
0.68219602 0.68218103 0.6846933 0.68846574 0.69042767 0.69066359 0.68850122 0.68872005 0.68982385 0.68789521 0.687426 0.68865506 0.68834957 0.68945864 0.68995886 0.68931531 0.6884148 0.68963591 0.68687719 0.68657716 0.68742619 0.68948704 0.68942565 0.68619138 0.68386391 0.68350246 0.68290455 0.68110498 0.67757691 0.67432724 0.67217241 0.67036836 0.66830315 0.66727371 0.6641907 0.66178291 0.66156551 0.66050416 0.65937661 0.6546164 0.65123982 0.64812558 0.64148245 0.63763487 0.63445268 0.62918821 0.62396623 0.61894461 0.6181975 0.61633952 0.61450386 0.61407248 0.61036014 0.60670316 0.6058257 0.60562255 0.60800605 0.60799298 0.6104462 0.6151246 0.61844035 0.6213423 0.62270194 0.62384693 0.62407909 0.62753501 0.63269557 0.636889 0.63598898 0.63803698 0.63994861 0.64417157 0.64274253 0.64491314 0.64505066 0.6441964 0.64658028 0.64993605 0.65308312 0.65575931 0.65694762 0.65917885 0.65948355 0.66148593 0.66499149 0.66781906 0.668621 0.6708754 0.67219349 0.67419151 0.67885859 0.68069312 0.68574126 0.68893182 0.69096312 0.69299987 0.6928979 0.69608297 0.69673162 0.69797864 0.70302746 0.70694048 0.71050867 0.71416133 0.71952498 0.7210681 0.72652738 0.73207758 0.7355342 0.73545012 0.73770204 0.7391062 0.73692353 0.74065036 0.74221966 0.74240638 0.74082788 0.74032352 0.73853514 0.74009871 0.7380628 0.73602375 0.73280793 0.72994297 0.72895375 0.72890739 0.72956789 0.72670774 0.72502056 0.72199773 0.719488 0.71349476 0.71041453 0.7093212 0.70834627 0.70651995 0.70479874 0.70342786 0.69838672 0.69810753 0.69512554 0.69275986 0.69162578 0.69101063 0.69049395 0.6882572 0.68622319 0.68537899 0.68340055 0.68256936 0.68117878 0.6821973 0.68047479 0.67923173 0.67814939 0.67980594 0.67824368 0.67638906 0.6735501 0.67374145 0.67445973 0.67532941 0.67572457 0.67672615 0.67994196 0.68021612 0.68187426 0.68328878 0.68383032 0.68374334 0.68703334 0.68712333 0.69134132 0.69323018 0.69720997 0.69884052 0.6968721 0.69504156 0.69181855 0.68942106 0.68699165 0.68673304 0.68158511 0.67964073 0.68001392 0.68267772 0.6835625 0.68405361 0.6837624 0.68632849 0.68630331 0.68513196 0.68687056 0.68877516 0.68835651 0.68839349 0.68791478 0.68535473 0.68514748 0.68548248 0.68686629 0.6889313 0.6914055 0.6912324 0.69227036 0.69154095 0.68970246 0.68780844 0.68567768 0.68206323 0.6798675 0.67508517 0.67066079 0.66695972 0.66079925 0.66009629 0.65558193 0.65252964 0.65132316 0.64850254 0.64962731 0.6426383 0.63753478 0.63495295 0.63186392 0.62935913 0.63011926 0.63293604 0.63558875 0.63089933 0.63052072 0.62899146 0.63079784 0.63146791 0.63074793 0.6337061 0.6350479 0.63593041 0.63283133 0.6329903 0.63501027 0.63651675 0.64133062 0.64339701 0.6439461 0.63687453 0.63339991 0.62711067 0.61864182 0.61379185 0.6054028 0.6014453 0.59492323 0.58575792 0.57573068 0.56498373 0.55376447 0.54676053 0.53824708 0.53083762 0.52588489 0.51935854 0.51178206 0.50251751 0.49550857 0.48550032 0.47639347 0.46772695 0.45878735 0.452483 0.44614028 0.43988053 0.43325187 0.42649208
0.67594236 0.67515376 0.67871924 0.68165132 0.68284154 0.68348504 0.68538352 0.68621712 0.68631634 0.68501939 0.68567576 0.68685168 0.68527134 0.68615989 0.68466734 0.68505031 0.68586064 0.68657976 0.68570278 0.68581535 0.68639221 0.68886694 0.68912466 0.685853 0.68325827 0.68101735 0.68031264 0.67844517 0.67534976 0.67314382 0.67085679 0.6692796 0.66732526 0.66436224 0.66364762 0.66087163 0.65856035 0.65740589 0.65429795 0.65230491 0.6478313 0.64397115 0.63999268 0.63594507 0.63094481 0.62595711 0.61942639 0.61603144 0.61456449 0.61200529 0.60799993 0.60348001 0.6006725 0.59917908 0.59806383 0.59887488 0.59842874 0.6023558 0.60235945 0.60792381 0.61031402 0.61306789 0.61425643 0.61538371 0.61795997 0.61954054 0.62539816 0.62658293 0.62851242 0.63115268 0.63287057 0.63448865 0.63687443 0.63874321 0.63936367 0.64006802 0.64005954 0.6418802 0.64498197 0.64890024 0.65074879 0.6519403 0.65424282 0.65621283 0.66122074 0.66421924 0.66569559 0.66884386 0.67171711 0.67456162 0.67973301 0.68186581 0.68722302 0.68918809 0.69135803 0.69216382 0.69523765 0.69885653 0.69981856 0.70379031 0.70684013 0.71145581 0.7142938 0.72059049 0.72453032 0.72800275 0.73067699 0.73649116 0.73917069 0.74267004 0.74342452 0.74303558 0.74099245 0.74220134 0.74618777 0.74809767 0.74421044 0.74263887 0.74456498 0.74296234 0.7389488 0.73791111 0.73746605 0.73528041 0.7335941 0.73113117 0.73278122 0.735252 0.72822349 0.72602727 0.72225229 0.71556508 0.71203385 0.71083289 0.71259313 0.71180926 0.70970835 0.70547766 0.70160517 0.6989529 0.69529761 0.69366407 0.69226155 0.69137458 0.68990937 0.68811356 0.68750889 0.68668109 0.68361498 0.68387677 0.68404962 0.6836648 0.67984677 0.67749891 0.67881115 0.67967864 0.67434521 0.67147881 0.67227131 0.67332934 0.67073769 0.67077882 0.67203754 0.67591228 0.67514277 0.67818601 0.67834684 0.67863583 0.6809982 0.67987055 0.6818358 0.6857507 0.68969397 0.69345923 0.69458004 0.69464168 0.69208877 0.69252846 0.6901445 0.68644302 0.68787956 0.68553672 0.68057093 0.67698233 0.67973377 0.6774965 0.68188161 0.6847509 0.68381107 0.68516511 0.6849239 0.68684657 0.68881087 0.68755612 0.68919109 0.68863128 0.68900948 0.68723861 0.68682421 0.685931 0.68727183 0.69110508 0.69103576 0.69217341 0.69121629 0.69079561 0.68970174 0.68864786 0.68580165 0.68144435 0.67847515 0.6743758 0.66954823 0.66751364 0.66386509 0.66113382 0.6593763 0.65585922 0.65363215 0.65144224 0.6505507 0.64789094 0.64388111 0.63793891 0.63503294 0.63404868 0.63403217 0.6316819 0.63231284 0.63103011 0.63074485 0.63209033 0.63117168 0.63327411 0.63292094 0.63578055 0.6385692 0.63760252 0.63530628 0.63697911 0.63815864 0.64024081 0.64069023 0.64465622 0.64512614 0.64120932 0.6338588 0.62954205 0.62280692 0.61435127 0.60986202 0.60263747 0.5955832 0.58611348 0.57704437 0.56646842 0.55681391 0.54696868 0.539656 0.53169218 0.5236321 0.51707095 0.51009953 0.50126221 0.49312205 0.48365772 0.4739776 0.46457567 0.45665085 0.44899956 0.44213737 0.43543482 0.42958559 0.42423436
0.66854019 0.66927411 0.67034628 0.67569545 0.67633201 0.67836799 0.68040824 0.68210302 0.6850953 0.68416542 0.68167815 0.68222118 0.68490148 0.68209848 0.68099581 0.6834489 0.68519825 0.6848636 0.6827902 0.68270585 0.68308378 0.68553983 0.68818725 0.6846632 0.68081326 0.67921657 0.67621457 0.67612856 0.67382625 0.67180381 0.67021718 0.66790027 0.66662051 0.66282487 0.66092656 0.65895073 0.65704923 0.65500974 0.65184593 0.64767611 0.6466572 0.64163436 0.63700583 0.63348023 0.62761414 0.62357191 0.61877533 0.61368117 0.61153273 0.6075896 0.60241639 0.59769296 0.59554854 0.59268563 0.59064531 0.59006159 0.58999936 0.59307863 0.59602675 0.60105498 0.60380197 0.60553417 0.60792842 0.61001066 0.61125204 0.61324959 0.61634364 0.6203358 0.62146532 0.62582299 0.62800849 0.62770777 0.63052142 0.6325591 0.63090008 0.63106939 0.63370987 0.63588484 0.63777524 0.64103705 0.645201 0.6483992 0.64963671 0.6533796 0.65560935 0.65941087 0.66326689 0.6659808 0.67053998 0.67680298 0.68032111 0.68496926 0.68808472 0.68964056 0.69302286 0.69554188 0.69632816 0.69945274 0.70142102 0.70407731 0.70959351 0.7133267 0.71820404 0.72117617 0.72659876 0.73059513 0.73475277 0.74033436 0.74428675 0.74304782 0.74333122 0.74630715 0.74607334 0.7464424 0.74909178 0.7485104 0.74597558 0.74504043 0.74638863 0.74443694 0.74112895 0.74136636 0.73738815 0.7359412 0.73571944 0.73653942 0.73601325 0.73564879 0.73251854 0.72964878 0.72412394 0.71770636 0.71466027 0.71497427 0.71391908 0.71344567 0.71008579 0.70612408 0.70260669 0.70105486 0.69729677 0.695855 0.69277426 0.69268485 0.68996844 0.68984112 0.68651417 0.68690813 0.68609704 0.68475421 0.68329677 0.6816355 0.67915331 0.67823572 0.67630583 0.67583192 0.6729512 0.67053424 0.66873508 0.67033639 0.67003381 0.67036541 0.6708002 0.67192864 0.67289767 0.67431416 0.67553366 0.67473728 0.67524403 0.67676564 0.68114406 0.6842758 0.68680029 0.69007778 0.69120669 0.69093371 0.6914519 0.69023732 0.68860599 0.68775725 0.68693661 0.68307754 0.67979129 0.676907 0.67744495 0.68132654 0.68057125 0.68204799 0.6848917 0.68627851 0.68700589 0.68620501 0.6882281 0.68756454 0.68943812 0.68998861 0.68986368 0.68748888 0.68846147 0.68802343 0.68783223 0.69232748 0.69217125 0.69269033 0.69112395 0.69028683 0.68997434 0.68843068 0.68603762 0.68309389 0.67856116 0.67445886 0.6716972 0.667388 0.664085 0.663355 0.66081989 0.65753176 0.65657538 0.65510254 0.65531278 0.65214118 0.6478437 0.64207617 0.63693694 0.6350068 0.63400255 0.63225905 0.6312239 0.63182955 0.63058792 0.63132068 0.63462153 0.63403469 0.63426645 0.63613232 0.64089196 0.64094801 0.63928439 0.63931026 0.63977898 0.64338211 0.6430721 0.6450006 0.64727138 0.64400354 0.63776376 0.62944356 0.62369566 0.61768252 0.61330092 0.60612776 0.59860886 0.58937505 0.57643833 0.56629508 0.55670844 0.5487742 0.54056238 0.53236184 0.52310515 0.51453847 0.50675007 0.49944384 0.49102958 0.48088238 0.47146193 0.46286559 0.45372109 0.44606651 0.43895151 0.43280847 0.42628521 0.42238101
0.66580756 0.66746556 0.66724292 0.6688573 0.67103893 0.67406948 0.67793528 0.67834956 0.68080176 0.68054437 0.67892682 0.68021258 0.68141067 0.67912472 0.68123141 0.68196197 0.6837696 0.68159661 0.68290924 0.68154483 0.68200841 0.68198177 0.68308366 0.68230221 0.67970596 0.67646874 0.67456462 0.67408387 0.67383575 0.670246 0.66678708 0.66475791 0.6641515 0.66338943 0.66180904 0.65907364 0.65639477 0.65508978 0.65291967 0.64880382 0.64379074 0.64056894 0.63379948 0.63065859 0.62652827 0.62001961 0.61688792 0.61190279 0.60698332 0.6035389 0.59716835 0.59138274 0.58660054 0.58528464 0.58241072 0.58246069 0.58297416 0.5872048 0.59016189 0.59432433 0.59631185 0.59600761 0.5982263 0.59806775 0.60197412 0.60421189 0.60849547 0.60975858 0.61446883 0.61568447 0.61993191 0.61948603 0.6224659 0.62287611 0.62483601 0.6259361 0.62841106 0.63019737 0.63316158 0.63848092 0.64147424 0.64393157 0.64551812 0.64989826 0.65093863 0.6543615 0.66032932 0.66650837 0.67116227 0.67686624 0.6811803 0.68813981 0.69144676 0.69351284 0.69353217 0.69798113 0.69897662 0.70056548 0.70371048 0.70815197 0.71107529 0.71428597 0.71979175 0.7228172 0.73000174 0.73360905 0.74060158 0.74602817 0.74877211 0.74614393 0.74612582 0.74676923 0.74962137 0.75033921 0.74891463 0.74823351 0.74676047 0.74872465 0.74903616 0.74547403 0.74413743 0.7420057 0.7417696 0.7380273 0.73766787 0.73924454 0.73896127 0.73746503 0.73505003 0.73114523 0.72605782 0.71932656 0.71778741 0.71642062 0.71407309 0.71335287 0.70901696 0.70649309 0.70356823 0.7028739 0.69757354 0.69574795 0.6952005 0.69294976 0.69026281 0.69061602 0.68687403 0.68484876 0.68576932 0.68560142 0.68273678 0.68061062 0.67984966 0.67940233 0.67620203 0.67070662 0.67165703 0.6707883 0.66882789 0.6658432 0.66719746 0.66925429 0.66923663 0.66841241 0.67022076 0.66890851 0.67175234 0.67207711 0.67650397 0.67655703 0.68282798 0.68608724 0.68739514 0.68660557 0.69035376 0.68930328 0.68913107 0.68733408 0.68914801 0.68686474 0.68562568 0.6821013 0.67970759 0.67720425 0.68124901 0.68316103 0.68418864 0.6817463 0.68383607 0.68825457 0.68885972 0.68761513 0.6888942 0.68928393 0.68962324 0.68895724 0.68946915 0.68967204 0.68898302 0.68773466 0.69177113 0.69330012 0.69328351 0.69300442 0.69185068 0.6902511 0.69008834 0.68924971 0.68771343 0.68502641 0.68075321 0.67676267 0.67464076 0.67065018 0.66829647 0.66291328 0.66055757 0.65887987 0.65640261 0.65535301 0.65719458 0.65377963 0.64918633 0.64596192 0.64180455 0.64021707 0.63431544 0.63402605 0.63389262 0.63229407 0.63209018 0.63191228 0.63608368 0.63723357 0.63897671 0.64028896 0.6451094 0.64322994 0.64502769 0.64612872 0.64546073 0.64832809 0.64880414 0.64803438 0.64706615 0.6444922 0.63967334 0.63215389 0.62886866 0.62106737 0.61588182 0.60908471 0.60138878 0.5917877 0.57857467 0.5677458 0.55746496 0.54941568 0.53879481 0.53121973 0.52147386 0.51417172 0.50671825 0.49800223 0.48961185 0.47937624 0.46950521 0.46009388 0.451631 0.4451211 0.43900152 0.43201631 0.42548799 0.42171477
0.66432551 0.66436971 0.66379863 0.66622188 0.66621338 0.66972691 0.673818 0.67419659 0.67870807 0.68003383 0.67852298 0.67617646 0.67730008 0.67609095 0.67722174 0.67872217 0.680244 0.67868905 0.67850986 0.67961965 0.68114479 0.68060592 0.67914989 0.67827325 0.67726684 0.67468284 0.67289761 0.67168977 0.67110899 0.6683585 0.66610088 0.66311302 0.66250517 0.66087386 0.66162283 0.65939718 0.65686229 0.65366666 0.65024228 0.6474155 0.64367927 0.63780318 0.63389852 0.62702645 0.62488846 0.61996857 0.6146556 0.60969728 0.6033851 0.59687966 0.59146547 0.58473523 0.579213 0.57664795 0.57641017 0.57252316 0.57690514 0.58070448 0.58400609 0.58705789 0.58970897 0.59026822 0.59123136 0.58921722 0.59254706 0.59896796 0.60047655 0.60120384 0.60598366 0.6092627 0.61000207 0.61223014 0.61336552 0.61489749 0.61800816 0.62326886 0.625701 0.62723606 0.63085775 0.63333172 0.63537846 0.64098442 0.64399251 0.6452448 0.64824933 0.65100789 0.65776092 0.66331264 0.67103955 0.67825602 0.68523601 0.69018814 0.69095384 0.69211417 0.69557422 0.69677592 0.70060197 0.7027574 0.70538896 0.70887761 0.71236147 0.71621176 0.72034509 0.72433883 0.73156263 0.73764915 0.74299305 0.74992143 0.7518004 0.75034205 0.75030082 0.75214424 0.75029974 0.75047575 0.75154398 0.74939563 0.75008159 0.75083349 0.74815275 0.75039643 0.74672241 0.74584832 0.74182245 0.74278751 0.74213071 0.74006764 0.74102345 0.74101544 0.73651911 0.73408327 0.72543126 0.72200131 0.7187338 0.71762782 0.71495565 0.71377178 0.70931293 0.70855633 0.70595804 0.70511452 0.700291 0.69909031 0.69552111 0.69503821 0.69171706 0.68932436 0.68814845 0.68814975 0.68636392 0.68503927 0.6837222 0.68117902 0.68026946 0.67645104 0.67506045 0.67338316 0.66943787 0.6695435 0.6673965 0.66500295 0.66691592 0.66933755 0.66938983 0.66730058 0.66890262 0.66974664 0.67378584 0.67344833 0.67639316 0.67776223 0.68123379 0.68623359 0.68590005 0.68970155 0.6905266 0.69086072 0.68771281 0.68771388 0.68767101 0.68680036 0.68501084 0.68203298 0.67987604 0.67860832 0.68082851 0.68431527 0.68559145 0.68745669 0.687136 0.68996382 0.69160768 0.69060602 0.69160883 0.69212079 0.69277471 0.69231239 0.69125227 0.69278913 0.69098388 0.6922242 0.6926173 0.69381442 0.6927154 0.69093076 0.6905048 0.68982281 0.69187287 0.6911793 0.68702812 0.68565939 0.6824376 0.67780103 0.67715969 0.67513028 0.67127908 0.6670843 0.66085423 0.65873253 0.65746219 0.65582788 0.65874034 0.65360813 0.65001021 0.65065506 0.64985011 0.64465002 0.63673973 0.63669006 0.63154554 0.63184469 0.63193029 0.63235127 0.63459836 0.63737301 0.6393581 0.64517841 0.64868542 0.6475208 0.64955095 0.64959077 0.65094057 0.65012727 0.65298327 0.65241063 0.64715283 0.6446471 0.63960042 0.6349458 0.63433899 0.62347904 0.61582114 0.61002618 0.60383907 0.59390238 0.58305177 0.57074434 0.55885401 0.54975394 0.53818865 0.52965627 0.51917942 0.51250088 0.50402639 0.49617988 0.48783841 0.4783358 0.46720417 0.45891905 0.45099846 0.4447481 0.43858022 0.43122106 0.42528623 0.42147984
0.65958047 0.65894306 0.6603 0.66060068 0.66496962 0.66736373 0.6704038 0.67317672 0.67505216 0.67610255 0.67703124 0.67581862 0.67598263 0.67389264 0.67362562 0.67514707 0.67822409 0.67816692 0.67738923 0.67891396 0.67818861 0.67759472 0.67687972 0.67527225 0.67571631 0.67485288 0.67301525 0.6713303 0.66789914 0.66627719 0.66494663 0.66160151 0.66133414 0.66002615 0.65952379 0.65761665 0.65571373 0.65156873 0.64935448 0.64619085 0.64198137 0.63549592 0.63048127 0.62589469 0.62072126 0.61591446 0.60965687 0.60491419 0.59907627 0.59133436 0.58753177 0.58052161 0.57545751 0.57267445 0.57045912 0.56614108 0.56753457 0.57127989 0.57626769 0.57844424 0.58155016 0.58044607 0.58088786 0.58193355 0.58602359 0.58956889 0.59240679 0.59457211 0.59616809 0.60049129 0.60156565 0.60365817 0.60567985 0.6087097 0.61296148 0.61454454 0.61823162 0.62280929 0.62565555 0.6271275 0.63178825 0.63668619 0.63961981 0.64076161 0.64451592 0.64814552 0.65561723 0.66401119 0.66959833 0.67778843 0.68289324 0.69225332 0.69138954 0.69210748 0.69614644 0.70073087 0.70128938 0.70382121 0.7058182 0.70955946 0.71367101 0.71438293 0.71886667 0.72463955 0.73234338 0.73879198 0.74572121 0.75724877 0.75360579 0.7515543 0.75110162 0.75591571 0.75296375 0.75348342 0.75168172 0.749227 0.75058429 0.74869788 0.75188468 0.75535444 0.74993599 0.74992582 0.74765566 0.74333299 0.74216503 0.74060297 0.74278749 0.74583887 0.73942492 0.73665597 0.72778416 0.71930822 0.71715163 0.7148979 0.71464863 0.71226678 0.71015786 0.70849477 0.70556345 0.70452025 0.70231009 0.70090167 0.6976226 0.69458455 0.69346104 0.69052799 0.68944421 0.68991113 0.68650034 0.68454294 0.68157572 0.68076841 0.67939761 0.6755184 0.67578325 0.67288386 0.66888878 0.66807721 0.66618428 0.66577467 0.66365395 0.66690002 0.66883004 0.66823691 0.66782597 0.67047961 0.67433412 0.67825851 0.67769446 0.67630022 0.68082353 0.68561604 0.68814951 0.69033947 0.68982219 0.69135251 0.69111258 0.688585 0.68844216 0.68285372 0.6850158 0.68340447 0.68223656 0.67858798 0.68184925 0.68187005 0.68685657 0.68792201 0.69005868 0.69249382 0.69380281 0.6973377 0.69767446 0.69595642 0.69563262 0.69158755 0.69409277 0.69333502 0.69235145 0.69348253 0.69486636 0.69285435 0.69423901 0.69329053 0.69345146 0.69255632 0.69232277 0.69206519 0.68988512 0.68736709 0.68323578 0.68160132 0.68047579 0.67746163 0.67472932 0.66851404 0.66461577 0.66180351 0.65907639 0.65762535 0.65836599 0.65466002 0.65312424 0.6522368 0.6489515 0.64529737 0.63994704 0.63745346 0.63352166 0.63401425 0.63333466 0.63646236 0.63729679 0.63843615 0.64000329 0.64554264 0.64777539 0.65114387 0.6531236 0.65328439 0.65202642 0.65466486 0.65574359 0.65349866 0.65296415 0.64713164 0.64521444 0.64033606 0.63355369 0.627644 0.61919217 0.61113363 0.6037494 0.59262139 0.58159543 0.5720191 0.56102533 0.5486041 0.53937225 0.52817772 0.51867232 0.51050121 0.50089458 0.49333274 0.48596318 0.4764396 0.46624593 0.45833497 0.45121329 0.44514253 0.43820862 0.43182091 0.42552752 0.42176842
0.65672998 0.65680256 0.6546586 0.65693373 0.6593752 0.66512597 0.66700647 0.66870156 0.66916107 0.67298532 0.67520394 0.67416814 0.67286552 0.67133052 0.67257114 0.67518166 0.67648707 0.67624488 0.67460977 0.67404253 0.67544545 0.67369396 0.67087199 0.67296944 0.67388083 0.67227041 0.67045904 0.66864929 0.66786577 0.66424945 0.66159508 0.6595428 0.65736091 0.65736082 0.65604779 0.65581673 0.65277428 0.64981578 0.64743859 0.64571331 0.64166593 0.63512677 0.62875326 0.62290419 0.61846294 0.61202609 0.60662346 0.59890134 0.59454584 0.58874271 0.58489941 0.57806725 0.57414584 0.5693349 0.56511491 0.55928875 0.56143284 0.56491074 0.56878182 0.5729533 0.57509682 0.57433577 0.57337566 0.5742531 0.57771498 0.58252964 0.58599539 0.58607508 0.58916574 0.58945681 0.59258008 0.59766175 0.59850349 0.60359971 0.60572039 0.60823141 0.61228272 0.6177478 0.61902772 0.62255589 0.62704159 0.63095655 0.63582386 0.63880045 0.64331412 0.64737643 0.65348555 0.65932582 0.6671537 0.67570894 0.68158786 0.68612886 0.68768067 0.6914133 0.69378771 0.69946807 0.70273824 0.70333352 0.70757175 0.71012181 0.71328431 0.71705601 0.7214577 0.7278313 0.73330889 0.73844412 0.7480621 0.75191245 0.75304514 0.75085566 0.75138563 0.75250026 0.75449942 0.75433499 0.75407782 0.75251046 0.75204629 0.75292876 0.75060975 0.75270979 0.75240459 0.74829687 0.74848052 0.74754835 0.7456791 0.74501122 0.74368981 0.74497396 0.74029434 0.7356392 0.72824597 0.72417961 0.71896137 0.71949967 0.71656409 0.71439581 0.71024888 0.70917231 0.70787632 0.70549058 0.70268898 0.69945596 0.69666335 0.69417394 0.69383801 0.69087086 0.68917133 0.68830483 0.68735885 0.68306281 0.68230536 0.68211018 0.67872625 0.67700681 0.67598038 0.67335243 0.66879369 0.66760841 0.66545056 0.66327469 0.66148139 0.66400894 0.66488484 0.66812858 0.67069155 0.67205082 0.67652954 0.67951772 0.67816552 0.67931416 0.6820441 0.68153936 0.68485485 0.68587505 0.6896856 0.69188212 0.69292322 0.68898891 0.68727513 0.68407843 0.68235205 0.68168014 0.68191659 0.68021772 0.68188216 0.6829582 0.68435956 0.68580405 0.69049248 0.6948325 0.69896924 0.70085121 0.70044426 0.69733723 0.69715162 0.69674627 0.69474223 0.69335784 0.69274816 0.69327369 0.69439233 0.69385702 0.69442814 0.69542638 0.69566726 0.69584066 0.69318349 0.69322676 0.69265369 0.68935481 0.68415027 0.68156496 0.68211559 0.6775703 0.67626401 0.67174154 0.66513743 0.66368543 0.65908202 0.66015501 0.66137195 0.659508 0.65615828 0.65026412 0.64650785 0.6451838 0.64313746 0.63849452 0.63796616 0.63410319 0.63314568 0.63595404 0.64008292 0.63926826 0.64112907 0.64567837 0.65260397 0.65275619 0.65481447 0.65471754 0.65702854 0.65858333 0.65947799 0.6568123 0.65615858 0.65156402 0.64880156 0.64228924 0.63725232 0.6294825 0.6215239 0.61047407 0.60172241 0.59337554 0.58418631 0.57221395 0.56262552 0.55130974 0.54013661 0.52968093 0.51777076 0.50938672 0.49894028 0.49095394 0.48342015 0.47520275 0.46669354 0.4586622 0.45233545 0.44522733 0.4387765 0.43197525 0.42647942 0.42205175
0.65525723 0.65546865 0.65386276 0.65799233 0.65816905 0.66334147 0.66280001 0.66546732 0.66788749 0.66965546 0.67253408 0.67112175 0.67323212 0.67105215 0.6715656 0.67290727 0.67280757 0.67232142 0.6718476 0.6736157 0.67375907 0.67230571 0.67073625 0.67133802 0.67231468 0.67322643 0.671497 0.66752177 0.66426959 0.66221462 0.66050408 0.658484 0.65615237 0.65661967 0.65510591 0.65270285 0.65038039 0.64702007 0.64623212 0.64282413 0.63823768 0.63204078 0.62531854 0.6201248 0.61407252 0.61014814 0.60453157 0.59770927 0.59162936 0.58615973 0.57968562 0.57713096 0.57091433 0.56403817 0.55898856 0.5535179 0.5539184 0.55744747 0.562353 0.56582457 0.56719452 0.56607908 0.56751404 0.57159016 0.57404148 0.57596962 0.57973617 0.58051495 0.58172535 0.58505531 0.58456804 0.58821267 0.59361075 0.59501205 0.5996706 0.60181436 0.60723674 0.61153089 0.61666432 0.61936367 0.62486982 0.62892018 0.63072987 0.63455076 0.64015793 0.64651314 0.65265243 0.66125831 0.66682668 0.67315143 0.67753238 0.68273237 0.68649328 0.68975341 0.6940357 0.69871976 0.7018708 0.70566838 0.70782319 0.70705172 0.7108741 0.71741448 0.72429203 0.72813789 0.73462977 0.73906638 0.74585371 0.75147527 0.75039315 0.7511134 0.75192611 0.75048263 0.75483619 0.75501824 0.75549295 0.75485517 0.75402625 0.7524097 0.75083366 0.75088804 0.75061703 0.74735303 0.74942541 0.74871926 0.74690675 0.74759826 0.74613177 0.74453461 0.73963187 0.73456003 0.72904042 0.72530511 0.72410033 0.72050411 0.71871072 0.71460979 0.71466185 0.71072773 0.70982072 0.70462141 0.70344795 0.70075075 0.69884097 0.69500156 0.69368842 0.69153442 0.68912114 0.68684755 0.68581095 0.68435028 0.68385755 0.68371135 0.68105453 0.67961447 0.67704731 0.67602083 0.67055223 0.66599984 0.66266777 0.6594612 0.65942763 0.66159094 0.66503012 0.66958667 0.67064878 0.66957418 0.67711755 0.68222729 0.67745999 0.68033864 0.67887515 0.68002021 0.68393488 0.68505388 0.68846794 0.69653852 0.69206753 0.68801024 0.68783922 0.68735981 0.68174743 0.68163425 0.68140949 0.67810731 0.68437674 0.68667482 0.68714701 0.68754027 0.68998811 0.69280347 0.69875171 0.70523439 0.70235457 0.70142602 0.69867936 0.69858098 0.6956933 0.69647904 0.69495714 0.69362107 0.69620437 0.69525472 0.6961808 0.69708644 0.69747992 0.69772235 0.69647011 0.69638714 0.69418748 0.69001763 0.68749915 0.68365573 0.6844419 0.67898027 0.67521866 0.67338689 0.66814474 0.66411313 0.66121688 0.66146169 0.65873771 0.65871883 0.65618716 0.6528193 0.64619476 0.64239599 0.63941457 0.63947267 0.63861625 0.6358789 0.63772379 0.6387579 0.64003422 0.64127909 0.64392636 0.64879915 0.65093601 0.65401462 0.65698088 0.65881094 0.65857033 0.65827954 0.6591078 0.66129902 0.66263491 0.65878209 0.65393355 0.64621665 0.63973527 0.63015028 0.61970958 0.6117787 0.60306343 0.59376128 0.58475033 0.57346357 0.56274681 0.55256699 0.54073934 0.52877227 0.51680125 0.50739951 0.49781773 0.48927492 0.48159132 0.47275955 0.46561052 0.45905021 0.45298588 0.44690297 0.44009577 0.43324017 0.42741236 0.42331616
0.65068593 0.65430606 0.65456109 0.65553805 0.65926243 0.65988986 0.66305815 0.66517371 0.66612498 0.66849303 0.67142035 0.671783 0.67114058 0.67227163 0.67359846 0.6728047 0.67200844 0.67143083 0.67280049 0.6724775 0.67159317 0.67213898 0.67113229 0.67035967 0.67274607 0.67109805 0.66944496 0.66714946 0.6640998 0.6592313 0.65639316 0.65520435 0.657158 0.65581969 0.65378184 0.65195503 0.64851677 0.64560967 0.64411672 0.64228572 0.6357784 0.62951734 0.62186779 0.6164815 0.61322958 0.60800769 0.60311693 0.5952843 0.58750692 0.58226021 0.57960888 0.57578679 0.56987122 0.56232889 0.5562179 0.54463433 0.55147648 0.55424214 0.55655286 0.55907973 0.56077725 0.56165661 0.5630522 0.56517287 0.56854633 0.57057794 0.5757018 0.57708175 0.57833496 0.58092632 0.57819667 0.5775119 0.58802047 0.59182136 0.59554992 0.59841344 0.60340309 0.61122781 0.61263823 0.61740445 0.62141571 0.62461161 0.62781445 0.63232067 0.63690838 0.64684808 0.65276455 0.6609854 0.66413169 0.66957926 0.67503008 0.68069156 0.68475402 0.69025539 0.69302552 0.69892448 0.7017162 0.7050017 0.70735731 0.70872711 0.71171125 0.71863139 0.72441215 0.73036945 0.73468656 0.73804419 0.74225629 0.74815933 0.74925466 0.74838122 0.75007073 0.74996402 0.75121743 0.75105519 0.75368518 0.75487278 0.75115318 0.75161019 0.75054144 0.74849738 0.749778 0.75105737 0.75038794 0.75194315 0.75133135 0.75032425 0.74669389 0.74485433 0.74134564 0.73493647 0.7318999 0.72996972 0.7276941 0.72602452 0.72306572 0.71967259 0.71749372 0.71533678 0.71143239 0.7088934 0.70534497 0.70345132 0.70038612 0.69842853 0.69578842 0.6923254 0.6897541 0.68778696 0.68414785 0.68458143 0.6827943 0.68063566 0.68000758 0.67911011 0.67473613 0.67411304 0.670355 0.66779378 0.66491973 0.66305474 0.66264857 0.66263284 0.66493426 0.6662509 0.67069657 0.67165765 0.67473683 0.67651858 0.67712206 0.67526977 0.67744953 0.67822651 0.6825225 0.6853235 0.68851991 0.69388049 0.69073553 0.68561055 0.6852733 0.68600203 0.68291729 0.6812632 0.68055548 0.68027737 0.68379744 0.68390192 0.68699272 0.68971317 0.69155716 0.69700228 0.70006523 0.7038728 0.70059542 0.69857458 0.69730788 0.69534951 0.69633476 0.69644922 0.69862064 0.6991631 0.69869056 0.69878975 0.69886882 0.70105461 0.69951568 0.69903247 0.6982011 0.69838666 0.69759528 0.69113791 0.68764647 0.68557651 0.68734999 0.67999382 0.67538611 0.67342471 0.67121882 0.66584065 0.66250432 0.66161028 0.65990022 0.65901855 0.65846575 0.65384095 0.64770032 0.64487103 0.64044694 0.64006973 0.63504866 0.63913143 0.63785045 0.64059676 0.63989698 0.6431264 0.64425428 0.64803172 0.6523894 0.65711735 0.65998788 0.66044501 0.65703153 0.65957397 0.66246161 0.66716877 0.67195306 0.66317646 0.65688646 0.64788145 0.63979557 0.63058249 0.62006121 0.61226809 0.60365918 0.59199038 0.58301085 0.57164867 0.56129043 0.5526746 0.54084768 0.52839294 0.51468996 0.50610069 0.49845505 0.48817995 0.47931688 0.47102455 0.4639193 0.45781714 0.45273978 0.44785284 0.44117588 0.435006 0.42900549 0.42445304
0.65056364 0.65117632 0.65245807 0.65678302 0.65698056 0.66046678 0.66178092 0.660288 0.66439538 0.66862437 0.66969825 0.67184498 0.67237063 0.67579785 0.67770394 0.67486184 0.6746151 0.67161415 0.67053482 0.67107905 0.67066461 0.67086668 0.67150557 0.67065455 0.67186227 0.67060867 0.66855181 0.66601991 0.66249894 0.65915644 0.65552002 0.65349621 0.65591488 0.65433271 0.65251063 0.65020858 0.64735411 0.64548265 0.64297934 0.63989338 0.63482238 0.62851801 0.62089458 0.61557735 0.61184354 0.60613982 0.60121813 0.59389635 0.58669372 0.58297324 0.57824495 0.57275226 0.56794767 0.56029635 0.55519668 0.54946564 0.5485982 0.55345363 0.55433521 0.55678884 0.56024621 0.56117483 0.56279783 0.56372591 0.56712509 0.56828362 0.57077797 0.5760896 0.57754846 0.57801686 0.57799942 0.58172194 0.58395861 0.58734741 0.59285081 0.59599332 0.60293777 0.60741949 0.61052795 0.6152752 0.61849467 0.622351 0.62684829 0.6304116 0.63594564 0.64469254 0.64934035 0.65734355 0.66334733 0.66830206 0.6701479 0.67595165 0.68023563 0.68673418 0.69163606 0.69871412 0.7000142 0.70503417 0.70745687 0.70672304 0.71319593 0.71884907 0.72447022 0.73045963 0.73111883 0.73469642 0.74112872 0.74908481 0.74871137 0.74656548 0.74776268 0.74291674 0.74977288 0.75104958 0.75197861 0.75313868 0.75139814 0.74837498 0.74886533 0.74871285 0.74929398 0.75207463 0.75084835 0.75362862 0.75020974 0.74794793 0.74887249 0.74687963 0.74272808 0.73585297 0.73699832 0.73520553 0.72990136 0.72746391 0.7261344 0.7241773 0.71945999 0.71571466 0.71244625 0.70867029 0.70640679 0.7019757 0.70170825 0.70145174 0.69660292 0.69172383 0.68855471 0.68534879 0.6828676 0.68165922 0.68045629 0.67794667 0.67842627 0.67818921 0.67358791 0.67127568 0.67034442 0.66722497 0.66530776 0.66438076 0.66572536 0.66322233 0.66615297 0.6676645 0.67044648 0.67059426 0.67149581 0.6762053 0.67398727 0.67429666 0.67677693 0.68071538 0.68130264 0.68332721 0.68737057 0.69199372 0.68992009 0.68597931 0.68515732 0.68510215 0.6818721 0.68261858 0.67981931 0.6803166 0.68253865 0.68423345 0.68655608 0.69065437 0.69278657 0.69571592 0.70001579 0.70283231 0.70091764 0.69790428 0.69881843 0.6949812 0.69674451 0.69624193 0.6975398 0.700775 0.69884904 0.70052236 0.7002969 0.70316597 0.70009514 0.6998298 0.69933396 0.70028556 0.69829656 0.69365437 0.69151026 0.68685611 0.68523109 0.68155318 0.67595007 0.67134325 0.66909023 0.66661855 0.66267116 0.66201194 0.66056898 0.65975311 0.65731769 0.65486574 0.64750893 0.64440082 0.64254468 0.63873568 0.64003531 0.64153785 0.64337302 0.64386093 0.64499093 0.64918129 0.65141692 0.65288595 0.65542171 0.65682893 0.65765223 0.66122933 0.66214338 0.66402659 0.66581467 0.66703817 0.66648145 0.66414327 0.65536012 0.64828906 0.63940401 0.63159475 0.61973295 0.61322627 0.60435822 0.59272107 0.58225928 0.57154328 0.5611949 0.55179689 0.54103057 0.52829527 0.51562698 0.50689302 0.49825591 0.48889172 0.47979197 0.47067604 0.46431137 0.45919536 0.45345122 0.44793808 0.44208912 0.43460667 0.4292088 0.42411488
0.65094171 0.65129942 0.65534398 0.65501897 0.65712676 0.66022197 0.65893013 0.6624126 0.66167008 0.667353 0.67000209 0.67162962 0.67427056 0.67537938 0.68078895 0.67867109 0.67692034 0.67363547 0.66942571 0.66914106 0.66820321 0.66847049 0.67043381 0.6700177 0.66982603 0.66948316 0.67033279 0.66505811 0.66132929 0.65940383 0.65446481 0.65409556 0.6540039 0.65253523 0.65079979 0.64911763 0.64658054 0.64369544 0.64378194 0.63833989 0.63365466 0.62673375 0.62097786 0.61590339 0.61073068 0.60675669 0.59930866 0.59267233 0.58856294 0.58345082 0.57865082 0.57054774 0.56589607 0.5604747 0.5571699 0.55146508 0.55118075 0.55206587 0.55449042 0.55965132 0.55815681 0.55902514 0.55929362 0.56046732 0.56417915 0.56991352 0.57132145 0.57406894 0.57741882 0.57994424 0.57930931 0.58213878 0.58359417 0.58655073 0.59336155 0.59664956 0.59928723 0.60359253 0.60757544 0.61197664 0.61902511 0.6245346 0.62798962 0.62845978 0.63406373 0.64049265 0.64805837 0.65299465 0.65736602 0.66363574 0.66766425 0.67150961 0.67541128 0.68279191 0.68860698 0.6922727 0.69752509 0.69973165 0.70282949 0.70609249 0.71032499 0.7168846 0.72133447 0.72496747 0.73097361 0.73304996 0.7389144 0.74261377 0.74370228 0.74548009 0.74618474 0.7469925 0.7492223 0.75068139 0.7484587 0.7479094 0.7480925 0.7498016 0.7469023 0.7496185 0.7502594 0.7523652 0.7521211 0.7490997 0.7479399 0.7473601 0.7479705 0.74808024 0.74384538 0.73882499 0.73755855 0.73557536 0.72922218 0.72659685 0.72716762 0.72484306 0.71959839 0.71540453 0.71279642 0.70968563 0.70610417 0.70450671 0.70349262 0.70205347 0.6977114 0.69237937 0.68980766 0.68438315 0.68229106 0.68084059 0.67756282 0.67724739 0.67562675 0.67520653 0.67365768 0.67299581 0.66983011 0.669641 0.66774067 0.66869601 0.66776881 0.66575941 0.66659079 0.66768322 0.67081907 0.66957825 0.67030911 0.67248635 0.67075416 0.67336063 0.67258059 0.676555 0.6782335 0.6813465 0.684429 0.68684 0.6887322 0.6872673 0.6834829 0.6809803 0.6823232 0.6795764 0.6805225 0.6809497 0.68151675 0.68384793 0.68852048 0.69208226 0.69571415 0.69497661 0.69900317 0.70223007 0.70046793 0.6984112 0.69883537 0.69617775 0.69660129 0.69755791 0.69915325 0.69932991 0.70014521 0.70012399 0.70124953 0.70279982 0.70196424 0.70269858 0.70059915 0.69975237 0.69917586 0.69571993 0.69334199 0.68833374 0.68552863 0.68112422 0.67685485 0.67104287 0.66726876 0.66719043 0.66572661 0.66293864 0.65974312 0.65670435 0.6573738 0.6537113 0.65096451 0.64780901 0.64439218 0.6446459 0.642892 0.6460356 0.6488738 0.6500946 0.6548557 0.6546115 0.6542453 0.6563511 0.659403 0.6579381 0.6602881 0.6634316 0.6641641 0.66723232 0.67023852 0.66874278 0.66435834 0.66352084 0.6579855 0.64982039 0.63940081 0.62941466 0.62079604 0.61350015 0.60232283 0.59406628 0.58327779 0.57244864 0.56337265 0.55177512 0.54041547 0.529868 0.51679758 0.50949334 0.49900133 0.49083904 0.48070605 0.47200053 0.46638841 0.46088963 0.45509828 0.44855381 0.44227257 0.43563243 0.42980498 0.42499714
0.64783027 0.64836571 0.65272029 0.65540491 0.65832129 0.65775959 0.6618634 0.66250548 0.66409952 0.66594425 0.66766585 0.6692526 0.67383883 0.67463394 0.67634436 0.67655839 0.67518192 0.67175646 0.67137759 0.66872039 0.66911138 0.66840369 0.67008589 0.66994836 0.67088277 0.66832991 0.66903483 0.66574139 0.66260995 0.65822889 0.65560235 0.65470726 0.65348024 0.6522372 0.650677 0.64941423 0.64612995 0.64499637 0.64182326 0.63662428 0.63250782 0.62481559 0.61946532 0.61639699 0.61060107 0.60591 0.59977381 0.59142053 0.58608692 0.58013132 0.57706935 0.572204 0.56563698 0.56040796 0.55861188 0.55464861 0.55218289 0.55324297 0.55528671 0.55547085 0.55716923 0.55597399 0.55855099 0.55719003 0.56091125 0.56458494 0.56804244 0.57356859 0.57602825 0.57942857 0.58123528 0.58373912 0.58284012 0.5845419 0.5908487 0.59586454 0.59865864 0.60323025 0.6063189 0.61209198 0.61890751 0.6245021 0.62741678 0.62793361 0.63246576 0.63745085 0.64320194 0.64827212 0.65326046 0.65939901 0.66199681 0.66648019 0.67152206 0.67847766 0.68370397 0.68800144 0.69184339 0.69663263 0.70024402 0.70493137 0.71065211 0.71553375 0.71927517 0.7233695 0.7281762 0.73188612 0.73588886 0.73769778 0.74001949 0.74485168 0.74626163 0.74868346 0.75056457 0.74643481 0.7461698 0.7462614 0.7452542 0.7492523 0.7480925 0.7484587 0.7507172 0.7547153 0.7515107 0.7500153 0.7475126 0.7473295 0.7469938 0.74811074 0.74149943 0.73697784 0.73514062 0.73463228 0.72785719 0.72480376 0.72713793 0.72549908 0.72164049 0.7187817 0.71483164 0.71320013 0.70839594 0.70404045 0.7031436 0.70244597 0.69799559 0.6938505 0.68894417 0.68547086 0.68140837 0.67874995 0.67674638 0.67434126 0.67485349 0.6727457 0.6743848 0.67328447 0.67153334 0.67010572 0.6705465 0.67072854 0.66710901 0.66695122 0.6698588 0.67045315 0.67042176 0.66761667 0.66962872 0.6691479 0.66864771 0.66821072 0.67144538 0.672679 0.6792407 0.6815602 0.6842154 0.6867484 0.687542 0.6845511 0.6823842 0.6768907 0.6780199 0.6773485 0.6775926 0.6791491 0.68209385 0.68278132 0.68952862 0.69473841 0.69702518 0.69584471 0.69900553 0.70126188 0.69818201 0.69738745 0.6981519 0.69933106 0.69870496 0.69858328 0.70158629 0.70295288 0.70241971 0.70217086 0.70399119 0.70451707 0.70611494 0.70347687 0.70373351 0.7024452 0.69887618 0.69708509 0.69110431 0.68825445 0.6837646 0.68063388 0.67487701 0.67267885 0.66622613 0.66414959 0.66352999 0.6630568 0.65932855 0.65712524 0.65887326 0.65788859 0.65496738 0.65219682 0.64909312 0.64583083 0.6462797 0.6483855 0.6536959 0.6549167 0.6589758 0.6596472 0.6590673 0.6588842 0.6628212 0.6629433 0.6626381 0.6662089 0.6677654 0.67041012 0.66840877 0.66798413 0.66320396 0.65949781 0.65251697 0.64606359 0.6388691 0.63038637 0.62289386 0.61373988 0.6024085 0.59305083 0.5816947 0.57284732 0.56298086 0.55355449 0.5441576 0.53254035 0.52042562 0.51120947 0.50165227 0.49147581 0.48213873 0.47375012 0.46788841 0.46110402 0.45611703 0.45061173 0.44405961 0.43784755 0.43185986 0.42662523
0.64472588 0.64803908 0.64961368 0.65554206 0.65914907 0.65916305 0.66198032 0.66300626 0.66469284 0.6658798 0.66516443 0.66706813 0.67017409 0.67171263 0.67686223 0.67434687 0.67366388 0.67155722 0.67120424 0.66976282 0.66803894 0.66775774 0.66921889 0.67066898 0.66953078 0.6667862 0.66653897 0.66525248 0.66456899 0.65848649 0.65751032 0.65402792 0.6535236 0.65212154 0.65115847 0.64938283 0.6462912 0.64495704 0.64126634 0.63617139 0.62935947 0.62446989 0.6206724 0.61617583 0.61067309 0.60543403 0.59844126 0.58878409 0.58300473 0.58053086 0.57651761 0.57141096 0.56646276 0.56423439 0.55781601 0.55540165 0.55120134 0.55065132 0.55353455 0.55549631 0.55312492 0.55404505 0.55533484 0.55379801 0.55928894 0.56036184 0.56513476 0.57215672 0.57391223 0.57463881 0.58041752 0.58473301 0.5808997 0.58285315 0.58626468 0.5907797 0.59437327 0.60032961 0.60772359 0.6140509 0.61790672 0.62269311 0.62509786 0.62802065 0.62931574 0.63501462 0.63821587 0.64441181 0.64832922 0.65253246 0.65596866 0.65906116 0.66635106 0.67335427 0.67795115 0.68461928 0.68935631 0.69419841 0.69969759 0.70488924 0.70714835 0.7103822 0.71463839 0.7173586 0.72256311 0.72613507 0.72881304 0.73451393 0.74070674 0.7465847 0.74928727 0.7499511 0.75044315 0.74796327 0.7452237 0.7454373 0.744827 0.7487029 0.7483977 0.7477874 0.7510529 0.7512971 0.7497101 0.7494659 0.7495269 0.7457426 0.7464445 0.74529193 0.74104276 0.73549171 0.73518813 0.73323029 0.72993717 0.72687039 0.7254881 0.72420752 0.72204829 0.72018359 0.7178304 0.71541132 0.70934076 0.70565669 0.70294673 0.70149642 0.69658945 0.69504724 0.6904492 0.68662789 0.68283368 0.67897545 0.6758491 0.67210063 0.67206304 0.67315763 0.67309728 0.67274399 0.66942489 0.66953568 0.66906132 0.66834698 0.66693644 0.66904924 0.66976278 0.67034717 0.66912149 0.66819546 0.66970498 0.66968375 0.66810899 0.66933937 0.66883882 0.671855 0.6767076 0.6796985 0.6827504 0.6855887 0.6842154 0.6817433 0.6785998 0.6776537 0.6780199 0.679729 0.6807361 0.6822621 0.68484245 0.68634998 0.69091741 0.69201484 0.69623667 0.69987785 0.7007192 0.70243735 0.69931683 0.69878073 0.69671331 0.69847297 0.69776181 0.69880812 0.70134602 0.70061401 0.70054168 0.70148028 0.70263582 0.70442114 0.70805369 0.70614713 0.70547048 0.70331244 0.69963373 0.69687579 0.69135022 0.68780982 0.6860586 0.68066039 0.67504381 0.67043746 0.66708406 0.6648697 0.6636742 0.66027155 0.65707967 0.65818529 0.66089019 0.65823113 0.6589675 0.6537388 0.65016565 0.64985969 0.6501251 0.652353 0.6555576 0.6588537 0.662516 0.6615699 0.6600134 0.6606238 0.662577 0.6651712 0.6687115 0.6675518 0.671214 0.67034931 0.67115344 0.67041429 0.6674099 0.65840759 0.65154673 0.6467787 0.6387715 0.62973927 0.62475131 0.61411521 0.60344989 0.59409528 0.58348623 0.57391684 0.56485058 0.55493612 0.54667237 0.53605105 0.52602605 0.5133835 0.50246365 0.49189818 0.48031535 0.47340409 0.4681504 0.46146426 0.45675504 0.45181914 0.44558425 0.43928264 0.43448316 0.42841418
0.64784973 0.65031191 0.65082717 0.65328696 0.65801437 0.66186654 0.66327306 0.66274436 0.66318612 0.66393293 0.66282829 0.66534248 0.66922667 0.67174398 0.67179452 0.67225909 0.67161312 0.6700378 0.6695556 0.66743164 0.66679648 0.66703249 0.66932638 0.6696116 0.66891977 0.66741978 0.66551119 0.66494232 0.66421327 0.6599219 0.65848541 0.65581217 0.65424343 0.6540291 0.65346051 0.64912661 0.64678009 0.64382716 0.64126351 0.63632668 0.62956646 0.62502004 0.61960922 0.61439689 0.60742671 0.60176961 0.59391955 0.58615971 0.58148868 0.57974773 0.57437925 0.56970824 0.56431475 0.56212743 0.55956966 0.55479789 0.55250006 0.55379518 0.55366129 0.55195458 0.55185299 0.55406084 0.552289 0.5529427 0.55517027 0.55895383 0.56167772 0.56910839 0.57262317 0.57470388 0.57881187 0.57935373 0.58095414 0.5820957 0.58617416 0.58926883 0.59282182 0.59830619 0.60507322 0.6099026 0.61469166 0.6184641 0.62168718 0.6247718 0.62656709 0.63081975 0.63531795 0.63831504 0.64462609 0.64622144 0.65216468 0.65573617 0.66353561 0.66894103 0.67612107 0.68412738 0.68776446 0.69156688 0.69752617 0.70182695 0.70562307 0.70962802 0.71245164 0.71398378 0.71790643 0.72156252 0.72539426 0.73027798 0.74164299 0.74596928 0.74742401 0.75052514 0.74934353 0.74741356 0.7450101 0.7388757 0.7443386 0.7453458 0.7463529 0.7484587 0.7475432 0.7475432 0.7512665 0.7529756 0.7492828 0.7440945 0.7467497 0.74565565 0.73845267 0.73490474 0.73485154 0.73054402 0.72914992 0.7252063 0.72719847 0.7230929 0.72267333 0.72083882 0.71741082 0.71708514 0.71162675 0.70492432 0.70210501 0.69905094 0.69753273 0.69491552 0.68844275 0.68455941 0.68190162 0.67883709 0.67496513 0.67148039 0.67233969 0.67325537 0.67323154 0.67110947 0.6682002 0.66632631 0.66694152 0.66594925 0.66719861 0.66967084 0.67136108 0.67144575 0.67163732 0.66878526 0.66750399 0.66815614 0.66901931 0.66708371 0.66682203 0.6693829 0.6740524 0.6775926 0.6790881 0.6815602 0.6814076 0.676616 0.6779588 0.6787218 0.6775621 0.6799731 0.6832082 0.6863822 0.68441654 0.68604543 0.69131913 0.69174993 0.69658041 0.70061143 0.70098299 0.70141917 0.70078098 0.69700163 0.69488388 0.6949774 0.69883044 0.70006197 0.70088889 0.69928111 0.69991926 0.70222012 0.70450678 0.70540048 0.70964857 0.70811292 0.7081581 0.70331705 0.70109805 0.69744532 0.69312935 0.68841057 0.68368848 0.67907266 0.6733667 0.67029384 0.66846581 0.66470267 0.66353643 0.65802587 0.65758107 0.6579509 0.66161177 0.6609277 0.65848121 0.65562563 0.65367581 0.65562775 0.6549167 0.6573582 0.660166 0.6623939 0.6631874 0.664805 0.6612647 0.6636758 0.665568 0.6669108 0.6693524 0.6687725 0.66804 0.66720407 0.66734103 0.66856544 0.66637572 0.66002964 0.65239295 0.64364499 0.63695719 0.62955153 0.62464395 0.61480114 0.60285397 0.59344065 0.58408167 0.57326549 0.56577048 0.55583952 0.54670083 0.53810755 0.52666873 0.51705583 0.50533308 0.4927417 0.48234663 0.47420238 0.46777751 0.46097856 0.45729274 0.45154324 0.44542788 0.44017924 0.43487925 0.42920088
0.64740927 0.65087478 0.65221367 0.65565089 0.65668573 0.66082703 0.66487778 0.66210124 0.66286475 0.6636534 0.6613277 0.66616624 0.67014605 0.6687728 0.67127655 0.67203683 0.67241183 0.67029528 0.66821826 0.66748921 0.66771143 0.66752791 0.66508452 0.67037491 0.67043471 0.66926337 0.66771218 0.66806051 0.66524755 0.66040256 0.65661561 0.65795993 0.65748764 0.6575147 0.65466813 0.65052787 0.64625807 0.64418083 0.63937797 0.63482911 0.63163838 0.62645196 0.62088365 0.61476208 0.60550511 0.59786529 0.58997555 0.58599296 0.58155062 0.57673324 0.57269806 0.5685643 0.56434194 0.56044567 0.55934511 0.55469741 0.55208065 0.55353553 0.55301015 0.55085838 0.55110186 0.55083653 0.55040109 0.55203473 0.55240815 0.55499388 0.55885209 0.56443308 0.57140289 0.57312158 0.57844596 0.57949689 0.57933756 0.58196849 0.58443013 0.58819421 0.59160802 0.59754415 0.60337373 0.60705774 0.60940293 0.61590898 0.61744313 0.62038494 0.62462678 0.62921864 0.63285111 0.63646014 0.64117775 0.64268083 0.6485978 0.65520277 0.65977158 0.66847729 0.67471717 0.68181534 0.6862817 0.69028259 0.69536821 0.69882958 0.70320221 0.70562677 0.71149303 0.71532785 0.71789321 0.72193251 0.72809977 0.73347052 0.74211172 0.74749328 0.74926662 0.75221289 0.74867244 0.74756526 0.7454678 0.7446743 0.7446743 0.7454984 0.7478484 0.747238 0.7486114 0.7458036 0.7472075 0.750473 0.7470549 0.7453763 0.7444912 0.74210595 0.73906635 0.73514591 0.73233888 0.73137177 0.73195874 0.72827089 0.72774673 0.7258639 0.72509707 0.72327284 0.72040713 0.71937479 0.71443374 0.70710554 0.70520754 0.70037427 0.69670313 0.69408234 0.68962166 0.68364802 0.68205568 0.67780728 0.67721676 0.67492743 0.6742606 0.67437939 0.67086904 0.66844252 0.66645864 0.66709157 0.66433649 0.66571227 0.66649644 0.66705361 0.66891253 0.67035946 0.67047409 0.67084718 0.67077134 0.66889395 0.66727131 0.66678142 0.6698146 0.671977 0.6737777 0.6730452 0.6752121 0.6761887 0.6777452 0.6752121 0.6774706 0.6763719 0.6764939 0.6778368 0.6824452 0.6858634 0.6864014 0.68854673 0.6909533 0.69229469 0.69778364 0.70003414 0.70093747 0.69923219 0.69972696 0.6992274 0.69524834 0.69401961 0.6965412 0.69797284 0.69832261 0.69855319 0.70059307 0.70279771 0.70602123 0.70794972 0.70940348 0.7081912 0.71025108 0.70529891 0.70220707 0.69619032 0.69145944 0.68758138 0.68390328 0.68016743 0.67547926 0.67109941 0.66698615 0.66321294 0.66154312 0.66067029 0.65725698 0.6606585 0.66185906 0.65928269 0.6596586 0.66051629 0.66124404 0.66298189 0.6629738 0.6607154 0.6617836 0.6640725 0.6671245 0.6652933 0.6638589 0.6652933 0.6666667 0.6667582 0.6661478 0.667277 0.6669413 0.66610557 0.66358917 0.66498842 0.66336127 0.65554124 0.65093195 0.64239707 0.63611739 0.63080595 0.62242876 0.6153562 0.60538085 0.59627059 0.58544619 0.57531287 0.5648208 0.55623823 0.54884184 0.53947303 0.52862609 0.51750933 0.50671061 0.49351193 0.48281758 0.47495886 0.46822972 0.46138938 0.45639547 0.45118937 0.44591881 0.44011093 0.4339543 0.42807274
0.64571174 0.6488616 0.65262978 0.65569027 0.6571501 0.66119188 0.66256649 0.66321088 0.66212987 0.66149589 0.66248679 0.66317938 0.66467515 0.66773023 0.66697968 0.66789156 0.66940617 0.66872435 0.66764166 0.66955268 0.66714746 0.66869668 0.66788042 0.67118655 0.6716599 0.67143669 0.67032321 0.66871275 0.66606432 0.6638202 0.66186711 0.66122537 0.66025387 0.65663088 0.65527902 0.65162105 0.64884739 0.64263369 0.63933485 0.6345292 0.62955019 0.62521899 0.61882319 0.61326825 0.60319134 0.59409232 0.58773575 0.5812484 0.57797272 0.57497824 0.56897425 0.56690211 0.56350272 0.55906079 0.55775999 0.55473494 0.55503573 0.5544326 0.5547748 0.55208637 0.55020952 0.54951614 0.54919096 0.55035143 0.55114841 0.55304713 0.55669416 0.56311424 0.56792311 0.57158603 0.57573581 0.57580708 0.57587488 0.57793761 0.58390727 0.58598037 0.59207585 0.59556754 0.60123648 0.60456449 0.60589889 0.61101243 0.61342585 0.61690435 0.62207578 0.62597151 0.62861317 0.63275947 0.63742672 0.64092583 0.64631686 0.65205887 0.65917082 0.66529686 0.67488374 0.680503 0.68640976 0.69148101 0.69337102 0.69610355 0.69900583 0.70359159 0.71069318 0.7157893 0.71870279 0.7225427 0.7288094 0.73753654 0.74378284 0.74704765 0.74956092 0.7532334 0.7519684 0.75009648 0.7485808 0.7513886 0.7516938 0.7504425 0.7484282 0.7503204 0.7484282 0.7456204 0.7463224 0.7494048 0.7444607 0.7412562 0.7425075 0.74224607 0.73857947 0.73552325 0.73559803 0.73318343 0.73589786 0.73315693 0.73033592 0.730656 0.72830563 0.72537772 0.72412454 0.72291635 0.71619238 0.71081589 0.70505502 0.70097053 0.69874094 0.69322063 0.68850882 0.68520421 0.68371652 0.67972888 0.6778157 0.67857773 0.67630471 0.67334825 0.67188586 0.66640293 0.66506122 0.66581683 0.66370698 0.66119103 0.66357815 0.66254206 0.66578792 0.67076835 0.67019076 0.66984734 0.67069944 0.67000295 0.66977996 0.6662658 0.6681877 0.6724349 0.6731368 0.6721296 0.672618 0.6736251 0.6748154 0.6738387 0.6732283 0.6742355 0.6759446 0.6795154 0.6818043 0.6890985 0.686519 0.68543845 0.68905053 0.69331186 0.69606294 0.69899037 0.69842099 0.70080299 0.69895088 0.69873646 0.69516872 0.69195846 0.69331129 0.69519525 0.69839209 0.69619576 0.69992608 0.70351109 0.70720617 0.71158179 0.71008895 0.71179138 0.70938619 0.70652819 0.70233678 0.69915386 0.69265944 0.68990005 0.68436216 0.68100506 0.67683528 0.67513738 0.66904629 0.6652509 0.6608916 0.65916996 0.6591213 0.65997546 0.66244648 0.66147164 0.66179853 0.66223436 0.66295323 0.66480834 0.6653848 0.6643472 0.6645303 0.6663004 0.6684673 0.6662699 0.6659037 0.6652322 0.667155 0.6649576 0.663981 0.6643167 0.6647745 0.66329327 0.6643521 0.66214343 0.66033921 0.65368167 0.6483504 0.64135763 0.63466665 0.62852996 0.62227706 0.61288758 0.60349597 0.59474611 0.58699963 0.57533948 0.5660155 0.55775164 0.549087 0.54025037 0.53100182 0.5183488 0.50780311 0.49453663 0.4851756 0.47646938 0.46829043 0.46159684 0.45693425 0.45171323 0.44602466 0.44059085 0.43391796 0.42805832
0.64589243 0.65101079 0.65500822 0.6547733 0.65770794 0.6588182 0.66108911 0.66366938 0.66108189 0.6617245 0.66223999 0.66356548 0.66312359 0.66319266 0.66583157 0.66486747 0.66560592 0.66522898 0.66750091 0.6687919 0.66902967 0.66871728 0.66845559 0.67118459 0.67220111 0.67273148 0.67230772 0.66980925 0.66665971 0.66564835 0.66561851 0.66202248 0.65987395 0.65813488 0.65578442 0.65305044 0.64790064 0.64095549 0.63827913 0.6376609 0.62862946 0.62130002 0.6143513 0.60931288 0.60231719 0.59285274 0.58565625 0.5775412 0.57705116 0.57354502 0.56579492 0.56129649 0.56206739 0.55997331 0.55707854 0.55971758 0.55647131 0.55604555 0.55615697 0.55402321 0.55173734 0.54789468 0.54823044 0.54610317 0.54949424 0.55396747 0.55691194 0.5574493 0.56452047 0.57167131 0.57279935 0.57494045 0.57626613 0.57458514 0.5811377 0.58584322 0.59154733 0.59598879 0.59664322 0.59916097 0.60231905 0.60689832 0.6107648 0.6133396 0.61952694 0.62385654 0.6273755 0.62748754 0.63521143 0.63922703 0.64362696 0.649037 0.65780085 0.66454975 0.6720101 0.67960209 0.68428787 0.68734975 0.69332698 0.69576525 0.69853464 0.70293947 0.70819772 0.71555313 0.71923533 0.72630353 0.73278024 0.73708449 0.74097126 0.74566869 0.75175127 0.75176143 0.7548981 0.75510908 0.7537997 0.7525484 0.7534029 0.7531893 0.7510529 0.7492217 0.7473601 0.7477874 0.7452847 0.7452847 0.7429348 0.7412562 0.7389367 0.7406383 0.73863931 0.7360158 0.73874114 0.73804523 0.73765935 0.73339132 0.73221339 0.73092293 0.72890713 0.72472421 0.72435801 0.72404321 0.71771124 0.71153539 0.70836445 0.70475259 0.70005759 0.69727944 0.69201987 0.68798606 0.6856788 0.68229135 0.68026583 0.67763818 0.67614692 0.67450388 0.67105219 0.6686221 0.66630792 0.666007 0.66445471 0.66100681 0.66194642 0.66245599 0.66657213 0.66650507 0.66764895 0.66902241 0.6686853 0.66827214 0.66967411 0.67032615 0.66992202 0.6696271 0.6712446 0.6698712 0.670451 0.6702679 0.6720991 0.6722212 0.6738082 0.6767991 0.6771653 0.6790575 0.681255 0.6858634 0.68782525 0.68696468 0.69125568 0.69296306 0.69463299 0.6964564 0.69676823 0.69655718 0.6958445 0.69579807 0.69555786 0.69282584 0.69523234 0.69646892 0.69991351 0.70228001 0.70316205 0.70672875 0.71099453 0.71308661 0.71332045 0.71159053 0.70795738 0.70530473 0.70223185 0.70020574 0.69456848 0.68937148 0.68336542 0.68174528 0.67724289 0.67405882 0.67066323 0.66473064 0.660455 0.65860936 0.65872576 0.6599 0.66279549 0.66001017 0.66120469 0.66397452 0.66426642 0.66554614 0.6668803 0.6658427 0.6685894 0.6700848 0.6720381 0.6673686 0.6646524 0.6658427 0.6681926 0.6658732 0.6638284 0.6600745 0.6582738 0.66213049 0.66261472 0.65936038 0.65686078 0.65048645 0.64648888 0.64020882 0.63263838 0.62669388 0.61780479 0.61087402 0.59789569 0.59365761 0.58737392 0.57708304 0.56863074 0.55985118 0.55251673 0.54105636 0.53149349 0.51947269 0.50925431 0.49692905 0.48518387 0.4775938 0.46933699 0.46275672 0.45844281 0.45235437 0.4474668 0.4411772 0.43552572 0.4294532
0.64428542 0.64797062 0.65162373 0.65689052 0.6597943 0.66157029 0.6600537 0.66199395 0.66000794 0.6615187 0.66010333 0.66187502 0.65819183 0.65855109 0.65886219 0.66023556 0.66283718 0.6654726 0.66384992 0.66753781 0.66760459 0.66934695 0.67017961 0.67204201 0.67314117 0.67089416 0.67218556 0.67027392 0.6693272 0.6678681 0.66611084 0.66231275 0.65860436 0.65749684 0.65406993 0.65001927 0.64509833 0.63847516 0.63593462 0.63321995 0.62782948 0.61983677 0.61239892 0.60680398 0.59875472 0.59068116 0.58214058 0.57608438 0.5743419 0.57007036 0.56547821 0.56116533 0.55767938 0.55602139 0.55560287 0.55556397 0.55433417 0.5555468 0.55326297 0.55204166 0.54992114 0.54739369 0.54870526 0.55071762 0.55097139 0.55460943 0.55550128 0.56075764 0.56290125 0.56852472 0.56887644 0.57356752 0.57342813 0.57249779 0.57680666 0.58142794 0.58789439 0.59185287 0.59560161 0.59840989 0.60331706 0.60648517 0.60938643 0.61185364 0.61704878 0.62007901 0.62353852 0.62595469 0.63229805 0.63724979 0.64275605 0.64933813 0.65651678 0.66441135 0.67252173 0.67844542 0.68370797 0.68816022 0.69217585 0.69421785 0.69809129 0.70304936 0.70940265 0.71435168 0.72037381 0.73027881 0.73577601 0.73823225 0.74020819 0.7456934 0.75124964 0.75381754 0.75520051 0.75642621 0.755936 0.753464 0.755112 0.7541964 0.7548068 0.7534029 0.7487029 0.7472685 0.7469328 0.7427517 0.7421412 0.7385705 0.7396997 0.73700567 0.73948939 0.73736832 0.74115549 0.74092614 0.74004703 0.73738486 0.73456641 0.72957846 0.73006131 0.72628991 0.72577427 0.726092 0.71847902 0.71274705 0.71005142 0.70474055 0.70240666 0.69933058 0.69546781 0.69166509 0.68703164 0.68406406 0.68070547 0.6793396 0.67847994 0.67654925 0.67176779 0.67031807 0.6670449 0.66486268 0.66415007 0.66250004 0.6611406 0.66275412 0.66350486 0.6649444 0.66715253 0.66553412 0.66630487 0.66589281 0.66699843 0.67042174 0.6716875 0.6710309 0.6703595 0.6690167 0.6685589 0.6701154 0.6707258 0.6702069 0.6707258 0.6771348 0.6792407 0.6794543 0.6813771 0.6812855 0.68345534 0.68766709 0.6923777 0.69460978 0.69405024 0.69477072 0.69293716 0.6925656 0.69206617 0.69353481 0.69311306 0.69359645 0.69700385 0.69904221 0.70200177 0.70524921 0.7064359 0.70787952 0.71049633 0.71353132 0.71250759 0.71185383 0.71081366 0.70752492 0.70372558 0.70126742 0.69499051 0.69127761 0.68429297 0.67957258 0.67660231 0.67475377 0.67089568 0.6675166 0.66432253 0.66033316 0.66215906 0.66014593 0.66178476 0.66057316 0.65977611 0.66365026 0.66435833 0.66793106 0.6706037 0.6683147 0.667277 0.6709699 0.6710309 0.6681316 0.6682537 0.6655374 0.6644692 0.6662089 0.6632485 0.6606238 0.6590063 0.65858501 0.65913816 0.65669479 0.65254523 0.64896379 0.64498259 0.63825088 0.63423195 0.62689298 0.6187202 0.60919897 0.59995569 0.59231392 0.5869239 0.57910844 0.57103231 0.56269518 0.55219184 0.54185947 0.53171636 0.52035546 0.50879402 0.49805618 0.48794805 0.47868736 0.47134337 0.46493396 0.45909092 0.45371051 0.44820838 0.44265836 0.43740843 0.43185827
0.64441152 0.64730751 0.65116386 0.6578599 0.66001732 0.66225017 0.6627782 0.65872219 0.65686987 0.65923515 0.65870439 0.65893209 0.65659014 0.65842017 0.65435897 0.65957486 0.66047503 0.6629379 0.66054468 0.66651782 0.66985064 0.67108402 0.67301871 0.67202264 0.67036253 0.67175382 0.67343262 0.66935106 0.66890149 0.66677199 0.66729215 0.66061606 0.659716 0.65580567 0.65210101 0.64779498 0.6425551 0.63761355 0.63128026 0.63070995 0.62490591 0.61681616 0.61133621 0.60480164 0.59606287 0.58783496 0.58206343 0.57652267 0.5745042 0.57119486 0.56353071 0.56015965 0.55889527 0.55579123 0.55406387 0.55106196 0.55069475 0.55062965 0.55182195 0.55079105 0.54762782 0.54797173 0.54762712 0.55096897 0.55049281 0.55354245 0.55742826 0.56124561 0.56389343 0.56610556 0.56834877 0.57055444 0.57276011 0.57084242 0.57762735 0.58021151 0.58462866 0.58935811 0.59321488 0.59865098 0.60220486 0.60543412 0.60916222 0.61154847 0.61624424 0.61953722 0.62408581 0.62514372 0.63102971 0.63589536 0.64251141 0.64962611 0.65675887 0.66373081 0.67148163 0.67552719 0.68200939 0.68817518 0.69088124 0.69477958 0.69998741 0.70463327 0.70921767 0.71789317 0.72358521 0.73174712 0.73501601 0.73945766 0.74258362 0.74699611 0.75349473 0.75626999 0.75773116 0.75624078 0.7545322 0.7541354 0.7528536 0.754349 0.7545322 0.751236 0.7490692 0.745712 0.7451627 0.7451932 0.7429958 0.7395471 0.738662 0.73749718 0.74089117 0.74093797 0.74101274 0.74097173 0.74098789 0.73903233 0.73619683 0.73289546 0.73216115 0.72696991 0.72527496 0.72484501 0.72064661 0.71433996 0.71154287 0.70772361 0.7043198 0.7015063 0.69702736 0.69241905 0.68731825 0.68326182 0.6816645 0.68125609 0.67925306 0.67700873 0.67381851 0.67020294 0.6684728 0.66754624 0.66506771 0.6628747 0.66233399 0.66345045 0.66341766 0.66540853 0.66511167 0.66608848 0.66546559 0.66943033 0.66748146 0.6688982 0.67101299 0.6709699 0.6699322 0.6700238 0.6702374 0.6694134 0.6668193 0.6676433 0.6690777 0.6733504 0.6760666 0.6761887 0.6774095 0.6800952 0.68433909 0.68763789 0.68990637 0.69070265 0.6939607 0.69291557 0.69368921 0.69432693 0.69266598 0.69179278 0.69347525 0.6940243 0.69524913 0.69880274 0.70490109 0.708018 0.71010404 0.70880954 0.71078835 0.71297212 0.71357711 0.71181638 0.71017315 0.70839903 0.70575106 0.70069044 0.69687989 0.69283119 0.68679448 0.68269994 0.67821185 0.67457864 0.67048228 0.66879738 0.66469279 0.66387186 0.66276165 0.65955399 0.65827518 0.66168765 0.6615936 0.66451286 0.66880672 0.67044276 0.6728316 0.6699933 0.6687725 0.6694439 0.6696881 0.6706647 0.6679485 0.6643777 0.6644692 0.6648355 0.6643777 0.6614783 0.6605017 0.65809669 0.65547781 0.65393006 0.6488751 0.64911687 0.64459449 0.63810578 0.63341016 0.62518215 0.61729217 0.60988982 0.60072611 0.59411161 0.58543796 0.58066293 0.57276255 0.56228921 0.55356467 0.54226784 0.53227432 0.52145315 0.50836644 0.49740646 0.48802495 0.48000041 0.47307876 0.46662933 0.46085089 0.45471725 0.44902857 0.44371095 0.43818567 0.43277738
0.64589557 0.64817645 0.65290909 0.65557731 0.65936703 0.65899864 0.6567505 0.65762819 0.65754582 0.65817509 0.6574624 0.65431829 0.65393461 0.6562385 0.65392268 0.65761013 0.65920711 0.66013799 0.66291243 0.66604799 0.66708428 0.67059543 0.67238185 0.67346999 0.67345178 0.67161702 0.67229245 0.66933531 0.66797446 0.66609989 0.66439708 0.66109763 0.65866955 0.65328469 0.64847173 0.6454233 0.63901175 0.63552494 0.63060566 0.62681628 0.62320588 0.6176815 0.61055856 0.60120052 0.59510472 0.5867819 0.58174214 0.57778575 0.57336791 0.56853119 0.56162896 0.56062394 0.5560769 0.55432924 0.55252497 0.55025673 0.54839751 0.54942035 0.54805971 0.54782601 0.54909521 0.54896061 0.54737695 0.54841277 0.54959073 0.55221803 0.55520675 0.55960616 0.56030015 0.56292605 0.56242504 0.56746979 0.56929274 0.57129602 0.57568149 0.57773315 0.58416004 0.58951817 0.59256263 0.5935953 0.59724836 0.60286013 0.60699918 0.60872371 0.61443374 0.61797022 0.62446592 0.62827369 0.63193793 0.63469651 0.6418453 0.65134942 0.65867529 0.66436623 0.66911483 0.67508267 0.68214701 0.68854527 0.6900818 0.69517773 0.7007855 0.70317013 0.71093407 0.71917513 0.72555063 0.73197537 0.73565231 0.74251312 0.74629795 0.7477545 0.75291438 0.75901564 0.76032196 0.76055369 0.7554783 0.7541964 0.7560886 0.7554477 0.7532808 0.7515107 0.7507172 0.7489776 0.7449185 0.7428432 0.7421718 0.7440029 0.7416529 0.74073905 0.74384899 0.74471066 0.74321244 0.74398392 0.74266285 0.73676529 0.73571945 0.73659319 0.7342295 0.72974317 0.72635794 0.72441902 0.7224924 0.7170484 0.71254007 0.71013601 0.70491897 0.70017424 0.69618103 0.69228022 0.68980621 0.68474571 0.68427689 0.68241765 0.67957195 0.67747384 0.67354639 0.67255412 0.67054159 0.66851949 0.66674408 0.66329135 0.66331188 0.66121859 0.66482364 0.6651659 0.66518766 0.66431127 0.66622652 0.6716716 0.67032108 0.66767935 0.66875401 0.6677349 0.6697186 0.6705427 0.6674296 0.6693218 0.6645608 0.6652628 0.6692913 0.6712751 0.6734725 0.6756089 0.6758225 0.680553 0.68345088 0.68465048 0.68883855 0.6902955 0.69232284 0.69249351 0.69065274 0.69349911 0.6914184 0.6941654 0.69410921 0.69218848 0.69560615 0.70067503 0.70528427 0.70826245 0.70834353 0.71053131 0.7110911 0.71120778 0.71296065 0.71285463 0.70933273 0.70688009 0.70582478 0.7018601 0.69561657 0.69233806 0.68555127 0.68190517 0.67947967 0.67611762 0.67326064 0.66852815 0.66689414 0.66558384 0.66298685 0.66031243 0.65894146 0.65936562 0.66257602 0.66443977 0.66737237 0.67160528 0.6740829 0.6736251 0.6725875 0.6697186 0.6723433 0.6721907 0.6692608 0.665568 0.6626686 0.6630654 0.6622413 0.6642861 0.6620582 0.65644751 0.65404423 0.65144163 0.65119331 0.64729139 0.64208222 0.63683844 0.63030002 0.62558484 0.61758565 0.61131819 0.60185692 0.59629471 0.58983818 0.58182207 0.57443644 0.56364273 0.55378355 0.54282775 0.53123631 0.52023412 0.50761147 0.49722646 0.48838987 0.48006279 0.47301643 0.46710586 0.45968046 0.4545209 0.44894477 0.44380398 0.43818433 0.43303052
0.64398355 0.64702567 0.65079768 0.65161284 0.65602193 0.65441334 0.65481101 0.65662741 0.65576093 0.65536932 0.65374856 0.65143385 0.65419315 0.65545329 0.65337827 0.65427044 0.65772333 0.66069042 0.6608809 0.66333068 0.66484416 0.6684695 0.67017461 0.67303393 0.67343976 0.67379291 0.67318635 0.66971613 0.66796811 0.66386198 0.66111877 0.6609917 0.65555086 0.65075501 0.6448544 0.64231651 0.63555367 0.63204287 0.6287177 0.62489458 0.61972886 0.61497717 0.60681335 0.59995304 0.59105244 0.58372382 0.58025755 0.57589207 0.56994014 0.5648252 0.56264802 0.55773513 0.5551599 0.55228385 0.55045597 0.54882908 0.54764582 0.54586463 0.54573036 0.54925099 0.54826248 0.5503734 0.54682809 0.54523334 0.54850855 0.54879627 0.55447122 0.55994679 0.55934962 0.55678716 0.55890022 0.56128442 0.56375075 0.56845307 0.57321118 0.57876397 0.58307068 0.58514638 0.58860099 0.59012299 0.5971384 0.59974667 0.60456294 0.60841464 0.61268746 0.62070045 0.6249188 0.62933157 0.63182818 0.63460665 0.64250924 0.64884115 0.6561093 0.66366022 0.66864813 0.6781032 0.68407792 0.68815768 0.69244762 0.69610898 0.70185929 0.70479526 0.71269768 0.71976242 0.72641069 0.73213102 0.7362473 0.7416154 0.74680564 0.75069879 0.75575916 0.75918873 0.76147969 0.76082596 0.7600867 0.7560581 0.7562107 0.7525484 0.7522432 0.7498016 0.7489776 0.7484893 0.744888 0.7421107 0.7437893 0.7464445 0.7460477 0.74528915 0.74683886 0.74452454 0.74606304 0.7442019 0.74106371 0.73750686 0.73915701 0.73871462 0.73499905 0.73146415 0.72643991 0.72404366 0.72166365 0.71741988 0.71564674 0.71195738 0.70627957 0.70250634 0.69693059 0.69306707 0.68986587 0.6872697 0.68604208 0.68353912 0.67978337 0.67733682 0.67405172 0.67436948 0.67196876 0.66727936 0.66652228 0.66276714 0.6635212 0.66288285 0.66394705 0.66291334 0.66278012 0.66260374 0.6645117 0.66539478 0.66759619 0.66752781 0.66587591 0.6677654 0.6667888 0.6660563 0.667155 0.6636758 0.6637673 0.6654153 0.6657206 0.6675823 0.6716108 0.6743881 0.6747848 0.678264 0.68152205 0.68230176 0.68810057 0.68821187 0.69075459 0.68930147 0.68972039 0.68980122 0.68958109 0.69301033 0.69242588 0.6950039 0.69809357 0.70050419 0.70533743 0.70742601 0.70752445 0.70822928 0.70865187 0.70879332 0.71010949 0.7121439 0.70975 0.70698255 0.70642991 0.70161104 0.69514568 0.69165916 0.68509625 0.68215135 0.6773757 0.67811509 0.67795195 0.67098153 0.66843963 0.66837313 0.6651798 0.66204162 0.65990205 0.66067366 0.66138499 0.66582194 0.66706539 0.66971218 0.6734725 0.6724654 0.6722822 0.6737777 0.6729842 0.6724654 0.6711225 0.6657511 0.6626992 0.6626992 0.6647134 0.6607154 0.6608985 0.65696729 0.654684 0.65255968 0.6510645 0.64834195 0.6440534 0.63603336 0.62719275 0.62271153 0.6191165 0.61145007 0.60213159 0.59642621 0.59086428 0.585861 0.57765308 0.5649734 0.55490903 0.54387846 0.53205823 0.51952332 0.50845063 0.49902175 0.4892736 0.4804712 0.47424836 0.46581258 0.4581041 0.45263294 0.4475792 0.44322243 0.43788217 0.43272097
