0.07010315 0.06998108 0.06982848 0.06964536 0.0694012 0.06912653 0.06882134 0.06854667 0.06821095 0.06790575 0.06763108 0.06735641 0.06711225 0.06689861 0.06674602 0.06662394 0.06653238 0.06653238 0.06653238 0.06650186 0.06650186 0.06647134 0.06647134 0.06647134 0.06650186 0.0665629 0.06668498 0.0668681 0.06711225 0.06744796 0.06784472 0.06839406 0.06903498 0.06979796 0.07068302 0.07172069 0.07291094 0.07422328 0.07568821 0.07727522 0.07901483 0.080846 0.08279924 0.08484405 0.0869804 0.0891778 0.09140573 0.09366416 0.0959226 0.09818104 0.100409 0.1025758 0.1046817 0.1066654 0.1085576 0.1102973 0.1119148 0.1133797 0.1146615 0.1157908 0.1167369 0.117744 0.1188427 0.1200635 0.1213758 0.1228102 0.1243057 0.1258622 0.1274797 0.1291278 0.1308063 0.1324849 0.1341329 0.1357505 0.1373375 0.1388329 0.1402368 0.1415492 0.1427699 0.1438381 0.1447842 0.1456082 0.1463407 0.1470121 0.1476531 0.1482329 0.1487518 0.1492706 0.1497284 0.1501251 0.1504914 0.1508271 0.1511323 0.1513764 0.1515901 0.1518037 0.1519563 0.1521089 0.1522004 0.152292 0.152353 0.1524141 0.1524141 0.1523836 0.1521394 0.1516511 0.1509186 0.1499725 0.1487823 0.1474089 0.1458524 0.1441128 0.1422206 0.1402063 0.1381005 0.1359031 0.1336446 0.1313862 0.1290972 0.1268083 0.1245804 0.122383 0.1202771 0.1182323 0.1163096 0.1146005 0.113105 0.1118537 0.1108161 0.1100531 0.1095038 0.109168 0.1090154 0.1090765 0.1092596 0.1095953 0.1100226 0.1105414 0.1110908 0.1117012 0.1123421 0.1129524 0.1135323 0.1140817 0.1146005 0.1150583 0.115394 0.1156076 0.1156382 0.1155161 0.1152414 0.1149057 0.1144784 0.1139901 0.1135018 0.1130745 0.1126778 0.1124031 0.112281 0.1123421 0.1126167 0.1131356 0.1139596 0.1150583 0.1164927 0.1182628 0.1203382 0.1227187 0.1253433 0.1281206 0.13102 0.1340719 0.1371849 0.1403894 0.1436245 0.1468596 0.1500336 0.1531466 0.156168 0.1590063 0.1616615 0.164103 0.1662699 0.1681926 0.1697796 0.1710309 0.1719465 0.1724959 0.172679 0.1726485 0.1725569 0.1723738 0.1721296 0.1718245 0.1714582 0.1710615 0.1706342 0.1701459 0.1696576 0.1691387 0.1686504 0.1681316 0.1676433 0.1671855 0.1667582 0.1663615 0.1660258 0.1657206 0.1655069 0.1652933 0.1651712 0.1651102 0.1651407 0.1652017 0.1653543 0.1655374 0.1657511 0.1659952 0.1662394 0.1665141 0.1667582 0.1669719 0.167155 0.1672771 0.1673381 0.1673076 0.1671855 0.1669719 0.1666667 0.1662089 0.1656595 0.1649881 0.1640115 0.1627297 0.1610816 0.1591284 0.1569005 0.1543978 0.1516511 0.1486602 0.1455167 0.1422206 0.1388329 0.1353537 0.131844 0.1283343 0.1248856 0.1214979 0.1182323 0.1150888 0.1121284 0.1093206 0.1067265 0.1042849 0.1018129 0.09940182 0.09699078 0.09464078 0.09232131 0.09009339 0.08792651 0.08588171 0.08392847 0.08206677 0.08035769 0.07877067 0.07733627 0.07608496 0.07498626 0.07404016 0.07327718 0.07272783 0.07233107 0.07214796 0.07211744 0.07223952 0.07245316 0.07275835 0.07318562 0.07367393 0.07428432 0.07498626 0.07574925 0.0766038 0.0775499 0.07852652 0.0795947
0.06934017 0.06934017 0.06930965 0.06921809 0.06912653 0.06900445 0.06885186 0.06866874 0.06851614 0.06833303 0.06818043 0.06799731 0.06787524 0.06775316 0.06763108 0.06757005 0.067509 0.067509 0.067509 0.06747849 0.06744796 0.06741744 0.06741744 0.06738693 0.06741744 0.06744796 0.06753952 0.06769212 0.06790575 0.06821095 0.0686077 0.06909601 0.0697064 0.07046939 0.07132393 0.07233107 0.07349081 0.07480315 0.07623756 0.07779405 0.07950314 0.08130379 0.08322652 0.0852408 0.08731612 0.08945248 0.09161936 0.09384728 0.09604468 0.09824208 0.100409 0.1025148 0.1045596 0.1065128 0.108344 0.1100531 0.1116401 0.1130745 0.1143258 0.1154245 0.1163706 0.1173472 0.1184154 0.1196057 0.120857 0.1221998 0.1236037 0.1250687 0.1265946 0.1281511 0.1297076 0.1312641 0.1328206 0.1343161 0.1358115 0.1372154 0.1385277 0.139779 0.1409388 0.1419764 0.1429225 0.1437161 0.1444485 0.1451199 0.1457608 0.1463102 0.146829 0.1473173 0.1477446 0.1481109 0.1484466 0.1487518 0.1489959 0.1492095 0.1494232 0.1495758 0.1496979 0.1498199 0.149881 0.149942 0.150003 0.1500336 0.1500641 0.1500336 0.1498199 0.1493927 0.1487823 0.1479888 0.1470121 0.1458219 0.1445096 0.1430141 0.1414271 0.1396875 0.1378563 0.1359641 0.1339803 0.1319661 0.1299213 0.1278765 0.1258316 0.1238174 0.1218336 0.1199109 0.1180492 0.1163401 0.1148752 0.1136239 0.1126167 0.1118232 0.1112434 0.1108771 0.110694 0.1106635 0.1107856 0.1110602 0.1114265 0.1118843 0.1123726 0.1129219 0.1135018 0.1140511 0.1146005 0.1151498 0.1156382 0.1160654 0.1164317 0.1166453 0.1167063 0.1166453 0.1164927 0.116218 0.1158823 0.1155161 0.1151498 0.1148141 0.11457 0.1144174 0.1143869 0.1145395 0.1149057 0.1155161 0.1164012 0.1175304 0.1189648 0.1207349 0.1227797 0.1250992 0.1276323 0.130257 0.1330037 0.135842 0.1387414 0.1417018 0.1446621 0.147592 0.1504608 0.1532686 0.1559543 0.158518 0.160868 0.1630349 0.1649881 0.1666667 0.1680706 0.1691998 0.1699933 0.1704816 0.1706342 0.1706342 0.1705732 0.1705121 0.17039 0.170268 0.1701154 0.1699322 0.1697186 0.169505 0.1692608 0.1690472 0.168803 0.1685589 0.1683147 0.1680706 0.1678264 0.1676128 0.1673991 0.1671855 0.1670024 0.1668193 0.1666667 0.1665446 0.166453 0.166392 0.166392 0.166392 0.166392 0.1664225 0.166453 0.1664836 0.1664836 0.166453 0.1664225 0.1663004 0.1661478 0.1659342 0.1656595 0.1652933 0.164866 0.1643472 0.1637368 0.1630349 0.1621193 0.160868 0.1593115 0.1574803 0.155405 0.153055 0.1504914 0.1477141 0.1447842 0.1417018 0.1385277 0.1352927 0.1319966 0.128731 0.1254654 0.1222609 0.1191174 0.1161265 0.1132576 0.1105414 0.1080083 0.1055667 0.1031252 0.1006531 0.09821156 0.09580053 0.09338949 0.09107001 0.08881158 0.08661418 0.08453885 0.08255509 0.0806934 0.07898431 0.07742782 0.07605445 0.07483367 0.07382653 0.07297198 0.0723616 0.07193432 0.07172069 0.07172069 0.07184276 0.07211744 0.07248367 0.0730025 0.07364341 0.0744064 0.07526094 0.07620704 0.07724471 0.07834341 0.07953367 0.08075444
0.06857719 0.06866874 0.0687603 0.06882134 0.06885186 0.06888238 0.06888238 0.06885186 0.06885186 0.06879082 0.0687603 0.06872978 0.06866874 0.06863822 0.0686077 0.06857719 0.06857719 0.06857719 0.06854667 0.06854667 0.06851614 0.06845511 0.06842458 0.06839406 0.06839406 0.06842458 0.06848563 0.0686077 0.06879082 0.0690655 0.0694012 0.06988952 0.07046939 0.07117134 0.07202588 0.0730025 0.07413172 0.07541354 0.07681743 0.07837392 0.0800525 0.08182262 0.08368431 0.08566807 0.08768235 0.08975767 0.09189404 0.0940304 0.09619728 0.09833364 0.1004395 0.1024843 0.104468 0.1063602 0.1081304 0.109809 0.1113349 0.1127388 0.1139901 0.1150583 0.1160044 0.1169505 0.1179882 0.1191174 0.1203076 0.1215589 0.1228713 0.1242446 0.1256485 0.1270829 0.1285479 0.1299823 0.1314167 0.1328206 0.134194 0.1355063 0.1367576 0.1379174 0.139016 0.1400232 0.1409388 0.1417628 0.1424953 0.1431362 0.1437771 0.1443264 0.1448147 0.1452725 0.1456693 0.146005 0.1463102 0.1465544 0.146768 0.1469511 0.1471037 0.1472258 0.1473173 0.1474089 0.1474699 0.1475005 0.147531 0.1475615 0.1475615 0.147531 0.1473784 0.1470427 0.1465544 0.1459135 0.1451199 0.1441738 0.1431057 0.1419154 0.1406031 0.1391686 0.1376427 0.1360251 0.1343466 0.132607 0.1308368 0.1290362 0.1271745 0.1253433 0.1235122 0.121681 0.1198804 0.1182323 0.1167979 0.1155771 0.1145395 0.113746 0.1131356 0.1127083 0.1124947 0.1124031 0.1124641 0.1126778 0.112983 0.1133492 0.113807 0.1142953 0.1147836 0.1153024 0.1158213 0.1163096 0.1167674 0.1172252 0.1175914 0.1178356 0.1179271 0.1179576 0.1178356 0.117683 0.1174693 0.1171947 0.1169505 0.1167674 0.1166148 0.1165843 0.1166758 0.1169505 0.1174083 0.1180797 0.1189953 0.1201856 0.12162 0.1233596 0.1253739 0.1276323 0.1300433 0.1325459 0.1351096 0.1377342 0.1403894 0.1430751 0.1457303 0.148355 0.1509186 0.1533907 0.1557407 0.1579686 0.160044 0.1619361 0.1636147 0.1650491 0.1662699 0.1672465 0.167918 0.1683452 0.1684978 0.1684978 0.1684978 0.1685283 0.1685589 0.1686199 0.1686504 0.1687115 0.1687725 0.168803 0.1688641 0.1688946 0.1689251 0.1689556 0.1689556 0.1689556 0.1689251 0.1688641 0.1687725 0.168681 0.1685283 0.1683758 0.1681621 0.167979 0.1677959 0.1676128 0.1674297 0.1672465 0.1670634 0.1668498 0.1666361 0.1664225 0.1661478 0.1658732 0.165568 0.1652323 0.1648355 0.1644388 0.163981 0.1634621 0.1629128 0.1623024 0.1616615 0.1609595 0.160044 0.1588537 0.1574193 0.1557102 0.1537569 0.1515901 0.1492095 0.1466459 0.1439602 0.1411219 0.138192 0.1351706 0.1321187 0.1290667 0.1260148 0.1229934 0.120033 0.1171641 0.1144174 0.1117927 0.1092901 0.1068791 0.1044375 0.1019654 0.09946286 0.09696026 0.09448819 0.09207715 0.08966611 0.08737716 0.08514924 0.0830434 0.08105963 0.07919795 0.07751938 0.0759934 0.07468107 0.07355185 0.07266679 0.07196485 0.07150705 0.0712629 0.0712629 0.07141549 0.07175121 0.072209 0.07284991 0.07361289 0.07449795 0.07553562 0.07666484 0.07788561 0.07919795 0.08057132 0.08200574
0.06778368 0.06802783 0.06824147 0.06845511 0.06863822 0.06879082 0.06894342 0.06909601 0.06921809 0.06934017 0.06943173 0.06949276 0.06955381 0.06961484 0.06967589 0.06967589 0.0697064 0.0697064 0.0697064 0.06967589 0.06964536 0.06958432 0.06952329 0.06946225 0.06943173 0.06943173 0.06946225 0.06955381 0.06973692 0.06995056 0.07028627 0.07071354 0.07129341 0.07196485 0.07278886 0.07373497 0.07483367 0.07608496 0.07745834 0.07898431 0.08063236 0.08237197 0.08420314 0.08612587 0.08807911 0.09012391 0.09216871 0.09427455 0.09634987 0.09842519 0.1004395 0.1024232 0.104346 0.1061771 0.1079167 0.1095343 0.1110602 0.1124031 0.1136239 0.1146921 0.1156076 0.1165537 0.1175304 0.1185986 0.1197278 0.120918 0.1221388 0.1234206 0.1247024 0.1260148 0.1273576 0.12867 0.1299823 0.1312641 0.1325459 0.1337667 0.1349265 0.1360251 0.1370628 0.1380394 0.1389245 0.139718 0.1404505 0.1411219 0.1417323 0.1422816 0.1427394 0.1431667 0.1435329 0.1438381 0.1441128 0.1443264 0.1445096 0.1446316 0.1447537 0.1448453 0.1449063 0.1449368 0.1449673 0.1449979 0.1449979 0.1449979 0.1450284 0.1449979 0.1448758 0.1446316 0.1442959 0.1438076 0.1432277 0.1425258 0.1417018 0.1407862 0.1397485 0.1386498 0.137429 0.1361472 0.1347739 0.1333089 0.1318135 0.1302264 0.1286089 0.1269609 0.1252823 0.1235732 0.1218336 0.1202466 0.1188427 0.1176219 0.1166148 0.1157908 0.1151498 0.1146921 0.1144174 0.1142953 0.1142953 0.1144174 0.1146615 0.1149667 0.115333 0.1157602 0.116218 0.1166758 0.1171641 0.1176219 0.1180797 0.118507 0.1188732 0.1191479 0.1193005 0.1193615 0.1193615 0.11927 0.1191479 0.1190258 0.1189037 0.1188122 0.1188122 0.1188732 0.1190869 0.1194531 0.1200024 0.1207654 0.1217115 0.1229323 0.1243972 0.1261063 0.1280901 0.1302875 0.1325765 0.1349265 0.137307 0.139718 0.142129 0.1445096 0.1468596 0.1491485 0.1513764 0.1535128 0.1555271 0.1574498 0.1591894 0.1607764 0.1621803 0.1634011 0.1644082 0.1652017 0.1657816 0.1661478 0.1662699 0.1663004 0.1663615 0.1664836 0.1666667 0.1669108 0.167155 0.1674297 0.1677654 0.1680706 0.1684063 0.168742 0.1690472 0.1693524 0.1696271 0.1698407 0.1700238 0.1701459 0.1701764 0.1701764 0.1700848 0.1699322 0.1696881 0.1694439 0.1691387 0.168803 0.1684673 0.1680706 0.1676738 0.167216 0.1667582 0.1662699 0.1657511 0.1652017 0.1646524 0.164042 0.1634316 0.1628212 0.1621803 0.1615089 0.1608375 0.160166 0.1594641 0.1587621 0.1578771 0.1567478 0.1553745 0.1537875 0.1519868 0.150003 0.1478362 0.1455167 0.1430446 0.1404505 0.1377648 0.135018 0.1322102 0.1293719 0.1265336 0.1236953 0.120918 0.1182018 0.1155771 0.1130135 0.1105719 0.1081914 0.1057499 0.1032473 0.1007142 0.09815052 0.09558689 0.09305377 0.09055118 0.08810963 0.08575962 0.08350119 0.08139535 0.07941158 0.07758042 0.07593237 0.07449795 0.07327718 0.07230055 0.07153757 0.07104926 0.07077459 0.07077459 0.0709577 0.07135445 0.0719038 0.07263627 0.07355185 0.07458951 0.07577977 0.07712263 0.07852652 0.0800525 0.08160898 0.08325703
0.06705121 0.06741744 0.06775316 0.06811939 0.06845511 0.0687603 0.06909601 0.06937069 0.06964536 0.06992004 0.07013367 0.07034731 0.07049991 0.07065251 0.07077459 0.07086614 0.07089666 0.07092718 0.07089666 0.07086614 0.07083562 0.07074407 0.07068302 0.07062198 0.07056095 0.07053043 0.07053043 0.07059146 0.07071354 0.07092718 0.07123238 0.07162913 0.07214796 0.07278886 0.07358237 0.07449795 0.07556614 0.07678691 0.07816029 0.07965574 0.08124276 0.08295184 0.08475249 0.08661418 0.08850638 0.09049014 0.09247391 0.09451871 0.09653299 0.09851675 0.1005005 0.1024232 0.1042849 0.1060551 0.1077336 0.1092901 0.110755 0.1120979 0.1132882 0.1143258 0.1152414 0.1161265 0.1171031 0.1181102 0.1191784 0.1202771 0.1214063 0.1225661 0.1237258 0.1249466 0.1261369 0.1273576 0.1285479 0.1297381 0.1308674 0.1319966 0.1330953 0.1341329 0.1351096 0.1360251 0.1369102 0.1377037 0.1384362 0.1391076 0.1396875 0.1402063 0.1406946 0.1410914 0.1413966 0.1417018 0.1419154 0.1420985 0.1422206 0.1423427 0.1424037 0.1424342 0.1424648 0.1424953 0.1424953 0.1424953 0.1424648 0.1424648 0.1424648 0.1424648 0.1423732 0.1422206 0.142007 0.1417018 0.141305 0.1408472 0.1402979 0.139657 0.138955 0.138131 0.1372459 0.1362693 0.1352011 0.1340719 0.1328206 0.1315083 0.1301044 0.1286394 0.1271135 0.1255265 0.1238784 0.1223219 0.1209485 0.1197583 0.1187511 0.1179271 0.1172557 0.1167674 0.1164622 0.1162791 0.116218 0.1162791 0.1164622 0.1167063 0.1170115 0.1173778 0.1177745 0.1182018 0.1186291 0.1190563 0.1194836 0.1199109 0.1202771 0.1205823 0.120796 0.120918 0.1209791 0.1210096 0.1209791 0.1209485 0.1209485 0.1210096 0.1211011 0.1213148 0.12162 0.1220778 0.1227187 0.1235427 0.1245498 0.1257706 0.1272355 0.1289446 0.1308674 0.1330037 0.1351706 0.137368 0.1395654 0.1417323 0.1438686 0.1459745 0.1479888 0.1499725 0.1518647 0.1536349 0.1553439 0.1569005 0.1583349 0.1596167 0.1607459 0.1617225 0.1625465 0.1631874 0.1636452 0.1639199 0.1640115 0.164042 0.1641946 0.1644388 0.1647439 0.1651407 0.165629 0.1661478 0.1667277 0.1673381 0.1679485 0.1685589 0.1691693 0.1697186 0.1702374 0.1706952 0.1710615 0.1713667 0.1715498 0.1716413 0.1715803 0.1714277 0.171153 0.1708173 0.1704206 0.1699628 0.1694439 0.1688641 0.1682232 0.1675517 0.1668193 0.1660563 0.1652628 0.1644693 0.1636452 0.1627907 0.1619667 0.1611121 0.1602881 0.1594946 0.1587011 0.1579076 0.1571751 0.1564427 0.1555881 0.1545199 0.1532381 0.1518037 0.1501556 0.148355 0.1464018 0.1442959 0.1420375 0.139718 0.1372764 0.1347433 0.1321797 0.1295855 0.1269609 0.1243362 0.121742 0.1191784 0.1166453 0.1142038 0.1118232 0.1094732 0.1070317 0.1044986 0.1019349 0.09931026 0.09665507 0.0940304 0.09140573 0.08884209 0.08637002 0.08395898 0.08170054 0.07956418 0.07761094 0.07587133 0.07431484 0.0730025 0.07193432 0.07111029 0.07056095 0.07028627 0.07028627 0.07049991 0.07092718 0.07156809 0.07242263 0.0734603 0.07468107 0.07605445 0.0775499 0.07916743 0.08087651 0.08267716 0.08450833
0.06637979 0.0668681 0.06735641 0.06784472 0.06833303 0.06879082 0.06927913 0.0697064 0.07013367 0.07053043 0.07089666 0.07123238 0.07150705 0.07175121 0.07193432 0.07208692 0.07214796 0.07217848 0.07217848 0.07211744 0.0720564 0.07199536 0.0719038 0.07181224 0.07172069 0.07165965 0.07165965 0.07169016 0.07178172 0.07193432 0.072209 0.07257523 0.07306354 0.07367393 0.0744064 0.07529146 0.07632912 0.07751938 0.07886223 0.08032717 0.08191418 0.08356223 0.08530184 0.08710249 0.08896417 0.09088689 0.09280962 0.09476286 0.09671611 0.09866935 0.1005616 0.1024232 0.1041934 0.105933 0.1075505 0.1090765 0.1104804 0.1117927 0.1129524 0.1139596 0.1148752 0.1157602 0.1166758 0.1176219 0.1185986 0.1196362 0.1206739 0.1217115 0.1228102 0.1238784 0.1249771 0.1260453 0.127144 0.1282122 0.1292498 0.1302875 0.1312946 0.1322407 0.1331868 0.1340719 0.1348959 0.13572 0.1364524 0.1371239 0.1377037 0.1382225 0.1386498 0.139016 0.1393213 0.1395654 0.1397485 0.1399011 0.1399927 0.1400537 0.1400842 0.1401148 0.1400842 0.1400842 0.1400537 0.1400232 0.1399927 0.1399927 0.1399622 0.1399622 0.1399316 0.1398706 0.139779 0.1396264 0.1394433 0.1392297 0.138955 0.1385888 0.138192 0.1376732 0.1371239 0.1364524 0.1356894 0.1348349 0.1338583 0.1328206 0.1316303 0.1303485 0.1289752 0.1275102 0.1259537 0.1244583 0.1231154 0.1219557 0.1209485 0.1201245 0.1194531 0.1189343 0.118568 0.1183544 0.1182323 0.1182628 0.1183544 0.1185375 0.1188122 0.1191174 0.1194531 0.1198193 0.1202161 0.1206433 0.1210401 0.1214674 0.1218336 0.1221693 0.1224135 0.1225966 0.1227187 0.1228407 0.1229323 0.1229934 0.1231154 0.123268 0.1234817 0.1237869 0.1242141 0.1247635 0.1254959 0.1263505 0.1274187 0.12867 0.1301349 0.1317829 0.1336752 0.13572 0.1377953 0.1398096 0.1418238 0.1437466 0.1456082 0.1474394 0.1491485 0.1507966 0.1523225 0.1537875 0.1551303 0.1563511 0.1574803 0.1584569 0.1593115 0.1600745 0.1606849 0.1611426 0.1614784 0.161692 0.161753 0.1618446 0.1620277 0.1623939 0.1628517 0.1634316 0.164103 0.164866 0.16569 0.1665446 0.1674297 0.1683452 0.1691998 0.1700543 0.1708173 0.1714887 0.1720686 0.1725264 0.1728316 0.1730147 0.1730147 0.1728621 0.1725569 0.1721296 0.1716108 0.1710004 0.1702985 0.1695355 0.168681 0.1677654 0.1667887 0.1657511 0.1647134 0.1636147 0.1625465 0.1614478 0.1604102 0.159342 0.1583349 0.1573888 0.1564732 0.1556186 0.1548251 0.1540927 0.1532381 0.152231 0.1510712 0.1497284 0.1482329 0.1466154 0.1448453 0.1429836 0.1409693 0.1388635 0.1366966 0.1344076 0.1320881 0.1297381 0.1273271 0.1249161 0.1224745 0.1200635 0.1176524 0.1153024 0.112983 0.1106635 0.1082219 0.1056888 0.1030641 0.1003784 0.09766221 0.09491546 0.09219923 0.08951352 0.08688885 0.08438625 0.08197522 0.07971678 0.07764146 0.07574925 0.0741012 0.07269731 0.07153757 0.07065251 0.07007264 0.06976745 0.06976745 0.0700116 0.07049991 0.07123238 0.072209 0.07336874 0.07474211 0.07626808 0.07797717 0.07977782 0.08170054 0.08368431 0.08572911
0.0657694 0.06637979 0.06699017 0.06763108 0.06827199 0.06891289 0.06952329 0.07013367 0.07068302 0.07123238 0.07172069 0.07217848 0.07257523 0.07288042 0.0731551 0.07333822 0.0734603 0.07349081 0.0734603 0.07342978 0.07333822 0.07324666 0.0731551 0.07303302 0.07294147 0.07284991 0.07278886 0.07278886 0.07284991 0.0730025 0.07321614 0.07355185 0.07400964 0.074559 0.07529146 0.07614601 0.07715315 0.07831289 0.07962522 0.08105963 0.0825856 0.08420314 0.08591223 0.08765183 0.08945248 0.09131417 0.09317585 0.09506806 0.09692974 0.09882195 0.1006531 0.1024232 0.1041628 0.1058109 0.1073979 0.1088628 0.1102362 0.1114875 0.1126167 0.1136239 0.1145089 0.1153635 0.1162485 0.1171641 0.1180797 0.1190258 0.1199719 0.120918 0.1218946 0.1228713 0.1238479 0.1248245 0.1257706 0.1267472 0.1276933 0.1286394 0.129555 0.1304401 0.1313252 0.1321797 0.1330037 0.1337972 0.1345297 0.1352011 0.135781 0.1362693 0.1366966 0.1370628 0.1373375 0.1375511 0.1377037 0.1377953 0.1378563 0.1378868 0.1378868 0.1378563 0.1378258 0.1377648 0.1377342 0.1376732 0.1376427 0.1376122 0.1375816 0.1375816 0.1376122 0.1376122 0.1376427 0.1376732 0.1377037 0.1377037 0.1376732 0.1375816 0.1374596 0.1372764 0.1370323 0.1366661 0.1362083 0.1356284 0.134957 0.1341329 0.1331868 0.1320881 0.1308674 0.1295245 0.1280596 0.1266252 0.1253433 0.1241836 0.123207 0.122383 0.1217115 0.1211622 0.1207654 0.1204908 0.1203382 0.1203076 0.1203687 0.1204908 0.1207044 0.1209485 0.1212537 0.1215895 0.1219557 0.1223219 0.1227187 0.1231154 0.1235122 0.1238479 0.1241531 0.1243972 0.1245804 0.124794 0.1249466 0.1251602 0.1253739 0.125618 0.1259537 0.1263505 0.1268693 0.1275102 0.1282732 0.1291888 0.1302875 0.1315693 0.1330037 0.1346212 0.1364524 0.1384057 0.1403589 0.1422206 0.1440212 0.1457303 0.1473479 0.1488738 0.1502777 0.1515901 0.1528108 0.1539095 0.1549167 0.1558323 0.1566258 0.1573277 0.1579381 0.1584569 0.1588537 0.1591894 0.159403 0.1595556 0.1595862 0.1596777 0.1599524 0.1603797 0.16099 0.1617225 0.1626076 0.1635842 0.1646524 0.1657816 0.1669108 0.1680706 0.1692303 0.1702985 0.1713056 0.1721907 0.1729537 0.1735641 0.1739913 0.174266 0.1742965 0.1741439 0.1737777 0.1732894 0.172679 0.171916 0.1710615 0.1700848 0.1690167 0.1678569 0.1666361 0.1653543 0.164042 0.1627297 0.1613868 0.1600745 0.1587621 0.1575413 0.1563511 0.1552219 0.1542147 0.1532686 0.1524141 0.1516816 0.1508576 0.1499115 0.1488128 0.1476225 0.1462797 0.1448453 0.1432583 0.1415797 0.1398096 0.1379479 0.1360251 0.1339803 0.131905 0.1297687 0.1275713 0.1253433 0.1230849 0.1208265 0.1185375 0.1162791 0.1140206 0.1117317 0.1092901 0.1067265 0.1040713 0.1013551 0.09854727 0.09573948 0.09290118 0.09012391 0.08737716 0.08472197 0.08218885 0.07980834 0.07761094 0.07562718 0.07385705 0.0723616 0.07114082 0.07019471 0.06958432 0.06924861 0.06924861 0.06952329 0.07007264 0.07089666 0.07196485 0.07324666 0.07477263 0.07648171 0.07834341 0.08032717 0.08246353 0.08463041 0.08685833
0.06528109 0.06601355 0.06674602 0.067509 0.06830251 0.0690655 0.069859 0.07059146 0.07132393 0.07199536 0.07260575 0.0731551 0.07364341 0.07407068 0.0744064 0.07462003 0.07477263 0.07483367 0.07480315 0.07474211 0.07468107 0.074559 0.07443692 0.07431484 0.07416224 0.07407068 0.07397912 0.07394861 0.07397912 0.07407068 0.0742538 0.074559 0.07498626 0.07550509 0.07617652 0.07700055 0.07797717 0.07910639 0.0803882 0.0817921 0.08328755 0.08487456 0.08652262 0.08820118 0.08997131 0.09174144 0.09354208 0.09537325 0.0971739 0.09897455 0.1007447 0.1024843 0.1041628 0.1057499 0.1072758 0.1087102 0.1100226 0.1112434 0.1123421 0.1133492 0.1142038 0.1150278 0.1158823 0.1167369 0.1175914 0.1184459 0.1193005 0.1201856 0.1210401 0.1219252 0.1227797 0.1236343 0.1245193 0.1253739 0.1262284 0.1270829 0.1279375 0.1287615 0.1295855 0.1304096 0.1312031 0.1319966 0.1327596 0.133431 0.1340109 0.1344992 0.1348959 0.1352316 0.1354758 0.1356589 0.135781 0.135842 0.1358725 0.1358725 0.135842 0.135781 0.13572 0.1356284 0.1355674 0.1354758 0.1354453 0.1353842 0.1353842 0.1353842 0.1354453 0.1355368 0.1356894 0.1358725 0.1360557 0.1362998 0.1365135 0.1366966 0.1368492 0.1369407 0.1369713 0.1369102 0.1367576 0.1364524 0.1360251 0.1354453 0.1347128 0.1338277 0.1327596 0.1315388 0.1301349 0.1287615 0.1275407 0.126442 0.1254654 0.1246719 0.12397 0.1234206 0.1229934 0.1227187 0.1225356 0.122444 0.122444 0.1225356 0.1226882 0.1229018 0.1231459 0.1234511 0.1237869 0.1241531 0.1245193 0.1249161 0.1253128 0.1256791 0.1260148 0.1262894 0.1265641 0.1268388 0.1270829 0.1273576 0.1276628 0.128029 0.1284258 0.1289446 0.1295245 0.1302264 0.1310505 0.1320271 0.1331258 0.1344076 0.1358115 0.1373985 0.1391381 0.1410303 0.1428615 0.1445706 0.1461576 0.1476531 0.1489959 0.1502472 0.1513764 0.1523836 0.1532686 0.1540621 0.1547336 0.1553439 0.1558323 0.1562595 0.1566258 0.1569005 0.1571446 0.1572972 0.1574193 0.1574803 0.1575108 0.1576329 0.1579381 0.1584875 0.1591894 0.160105 0.1611426 0.1623329 0.1636147 0.1649881 0.166392 0.1677959 0.1691693 0.1704816 0.1717024 0.1728011 0.1737167 0.1744796 0.175029 0.1753342 0.1754257 0.1752732 0.1748764 0.1742965 0.1735641 0.172679 0.1716413 0.1704816 0.1691998 0.1678264 0.1663615 0.164866 0.1633095 0.1617225 0.1601355 0.1586095 0.1571141 0.1556797 0.1543063 0.153055 0.1519258 0.1508881 0.150003 0.1492706 0.1484771 0.1475615 0.1465849 0.1454862 0.1442959 0.1430141 0.1416102 0.1401453 0.1385888 0.1369713 0.1352316 0.133431 0.1315693 0.1296466 0.1276628 0.125618 0.1235427 0.1214063 0.1192395 0.1170726 0.1148752 0.1126167 0.1102057 0.1076421 0.1049564 0.1021791 0.09934078 0.09644143 0.09351157 0.09061222 0.08777391 0.08499664 0.08237197 0.07986937 0.0775499 0.07544406 0.07361289 0.07202588 0.07071354 0.06973692 0.0690655 0.06872978 0.06872978 0.06903498 0.06964536 0.07053043 0.07169016 0.07312458 0.07477263 0.07663432 0.0786486 0.080846 0.08313496 0.08548495 0.08789599
0.06491485 0.06573887 0.06659342 0.067509 0.06842458 0.06934017 0.07025576 0.07114082 0.07199536 0.07278886 0.07352133 0.07419276 0.07477263 0.07526094 0.0756577 0.07593237 0.07611549 0.07617652 0.07614601 0.07608496 0.0759934 0.07587133 0.07574925 0.07559665 0.07544406 0.07529146 0.0751999 0.07510834 0.07510834 0.07516938 0.07532198 0.07559665 0.07596289 0.07648171 0.07712263 0.07788561 0.07883172 0.07993042 0.08118171 0.08255509 0.08402002 0.08554599 0.08713301 0.08878105 0.09049014 0.09219923 0.09396936 0.09570897 0.09744857 0.09918818 0.1008973 0.1025758 0.1041628 0.1057193 0.1071843 0.1085576 0.1098395 0.1110297 0.1120979 0.1130745 0.1139291 0.1147531 0.1155466 0.1163401 0.1171336 0.1179271 0.1187206 0.1195141 0.1202771 0.1210401 0.1218031 0.1225966 0.1233596 0.1241226 0.1248856 0.1256791 0.126442 0.1272355 0.128029 0.128792 0.1295855 0.1303791 0.131142 0.1318135 0.1323628 0.1328511 0.1332479 0.1335531 0.1337972 0.1339498 0.1340414 0.1341024 0.1340719 0.1340414 0.1339803 0.1338888 0.1337972 0.1337057 0.1336141 0.1335226 0.1334615 0.1334005 0.13337 0.13337 0.1334615 0.1336446 0.1339193 0.1342245 0.1346212 0.1350485 0.1354758 0.1359031 0.1363303 0.1366966 0.1370018 0.1372154 0.1373375 0.137307 0.1371239 0.1367576 0.1362388 0.1355063 0.1345907 0.133492 0.1322102 0.1308979 0.1297076 0.12867 0.1277239 0.1269304 0.1262589 0.1257096 0.1252823 0.1249466 0.124733 0.1246109 0.1245804 0.1246414 0.1247635 0.1249466 0.1251602 0.1254349 0.1257401 0.1260758 0.126442 0.1268388 0.1272355 0.1276323 0.127968 0.1283037 0.1286394 0.1289446 0.1292804 0.1296466 0.1300128 0.1304401 0.1309284 0.1315083 0.1321492 0.1329122 0.1337667 0.1347739 0.1359031 0.1371544 0.1385277 0.1400842 0.1417323 0.1435329 0.145242 0.1467985 0.1482024 0.1494537 0.1505829 0.1515595 0.1523836 0.153116 0.1536959 0.1541842 0.154581 0.1548862 0.1550998 0.1552829 0.155405 0.155466 0.1555271 0.1555576 0.1555576 0.1555881 0.1555881 0.1557102 0.1560764 0.1566868 0.1575108 0.1585485 0.1597693 0.1611426 0.1626381 0.1642251 0.1658426 0.1674602 0.1690472 0.1705732 0.171977 0.1732589 0.174327 0.1752121 0.175853 0.1762498 0.1763413 0.1761582 0.1757309 0.1750595 0.1742355 0.1732284 0.1720381 0.1706952 0.1692303 0.1676433 0.1659647 0.1642251 0.162455 0.1606238 0.1588537 0.1570836 0.155405 0.1537875 0.1522615 0.1508881 0.1496368 0.1485686 0.1476225 0.1468596 0.1460966 0.145242 0.1443264 0.1433498 0.1422816 0.1411524 0.1399316 0.1386498 0.137307 0.1358725 0.1343771 0.1327901 0.131142 0.1294024 0.1276018 0.1257401 0.1238174 0.1218031 0.1197583 0.117683 0.1155466 0.1133187 0.1109382 0.1083745 0.1056888 0.1028505 0.09995117 0.09699078 0.09399988 0.09100898 0.08804858 0.08521028 0.08246353 0.07983886 0.07745834 0.07526094 0.07330769 0.07165965 0.07031679 0.06927913 0.06857719 0.06821095 0.06821095 0.06854667 0.06918757 0.0701642 0.07141549 0.07294147 0.07474211 0.07672587 0.07892327 0.08127327 0.08371483 0.08624794 0.08881158
0.0646707 0.0656168 0.06659342 0.06763108 0.06866874 0.0697064 0.07074407 0.07175121 0.07272783 0.07364341 0.07449795 0.07526094 0.07593237 0.07651224 0.07693951 0.07727522 0.07745834 0.07751938 0.07751938 0.07745834 0.07733627 0.07721418 0.07706159 0.07687847 0.07669535 0.07654276 0.07639016 0.0762986 0.07626808 0.0762986 0.07642068 0.07663432 0.07697003 0.07745834 0.07803821 0.0788012 0.07971678 0.08075444 0.08197522 0.08331807 0.08475249 0.08624794 0.08777391 0.08939144 0.09100898 0.09268754 0.09436611 0.0960752 0.09775377 0.09943233 0.1010804 0.1026674 0.1042239 0.1057193 0.1071232 0.1084661 0.1097174 0.1108771 0.1119148 0.1128609 0.1136849 0.1144784 0.1152719 0.1160349 0.1167674 0.1174998 0.1182018 0.1189037 0.1196057 0.1202771 0.1209791 0.1216505 0.1223219 0.1230239 0.1237258 0.1244278 0.1251602 0.1258927 0.1266252 0.1273881 0.1281817 0.1289446 0.1297076 0.1303791 0.1309589 0.1314167 0.1318135 0.1320881 0.1323018 0.1324544 0.1325154 0.1325459 0.1325154 0.1324544 0.1323628 0.1322407 0.1321187 0.1319966 0.131905 0.1317829 0.1317219 0.1316609 0.1316303 0.1316303 0.1317829 0.1320271 0.1323628 0.1328206 0.13337 0.1339803 0.1346212 0.1352927 0.1359336 0.136544 0.1371239 0.1375816 0.1379174 0.138131 0.138192 0.1380394 0.1377037 0.1371544 0.1363914 0.1354148 0.134194 0.1329732 0.131844 0.1308368 0.1299518 0.1291583 0.1285174 0.127968 0.1275407 0.127205 0.1269914 0.1268388 0.1267778 0.1268083 0.1268998 0.1270524 0.1272661 0.1275102 0.1278154 0.1281206 0.1284868 0.1288836 0.1292804 0.1296771 0.1300433 0.1304096 0.1307758 0.1311726 0.1315388 0.1319661 0.1323933 0.1328816 0.133431 0.1340414 0.1347433 0.1355368 0.1364219 0.137429 0.1385277 0.139779 0.1411219 0.1425868 0.1442044 0.1458829 0.1474394 0.1488433 0.1500946 0.1511323 0.1520479 0.1527803 0.1533602 0.1537875 0.1540927 0.1543063 0.1544284 0.1544589 0.1544284 0.1543673 0.1542758 0.1541537 0.1540621 0.1539706 0.153879 0.1538485 0.153818 0.1539706 0.1543673 0.1550693 0.1559849 0.1571446 0.158518 0.160044 0.1617225 0.1634621 0.1652628 0.1670939 0.1688641 0.1705732 0.1721602 0.1735641 0.1747848 0.1757615 0.1764634 0.1768907 0.1770128 0.1768296 0.1763413 0.1756089 0.1746628 0.1735335 0.1722212 0.1707257 0.1690777 0.1673076 0.1654154 0.1634621 0.1614784 0.1594641 0.1574803 0.1555271 0.1536654 0.1518953 0.1502472 0.1487518 0.1474089 0.1462492 0.1453031 0.1445096 0.1437466 0.1429531 0.1420985 0.1412134 0.1402673 0.1392907 0.1382225 0.1371239 0.1359336 0.1346823 0.13337 0.1319966 0.1305317 0.1289752 0.1273576 0.1256485 0.1238784 0.1220167 0.1200635 0.1180492 0.1160044 0.113807 0.111457 0.1088934 0.1061771 0.1033388 0.100409 0.09738754 0.09433559 0.09125313 0.08823171 0.08530184 0.08246353 0.07977782 0.07727522 0.07501678 0.0730025 0.07129341 0.06988952 0.06882134 0.06808887 0.06772264 0.06772264 0.06805836 0.0687603 0.06979796 0.07111029 0.07275835 0.07465056 0.07678691 0.07910639 0.08157846 0.08420314 0.08688885 0.08960508
0.06460965 0.06564732 0.06671549 0.06787524 0.06900445 0.07019471 0.07132393 0.07245316 0.07355185 0.074559 0.07550509 0.07635964 0.07712263 0.07773302 0.07822133 0.07858756 0.07883172 0.07889275 0.07886223 0.0788012 0.07867911 0.07852652 0.07837392 0.07816029 0.07797717 0.07779405 0.07761094 0.07748886 0.07742782 0.07742782 0.07751938 0.07770249 0.07800769 0.07843496 0.07901483 0.07971678 0.08057132 0.08160898 0.08276872 0.08408106 0.08548495 0.08691937 0.08844534 0.08997131 0.09155832 0.09317585 0.0948239 0.09644143 0.09808949 0.09967649 0.1012635 0.10282 0.1043154 0.1057804 0.1071538 0.1084356 0.1096563 0.110755 0.1117927 0.1127083 0.1135323 0.1142953 0.1150278 0.1157602 0.1164622 0.1171336 0.1177745 0.1184154 0.1190258 0.1196362 0.1202466 0.120857 0.1214674 0.1221083 0.1227187 0.1233901 0.1240615 0.124733 0.1254654 0.1261979 0.1269609 0.1277544 0.1285174 0.1291888 0.1297687 0.1302264 0.1305927 0.1308979 0.131081 0.1312031 0.1312641 0.1312641 0.1312336 0.131142 0.13102 0.1308979 0.1307453 0.1306232 0.1304706 0.1303791 0.1302875 0.1302264 0.1301959 0.1301959 0.1303485 0.1306537 0.1311115 0.1316914 0.1323628 0.1331258 0.1339498 0.1348044 0.1356894 0.1365135 0.137307 0.1379784 0.1385583 0.1389855 0.1392297 0.1392907 0.1391076 0.1387414 0.1381005 0.1372154 0.1361167 0.134957 0.1338888 0.1329427 0.1320881 0.1313557 0.1307453 0.1301959 0.1297992 0.1294635 0.1292498 0.1290972 0.1290362 0.1290362 0.1291278 0.1292498 0.1294329 0.1296771 0.1299823 0.1302875 0.1306537 0.13102 0.1314167 0.131844 0.1322102 0.132607 0.1330037 0.133431 0.1338583 0.1342855 0.1347739 0.1352927 0.1359031 0.136544 0.1372459 0.13807 0.138955 0.1399316 0.1410303 0.1422206 0.1435329 0.1449368 0.1464323 0.1480193 0.1494842 0.1507355 0.1518037 0.1526582 0.1533602 0.1538485 0.1542147 0.1543978 0.1544589 0.1544284 0.1543063 0.1540927 0.1538485 0.1535738 0.1532992 0.1530245 0.1527803 0.1525667 0.1524141 0.1523225 0.152292 0.1524446 0.1528719 0.1536349 0.154642 0.1558933 0.1573888 0.1590368 0.1608375 0.1627602 0.1647134 0.1666972 0.1686199 0.1704511 0.1721602 0.1736861 0.1749985 0.1760667 0.1768296 0.1772874 0.1774095 0.1771959 0.1766465 0.1758835 0.1748459 0.1735946 0.1721602 0.1705121 0.1687115 0.1667582 0.1647134 0.1625771 0.1604102 0.1582128 0.1560459 0.1539401 0.1519258 0.150003 0.1482634 0.1466459 0.145242 0.1440212 0.1430141 0.1422511 0.1414881 0.1407251 0.1399622 0.1391381 0.1382836 0.137429 0.1364829 0.1355368 0.1345297 0.133431 0.1323018 0.131081 0.1297687 0.1283953 0.1269304 0.1253739 0.1236953 0.1219557 0.1201245 0.1182018 0.1161875 0.1140511 0.1117012 0.109168 0.1064518 0.1036135 0.1006531 0.09757065 0.09448819 0.0913752 0.08829274 0.08527131 0.08237197 0.07962522 0.07706159 0.07474211 0.07266679 0.07089666 0.06946225 0.06836355 0.06760056 0.06723433 0.06723433 0.06760056 0.06833303 0.0694012 0.0708051 0.07254471 0.07452847 0.0767564 0.07919795 0.08182262 0.08453885 0.08734664 0.09021547
0.06470121 0.06583043 0.06702069 0.06824147 0.06949276 0.07077459 0.07202588 0.07324666 0.07443692 0.07553562 0.07657328 0.07748886 0.07831289 0.07898431 0.07953367 0.07993042 0.08014405 0.08023561 0.08020509 0.08014405 0.08002198 0.07986937 0.07965574 0.07947262 0.07925899 0.07904536 0.07883172 0.07867911 0.07858756 0.07855704 0.07861808 0.07877067 0.07901483 0.07941158 0.07996093 0.08063236 0.08145639 0.08246353 0.08359275 0.08487456 0.08621742 0.08762132 0.08908625 0.0905817 0.09213819 0.09369469 0.09525117 0.09683818 0.09842519 0.09998169 0.1015077 0.1030031 0.104468 0.1058719 0.1071843 0.1084356 0.1096258 0.1107245 0.1117012 0.1126167 0.1134102 0.1141427 0.1148752 0.1155466 0.116218 0.1168284 0.1174388 0.1180187 0.118568 0.1191479 0.1196972 0.1202466 0.120796 0.1213758 0.1219557 0.1225661 0.1231765 0.1238479 0.1245498 0.1252518 0.1260148 0.1268083 0.1276018 0.1282732 0.1288226 0.1292804 0.1296771 0.1299518 0.1301349 0.130257 0.1302875 0.1302875 0.1301959 0.1301044 0.1299823 0.1298297 0.1296771 0.1295245 0.1294024 0.1292804 0.1291888 0.1290972 0.1290667 0.1290972 0.1292804 0.1296161 0.1301349 0.1308063 0.1315998 0.1325154 0.133492 0.1345297 0.1355674 0.1365745 0.1375511 0.1384362 0.1391992 0.1398096 0.1402368 0.1404505 0.1404505 0.1402063 0.139718 0.138955 0.1379174 0.1368492 0.135842 0.134957 0.1341635 0.133492 0.1328816 0.1323933 0.1319966 0.1316914 0.1314777 0.1313557 0.1312946 0.1312946 0.1313862 0.1315083 0.1316914 0.1319355 0.1322102 0.1325459 0.1328816 0.1332784 0.1336752 0.1340719 0.1344992 0.1348959 0.1353232 0.1357505 0.1361777 0.1366355 0.1371544 0.1377037 0.1382836 0.138955 0.139657 0.1404505 0.1413355 0.1422816 0.1433498 0.144479 0.1457303 0.1470732 0.1484771 0.1499725 0.1512849 0.1524141 0.1533297 0.1540011 0.1545199 0.1548251 0.1549472 0.1549472 0.1547946 0.1545199 0.1541842 0.1537875 0.1533602 0.1529024 0.1524446 0.1520479 0.1516816 0.1513764 0.1511628 0.1510102 0.1509797 0.1511323 0.1516206 0.1523836 0.1534823 0.1547946 0.1563816 0.1581212 0.160044 0.1620582 0.1641335 0.1662394 0.1682842 0.1702069 0.1720381 0.1736251 0.175029 0.1761277 0.1769212 0.1774095 0.1775316 0.1772874 0.176677 0.1758225 0.1747238 0.1733809 0.1718245 0.1700543 0.1681316 0.1660258 0.1638284 0.1615394 0.1592199 0.1569005 0.154581 0.152353 0.1501862 0.1481719 0.1463102 0.1446011 0.1431362 0.1418849 0.1408472 0.1400537 0.1393213 0.1385888 0.1378563 0.1371239 0.1363609 0.1355674 0.1347739 0.1339193 0.1330342 0.1320881 0.131081 0.1300128 0.1288531 0.1276323 0.1262894 0.124855 0.1232985 0.1216505 0.1199109 0.1180492 0.116096 0.1140206 0.1117012 0.1091986 0.1064823 0.103644 0.1006531 0.09757065 0.09445767 0.09131417 0.08817066 0.08511872 0.08218885 0.07938106 0.07678691 0.0744064 0.07233107 0.07049991 0.06903498 0.06790575 0.06714277 0.06674602 0.06674602 0.06714277 0.06790575 0.06903498 0.07049991 0.07227004 0.07434536 0.07666484 0.07919795 0.08191418 0.08475249 0.08768235 0.09064274
0.06497589 0.06619667 0.06744796 0.0687603 0.07010315 0.07147653 0.07281938 0.0741012 0.07538302 0.07654276 0.07764146 0.0786486 0.07950314 0.08023561 0.08081548 0.08121223 0.08148691 0.08157846 0.08154795 0.08145639 0.08133431 0.08115119 0.08096807 0.08072392 0.08051029 0.08026613 0.0800525 0.07986937 0.0797473 0.07968626 0.07968626 0.07980834 0.0800525 0.08041873 0.08090704 0.08154795 0.08234145 0.08328755 0.08441678 0.08563755 0.08694988 0.08832327 0.08975767 0.09119209 0.09268754 0.09421352 0.09573948 0.09726546 0.09879143 0.1003174 0.1017823 0.1032473 0.1046512 0.1060245 0.1073064 0.1085271 0.1096563 0.1107245 0.1117012 0.1125557 0.1133492 0.1140817 0.1147836 0.1154245 0.1160349 0.1166453 0.1171947 0.117744 0.1182628 0.1187817 0.11927 0.1197888 0.1203076 0.1208265 0.1213758 0.1219557 0.1225661 0.123207 0.1238784 0.1245804 0.1253433 0.1261369 0.1269304 0.1276018 0.1281817 0.1286394 0.1290057 0.1292804 0.1294635 0.1295855 0.1296161 0.1295855 0.1295245 0.1294024 0.1292804 0.1291278 0.1289446 0.128792 0.1286394 0.1285174 0.1284258 0.1283648 0.1283343 0.1283343 0.1285479 0.1289446 0.1295245 0.130257 0.131142 0.1321492 0.1332479 0.1344076 0.1355979 0.1367881 0.1378868 0.138955 0.1398706 0.1406336 0.1412134 0.1415797 0.1417018 0.1415797 0.1411829 0.140542 0.1395959 0.1386193 0.1377037 0.1368797 0.1361472 0.1355063 0.1349875 0.1345297 0.1341635 0.1338888 0.1337057 0.1336141 0.1335531 0.1335836 0.1336752 0.1338277 0.1340109 0.134255 0.1345602 0.1348654 0.1352316 0.1355979 0.1360251 0.1364219 0.1368186 0.1372459 0.1376427 0.13807 0.1385277 0.1389855 0.1395044 0.1400232 0.1406031 0.141244 0.1419459 0.1427089 0.1435634 0.1444485 0.1454557 0.1465238 0.1476836 0.1489349 0.1502777 0.1516511 0.1528719 0.1538485 0.1546115 0.1551608 0.1554966 0.1556186 0.1555881 0.1553745 0.1550693 0.154642 0.1541232 0.1535433 0.1529634 0.152353 0.1517732 0.1512544 0.1507966 0.1504303 0.1501556 0.1499725 0.1499115 0.1500946 0.1505829 0.1514069 0.1525057 0.1539095 0.1555271 0.1573582 0.159342 0.1614173 0.1635842 0.1657206 0.1678569 0.1698712 0.1717329 0.1733809 0.1747848 0.1759446 0.1767381 0.1772264 0.1773179 0.1770433 0.1764024 0.1754868 0.1742965 0.1728621 0.1712141 0.1693524 0.1673076 0.1651102 0.1627907 0.1603797 0.1579381 0.1554966 0.153055 0.150705 0.1484466 0.1463407 0.144418 0.1426479 0.1411219 0.1398096 0.1387719 0.1379784 0.1372459 0.136544 0.135842 0.1351401 0.1344687 0.1337667 0.1330342 0.1323018 0.1315083 0.1306842 0.1297992 0.1288226 0.1277849 0.1266557 0.1254044 0.124092 0.1226271 0.1210706 0.1193921 0.1176219 0.1157297 0.1136849 0.1114265 0.1089239 0.1062687 0.1034304 0.1004395 0.09735702 0.09424403 0.09107001 0.08792651 0.08487456 0.08188366 0.07907587 0.0764512 0.07407068 0.07193432 0.07010315 0.0686077 0.06747849 0.06671549 0.06631874 0.06631874 0.06671549 0.06747849 0.06863822 0.0701642 0.07199536 0.0741012 0.07651224 0.07910639 0.08191418 0.08481353 0.08780443 0.09085637
0.0654642 0.06671549 0.06805836 0.06946225 0.07086614 0.07227004 0.07370445 0.07504731 0.07639016 0.07761094 0.07877067 0.07980834 0.0806934 0.08145639 0.08206677 0.08249405 0.08276872 0.08286028 0.08282976 0.08273821 0.08261613 0.08243301 0.08221938 0.08197522 0.08173107 0.08148691 0.08124276 0.08102912 0.08087651 0.08078496 0.08078496 0.08087651 0.08105963 0.08139535 0.08185314 0.08246353 0.08322652 0.0841421 0.08521028 0.08643106 0.08768235 0.08902521 0.09039858 0.09180248 0.09326741 0.09473234 0.09622779 0.09769273 0.09918818 0.1006531 0.102118 0.1035219 0.1048953 0.1062077 0.1074589 0.1086492 0.1097784 0.1107856 0.1117317 0.1125862 0.1133492 0.1140817 0.1147531 0.115394 0.1159739 0.1165537 0.1170726 0.1175914 0.1180797 0.118568 0.1190563 0.1195141 0.1200024 0.1205213 0.1210401 0.12162 0.1221998 0.1228407 0.1234817 0.1242141 0.1249771 0.1257706 0.1265641 0.1272355 0.1278154 0.1282732 0.1286394 0.1289141 0.1291278 0.1292193 0.1292498 0.1292193 0.1291583 0.1290362 0.1289141 0.1287615 0.1285784 0.1284258 0.1282732 0.1281511 0.1280596 0.127968 0.1279375 0.127968 0.1281817 0.1286089 0.1292193 0.1300128 0.1309894 0.1320576 0.1332479 0.1344992 0.1358115 0.1370933 0.1383446 0.1395044 0.140542 0.1414271 0.142129 0.1426173 0.1428615 0.142831 0.1425563 0.1419764 0.1411524 0.1402368 0.1394128 0.1386498 0.1380089 0.137429 0.1369713 0.1365745 0.1362693 0.1360557 0.1359031 0.135842 0.135842 0.1358725 0.1359946 0.1361777 0.1363914 0.1366355 0.1369407 0.1372764 0.1376427 0.1380089 0.1384362 0.1388329 0.1392297 0.1396264 0.1400537 0.1404505 0.1408777 0.1413355 0.1417933 0.1423122 0.1428615 0.1434414 0.1440823 0.1447842 0.1455777 0.1464323 0.1473479 0.1483245 0.1494232 0.1505524 0.1518037 0.153055 0.1541537 0.1550388 0.1556492 0.1560764 0.1562595 0.1562595 0.1560764 0.1557407 0.1552829 0.1547031 0.1540621 0.1533602 0.1526582 0.1519563 0.1512849 0.1506745 0.1501556 0.1497284 0.1493927 0.1492095 0.1491485 0.1493011 0.1498199 0.150644 0.1517732 0.1531771 0.1548251 0.1566868 0.1587011 0.1608375 0.1630043 0.1652017 0.1673381 0.1693524 0.1712446 0.1729231 0.174327 0.1754563 0.1762803 0.1767076 0.1767991 0.1764634 0.1757615 0.1747848 0.1735641 0.1720686 0.170329 0.1683758 0.1662394 0.1639504 0.1615699 0.1590673 0.1565342 0.1540011 0.1514985 0.1490875 0.146768 0.1445706 0.1425868 0.1407862 0.1392297 0.1378868 0.1368186 0.1360251 0.1352927 0.1346212 0.1339498 0.1332784 0.1326375 0.1319966 0.1313252 0.1306537 0.1299213 0.1291888 0.1283648 0.1274797 0.1265336 0.1254654 0.1243362 0.1230849 0.1217115 0.1202161 0.1185986 0.1168895 0.1150583 0.1130745 0.1108466 0.1084051 0.1057499 0.1029421 0.09998169 0.09692974 0.09381676 0.09067326 0.08752976 0.08444729 0.08148691 0.07867911 0.07605445 0.07364341 0.07153757 0.0697064 0.06821095 0.06705121 0.06628823 0.06589147 0.06589147 0.06628823 0.06708173 0.06827199 0.06979796 0.07165965 0.07382653 0.07626808 0.07892327 0.08176158 0.08472197 0.08777391 0.09085637
0.06610511 0.06744796 0.06885186 0.07028627 0.07175121 0.07321614 0.07468107 0.07608496 0.07745834 0.07874016 0.07989989 0.08096807 0.08191418 0.08267716 0.08331807 0.08377586 0.08405054 0.0841421 0.08411158 0.08402002 0.08386742 0.08368431 0.08344015 0.083196 0.08292132 0.08264665 0.08240249 0.08218885 0.08200574 0.08188366 0.08185314 0.08191418 0.08206677 0.08237197 0.08279924 0.08337911 0.08411158 0.08496612 0.08600378 0.08719404 0.08841482 0.08969664 0.09103949 0.09241287 0.09381676 0.09525117 0.09671611 0.09815052 0.09961545 0.1010499 0.1024538 0.1038271 0.10517 0.1064518 0.1076726 0.1088323 0.109931 0.1109382 0.1118537 0.1127083 0.1134408 0.1141427 0.1147836 0.1154245 0.1160044 0.1165537 0.1170726 0.1175609 0.1180492 0.118507 0.1189953 0.1194531 0.1199414 0.1204297 0.1209485 0.1215284 0.1221083 0.1227187 0.1233901 0.1241226 0.1248856 0.1256791 0.1264726 0.1271745 0.1277544 0.1282122 0.1286089 0.1288836 0.1290667 0.1291888 0.1292193 0.1292193 0.1291278 0.1290362 0.1288836 0.128731 0.1285784 0.1284258 0.1282732 0.1281511 0.1280596 0.127968 0.1279375 0.127968 0.1281817 0.1286394 0.1292804 0.1301044 0.1311115 0.1322407 0.133492 0.1348044 0.1361777 0.1375206 0.1388329 0.1400842 0.1412134 0.1421901 0.1429836 0.1435634 0.1438992 0.1439602 0.1437771 0.1432888 0.1425258 0.1417018 0.1409693 0.1402979 0.139718 0.1392297 0.1388329 0.1385277 0.1382836 0.138131 0.1380394 0.1380394 0.13807 0.138192 0.1383446 0.1385583 0.1388024 0.1390771 0.1393823 0.139718 0.1401148 0.140481 0.1409083 0.141305 0.1417018 0.142068 0.1424648 0.142831 0.1432277 0.1436245 0.1440518 0.144479 0.1449673 0.1454862 0.146066 0.146707 0.1473784 0.1481414 0.1489654 0.149881 0.1508576 0.1518953 0.1530245 0.1541842 0.1551914 0.1559543 0.1564732 0.1567478 0.1568394 0.1567478 0.1564427 0.1560154 0.1554355 0.1547641 0.1540316 0.1532686 0.1524751 0.1517121 0.1509797 0.1503083 0.1497284 0.1492706 0.1489349 0.1487212 0.1486297 0.1488128 0.1493011 0.1501251 0.1512544 0.1526582 0.1543063 0.156168 0.1581517 0.1602881 0.162455 0.1646219 0.1667277 0.168742 0.1706037 0.1722517 0.1736251 0.1747238 0.1754868 0.1758835 0.175914 0.1755478 0.1748154 0.1737777 0.1724959 0.1709394 0.1691387 0.167155 0.1649576 0.1626076 0.160166 0.1576329 0.1550388 0.1524446 0.1499115 0.1474394 0.1450894 0.1428615 0.1408472 0.139016 0.137429 0.1360862 0.135018 0.134194 0.133492 0.1328206 0.1321492 0.1315083 0.1308674 0.130257 0.1296466 0.1290057 0.1283343 0.1276018 0.1268388 0.1260148 0.1250992 0.1241226 0.1230239 0.1218336 0.1204908 0.1190869 0.1175304 0.1158518 0.1140817 0.1121284 0.1099615 0.1075505 0.1049564 0.1022096 0.09927974 0.09625831 0.09317585 0.09006287 0.08694988 0.08392847 0.08096807 0.0781908 0.07556614 0.07321614 0.07107978 0.06927913 0.06778368 0.06665446 0.06589147 0.06549472 0.06549472 0.06589147 0.06668498 0.06787524 0.06943173 0.07129341 0.07349081 0.07593237 0.07861808 0.08145639 0.08444729 0.08752976 0.09064274
0.06677654 0.06814991 0.06961484 0.07107978 0.07260575 0.0741012 0.07559665 0.07706159 0.07846548 0.07977782 0.0809986 0.08206677 0.0830434 0.08383691 0.08447781 0.08493561 0.08521028 0.08530184 0.08527131 0.08517976 0.08502716 0.08484405 0.08459989 0.08435573 0.08408106 0.08377586 0.08353171 0.08328755 0.08307391 0.08295184 0.0828908 0.08292132 0.08307391 0.08334859 0.08374535 0.08429469 0.08499664 0.08582067 0.08682781 0.08795702 0.0891778 0.09039858 0.09171092 0.09305377 0.09439663 0.09580053 0.09720442 0.09860831 0.1000122 0.1014161 0.1027895 0.1041018 0.1054142 0.1066654 0.1078557 0.1089849 0.1100531 0.1110297 0.1119148 0.1127388 0.1134713 0.1141427 0.1147836 0.115394 0.1159739 0.1165232 0.1170421 0.1175609 0.1180492 0.1185375 0.1189953 0.1194836 0.1200024 0.1205213 0.1210401 0.12162 0.1222304 0.1228713 0.1235427 0.1242752 0.1250381 0.1258622 0.1266557 0.1273576 0.1279375 0.1284258 0.128792 0.1290972 0.1292804 0.1294024 0.1294329 0.1294024 0.1293414 0.1292193 0.1290972 0.1289446 0.1287615 0.1286089 0.1284563 0.1283343 0.1282122 0.1281511 0.1281206 0.1281511 0.1283648 0.1288226 0.1294635 0.130318 0.1313557 0.1325154 0.1337972 0.1351401 0.136544 0.1379479 0.1393213 0.1406031 0.1417933 0.142831 0.1436855 0.1443264 0.1447537 0.1449063 0.1447842 0.1443875 0.1437161 0.1429836 0.1423122 0.1417628 0.1412745 0.1408777 0.140542 0.1403284 0.1401758 0.1400842 0.1400842 0.1401453 0.1402673 0.1404199 0.1406336 0.1409083 0.1411829 0.1415187 0.1418544 0.1422206 0.1426173 0.1430141 0.1434108 0.1438076 0.1441738 0.1445401 0.1448758 0.1452115 0.1455777 0.1459135 0.1462797 0.1466459 0.1470732 0.147531 0.1480193 0.1485381 0.1491485 0.1498199 0.1505524 0.1513459 0.152231 0.1531466 0.1541842 0.1552524 0.1561375 0.1567784 0.1572056 0.1573888 0.1573582 0.1571446 0.1567784 0.156229 0.1555881 0.1548251 0.1540011 0.1531466 0.152292 0.151468 0.1506745 0.1499725 0.1493621 0.1488738 0.1485076 0.1482634 0.1482024 0.148355 0.1488738 0.1496673 0.1507966 0.1521699 0.1537875 0.1556186 0.1575719 0.1596472 0.1617836 0.1639199 0.1659952 0.1679485 0.1697491 0.1713667 0.1727095 0.1737472 0.1744491 0.1748154 0.1747848 0.1743576 0.1735641 0.1724959 0.171153 0.169566 0.1677348 0.16569 0.1634621 0.1611121 0.1586095 0.1560459 0.1534212 0.1508271 0.1482634 0.1457608 0.1433803 0.1411524 0.1391076 0.1372764 0.1356894 0.1343466 0.1332479 0.1324544 0.1317219 0.1310505 0.1303791 0.1297687 0.1291278 0.1285174 0.127907 0.1272966 0.1266252 0.1259537 0.1252213 0.1243972 0.1235122 0.1225661 0.1214979 0.1203382 0.1190563 0.117683 0.1161875 0.1145395 0.1128304 0.1109382 0.1088018 0.1064518 0.1039187 0.1012025 0.09836416 0.09540378 0.09238235 0.08929989 0.08624794 0.08325703 0.08035769 0.07761094 0.07504731 0.07269731 0.07062198 0.06885186 0.06738693 0.06625771 0.06549472 0.06512849 0.06512849 0.06552524 0.06631874 0.067509 0.06903498 0.07092718 0.07309406 0.07553562 0.07822133 0.08105963 0.08405054 0.08710249 0.09021547
0.06732589 0.0687603 0.07022523 0.07178172 0.07333822 0.07489471 0.07642068 0.07791613 0.07935055 0.0806934 0.0819447 0.0830434 0.08402002 0.08484405 0.08551547 0.08597326 0.08624794 0.08637002 0.0863395 0.08624794 0.08609534 0.08591223 0.08566807 0.08542392 0.08511872 0.08484405 0.08456937 0.08432522 0.0841421 0.0839895 0.08392847 0.08395898 0.08408106 0.08432522 0.08472197 0.0852408 0.08591223 0.08673625 0.08768235 0.08878105 0.08994079 0.09113105 0.09238235 0.09366416 0.0949765 0.09631936 0.09766221 0.09903558 0.1003784 0.1017213 0.1030336 0.1043154 0.1055667 0.106757 0.1079167 0.1090154 0.1100226 0.1109687 0.1118232 0.1126167 0.1133492 0.1139901 0.114631 0.1152414 0.1158518 0.1164012 0.1169505 0.1174998 0.1180187 0.1185375 0.1190563 0.1196057 0.120155 0.1207044 0.1212843 0.1218946 0.1225356 0.123207 0.1239089 0.1246719 0.1254654 0.1262894 0.1270829 0.1277849 0.1283648 0.1288531 0.1292193 0.129494 0.1296771 0.1297687 0.1297992 0.1297687 0.1296771 0.129555 0.1294024 0.1292193 0.1290362 0.1288531 0.1287005 0.1285784 0.1284563 0.1283953 0.1283343 0.1283648 0.1285784 0.1290362 0.1297076 0.1305622 0.1315998 0.1327596 0.1340414 0.1354148 0.1368492 0.1382531 0.139657 0.1409998 0.1422206 0.1432888 0.1442044 0.1449063 0.1453641 0.1455777 0.1455472 0.145242 0.1446316 0.1439907 0.1434414 0.1429531 0.1425563 0.1422816 0.142068 0.1419154 0.1418849 0.1418849 0.1419764 0.142129 0.1423427 0.1425868 0.142892 0.1432277 0.1435634 0.1439297 0.1443264 0.1447232 0.1451199 0.1455472 0.145944 0.1463102 0.1466764 0.1470121 0.1473173 0.1476225 0.1479277 0.1482329 0.1485381 0.1488433 0.149179 0.1495453 0.1499725 0.1504303 0.1509492 0.1514985 0.1521394 0.1528414 0.1536043 0.1544589 0.1553745 0.1563206 0.1571141 0.1576329 0.1579381 0.1580297 0.1579076 0.1575719 0.1570836 0.1564427 0.1557102 0.1548556 0.1539706 0.1530245 0.1520784 0.1511933 0.1503388 0.1495758 0.1489349 0.148416 0.1480193 0.1477751 0.1476836 0.1478667 0.148355 0.1491485 0.1502167 0.1515901 0.1531771 0.1549472 0.1568699 0.1589147 0.16099 0.1630654 0.1650797 0.1670024 0.168742 0.170268 0.1715498 0.1725569 0.1731978 0.173503 0.1734115 0.1729537 0.1721296 0.1710004 0.1696271 0.167979 0.1661173 0.164042 0.1618141 0.159403 0.1569005 0.1543368 0.1517121 0.1490875 0.1465238 0.1440212 0.1416407 0.1394128 0.137368 0.1355368 0.1339498 0.1325765 0.1315083 0.1306842 0.1299823 0.1292804 0.1286394 0.1279985 0.1273576 0.1267472 0.1261369 0.1254959 0.124855 0.1241836 0.1234511 0.1226271 0.1217726 0.1208265 0.1197888 0.1186596 0.1174083 0.1160654 0.1146005 0.1130135 0.1113349 0.1094732 0.1074284 0.1051395 0.1026674 0.1000122 0.09723493 0.09433559 0.0913752 0.0883843 0.08542392 0.08249405 0.07965574 0.07697003 0.07446744 0.07217848 0.0701642 0.06839406 0.06695965 0.06586096 0.06512849 0.06476225 0.06476225 0.06515901 0.06595251 0.06711225 0.06863822 0.07049991 0.07263627 0.07507782 0.07770249 0.08054081 0.08347067 0.08652262 0.08960508
0.06772264 0.06921809 0.07074407 0.07233107 0.07394861 0.07553562 0.07712263 0.0786486 0.08011353 0.08151743 0.08276872 0.08392847 0.08490509 0.08575962 0.08643106 0.08688885 0.08719404 0.0872856 0.08725508 0.08716352 0.08704145 0.08685833 0.08661418 0.08637002 0.08609534 0.08582067 0.08557651 0.08533236 0.08514924 0.08499664 0.08493561 0.08496612 0.0850882 0.08533236 0.08569859 0.08621742 0.08685833 0.08765183 0.08856742 0.0896356 0.0907343 0.09189404 0.09308429 0.09433559 0.09558689 0.09683818 0.09815052 0.09943233 0.1007142 0.1019654 0.1032168 0.1044375 0.1056278 0.1067875 0.1078862 0.1088934 0.10987 0.1107856 0.1116096 0.1123726 0.1130745 0.1137154 0.1143869 0.1149973 0.1156076 0.116218 0.1167979 0.1174083 0.1179882 0.118568 0.1191784 0.1197583 0.1203687 0.1210096 0.1216505 0.1223219 0.1230239 0.1237563 0.1244888 0.1252823 0.1260758 0.1269304 0.1277239 0.1284258 0.1290057 0.1294635 0.1298297 0.1300739 0.130257 0.130318 0.130318 0.130257 0.1301349 0.1299823 0.1297992 0.1295855 0.1294024 0.1291888 0.1290057 0.1288531 0.128731 0.1286394 0.1286089 0.1286394 0.1288531 0.1293109 0.1299518 0.1308063 0.131844 0.1330037 0.1342855 0.1356589 0.1370628 0.1384972 0.1399011 0.141244 0.1424648 0.1435634 0.1445096 0.145242 0.1457608 0.1460355 0.146066 0.1458219 0.1453336 0.1447537 0.1442959 0.1439297 0.143655 0.1434414 0.1433498 0.1433498 0.1434108 0.1435634 0.1437466 0.1440212 0.1443264 0.1446927 0.1450589 0.1454862 0.1459135 0.1463407 0.146768 0.1471953 0.1476225 0.1480498 0.1484466 0.1488128 0.149179 0.1494842 0.1497589 0.1500336 0.1502777 0.1505219 0.1507966 0.1510407 0.1513154 0.1516206 0.1519563 0.1523225 0.1527498 0.1532076 0.1537569 0.1543673 0.1550388 0.1557712 0.1565647 0.1574193 0.1580907 0.158518 0.1587316 0.1587011 0.1584569 0.1580297 0.1574193 0.1566868 0.1558323 0.1548862 0.153879 0.1528719 0.1518342 0.1508576 0.149942 0.1491485 0.1484466 0.1478667 0.1474394 0.1471953 0.1471037 0.1472563 0.1477446 0.1485381 0.1495758 0.1509186 0.1524446 0.1541842 0.1560764 0.1580297 0.160044 0.1620582 0.1640115 0.1658732 0.1675517 0.1690167 0.1702374 0.171153 0.1717329 0.171977 0.171855 0.1713361 0.1704511 0.1692913 0.1678569 0.1662089 0.1643167 0.1622413 0.1599829 0.1575719 0.1550693 0.1525057 0.149881 0.1472868 0.1447232 0.1422206 0.1398706 0.1376427 0.1356284 0.1337972 0.1322102 0.1308368 0.1297687 0.1289446 0.1282122 0.1275407 0.1268693 0.1261979 0.125557 0.1249466 0.1243057 0.1236648 0.1229934 0.1222914 0.1215589 0.1207349 0.1198804 0.1189343 0.1178966 0.1167674 0.1155466 0.1142038 0.1127693 0.1112434 0.1095953 0.1078252 0.1058109 0.103583 0.1012025 0.09863883 0.0959226 0.09311482 0.09024598 0.08734664 0.08444729 0.08163951 0.07889275 0.07626808 0.07385705 0.07162913 0.06964536 0.0679668 0.0665629 0.06549472 0.06479277 0.06442654 0.06442654 0.06482329 0.06558628 0.06671549 0.06821095 0.07004212 0.07214796 0.07452847 0.07712263 0.07989989 0.08279924 0.08575962 0.08881158
0.06802783 0.06955381 0.07117134 0.07278886 0.07443692 0.07608496 0.07770249 0.07928951 0.08078496 0.08218885 0.08350119 0.08466093 0.08566807 0.08652262 0.08722456 0.08771287 0.08801807 0.08810963 0.08807911 0.08798755 0.08786547 0.08768235 0.08749924 0.08725508 0.08701093 0.08673625 0.08649209 0.08627846 0.08609534 0.08597326 0.08594275 0.08597326 0.08609534 0.0863395 0.08670573 0.08719404 0.08783495 0.08859794 0.089483 0.09052067 0.09158884 0.09268754 0.09381676 0.0949765 0.09616676 0.09738754 0.0985778 0.09979858 0.1009888 0.1021791 0.1033693 0.1044986 0.1056278 0.106696 0.1077336 0.1087102 0.1096258 0.1104804 0.1112739 0.1120064 0.1126778 0.1133187 0.1139901 0.114631 0.1152719 0.1159434 0.1166148 0.1172557 0.1179271 0.1185986 0.1193005 0.1200024 0.1207044 0.1214063 0.1221693 0.1229018 0.1236953 0.1244583 0.1252823 0.1261063 0.1269304 0.1277849 0.1285784 0.1292804 0.1298602 0.1302875 0.1306232 0.1308674 0.1309894 0.13102 0.1309894 0.1308674 0.1307148 0.1305317 0.1302875 0.1300433 0.1297992 0.1295855 0.1293719 0.1291888 0.1290362 0.1289446 0.1289141 0.1289141 0.1291583 0.1295855 0.1302264 0.1310505 0.1320576 0.1332174 0.1344687 0.1358115 0.1372154 0.1386193 0.1400232 0.1413355 0.1425868 0.1436855 0.1446316 0.1453946 0.145944 0.1462797 0.1463712 0.1461881 0.1457608 0.1452725 0.1449063 0.1446621 0.144479 0.144418 0.1444485 0.1445706 0.1447842 0.1450284 0.1453641 0.1457608 0.1461881 0.1466764 0.1471647 0.1476531 0.1481719 0.1486907 0.149179 0.1496673 0.1501251 0.1505524 0.1509492 0.1513154 0.1516511 0.1519258 0.1522004 0.1524141 0.1526277 0.1528414 0.1530245 0.1532076 0.1534212 0.1536654 0.1539095 0.1542147 0.1545504 0.1549167 0.1553745 0.1558933 0.1564427 0.1570836 0.157816 0.1585485 0.1591284 0.1594336 0.1595251 0.1593725 0.1590063 0.1584569 0.157755 0.1569005 0.1559238 0.1548862 0.1537875 0.1526582 0.1515595 0.1504914 0.1495147 0.1486297 0.1478972 0.1472868 0.146829 0.1465544 0.1464628 0.1466154 0.1470732 0.1478362 0.1488738 0.1501556 0.1516511 0.1533297 0.1551303 0.157053 0.1590063 0.160929 0.1628212 0.1645913 0.1661784 0.1675822 0.1687115 0.169566 0.1700848 0.170268 0.1700848 0.169505 0.1685589 0.1673686 0.1659342 0.1642556 0.1623329 0.1602576 0.1579991 0.1556186 0.153116 0.1505524 0.1479888 0.1453946 0.1428615 0.1403894 0.13807 0.1358725 0.1338583 0.1320576 0.1304706 0.1291278 0.1280596 0.1272355 0.1265031 0.1258011 0.1250992 0.1244278 0.1237563 0.1231154 0.122444 0.1217726 0.1210706 0.1203382 0.1195446 0.1187206 0.1178356 0.1168589 0.1158213 0.1146921 0.1134713 0.1121589 0.110755 0.1092596 0.1076421 0.105933 0.1039797 0.1018434 0.09952389 0.09705182 0.09442715 0.09174144 0.08896417 0.08615638 0.08337911 0.08066288 0.07800769 0.07550509 0.0731551 0.07101874 0.06912653 0.067509 0.06616615 0.06512849 0.06445706 0.06409083 0.06409083 0.06448758 0.06522004 0.06634927 0.06778368 0.06955381 0.0715986 0.07391809 0.0764512 0.07913691 0.0819447 0.08487456 0.08783495
0.06824147 0.06979796 0.07144601 0.07312458 0.07483367 0.07651224 0.07816029 0.07977782 0.08133431 0.08276872 0.08408106 0.08527131 0.0863395 0.08719404 0.08789599 0.0883843 0.08868949 0.08881158 0.08878105 0.08872002 0.08859794 0.08844534 0.08823171 0.08801807 0.08780443 0.0875908 0.08737716 0.08719404 0.08704145 0.08694988 0.08691937 0.08694988 0.08710249 0.08734664 0.08771287 0.08820118 0.08881158 0.08954404 0.0904291 0.09140573 0.09244338 0.09348105 0.09454922 0.09564793 0.09677715 0.09787585 0.09900507 0.1001343 0.1012635 0.1023622 0.1034304 0.1044986 0.1055362 0.1065434 0.1074895 0.1084051 0.1092596 0.1100836 0.1108161 0.111518 0.1121589 0.1128304 0.1134713 0.1141732 0.1148752 0.1155771 0.1163401 0.1170726 0.1178661 0.1186596 0.1194531 0.1202771 0.1211011 0.1219252 0.1227797 0.1236343 0.1244888 0.1253739 0.1262284 0.1271135 0.127968 0.1288226 0.1296466 0.130318 0.1308674 0.1312946 0.1315998 0.1317829 0.1318745 0.1318745 0.1317829 0.1316303 0.1314167 0.131142 0.1308674 0.1305927 0.1302875 0.1300128 0.1297687 0.129555 0.1294024 0.1292804 0.1292193 0.1292498 0.1294635 0.1298907 0.1305011 0.1313252 0.1322713 0.1334005 0.1346212 0.1359336 0.1372764 0.1386498 0.1400232 0.141305 0.1425258 0.1436245 0.1445706 0.1453641 0.145944 0.1462797 0.1464018 0.1463102 0.145944 0.1455777 0.1453031 0.1451505 0.1451199 0.145181 0.1453336 0.1456082 0.145944 0.1463712 0.1468596 0.1473784 0.1479582 0.1485381 0.1491485 0.1497894 0.1503998 0.1509797 0.151529 0.1520784 0.1525667 0.152994 0.1533907 0.1537569 0.1540621 0.1543368 0.154581 0.1547641 0.1549472 0.1550998 0.1552219 0.1553745 0.1555271 0.1556797 0.1558628 0.1560764 0.1563206 0.1566258 0.156992 0.1573888 0.1578771 0.1584264 0.1590368 0.1596777 0.1601355 0.1603491 0.1603186 0.1600745 0.1595862 0.1589147 0.1580907 0.1571141 0.1560154 0.1548556 0.1536654 0.1524446 0.1512238 0.1500946 0.1490264 0.1480803 0.1472868 0.1466154 0.1461576 0.1458524 0.1457608 0.1459135 0.1463407 0.1470732 0.1480803 0.1493011 0.150766 0.1523836 0.1541232 0.1559543 0.157816 0.1596777 0.1614784 0.1631569 0.1646524 0.1659647 0.1670329 0.1677959 0.1682537 0.1683758 0.1681316 0.1674907 0.1665141 0.1652933 0.1637978 0.1621193 0.1602271 0.1581212 0.1558933 0.1535433 0.1510712 0.1485381 0.1459745 0.1434414 0.1409388 0.1385277 0.1362388 0.1340719 0.1320881 0.130318 0.1287615 0.1274187 0.1263505 0.1255265 0.124794 0.1240615 0.1233596 0.1226576 0.1219557 0.1212537 0.1205518 0.1198193 0.1190869 0.1182934 0.1174693 0.1166148 0.1156687 0.1146921 0.1136239 0.1124641 0.1112434 0.109931 0.1085576 0.1070622 0.1055057 0.1038271 0.1019654 0.09989013 0.09766221 0.09528169 0.0927791 0.09018495 0.08752976 0.08487456 0.08218885 0.0795947 0.07706159 0.07468107 0.07245316 0.07040835 0.06857719 0.06702069 0.0657694 0.06479277 0.06412134 0.06378563 0.06378563 0.06415187 0.06488433 0.06595251 0.06735641 0.06903498 0.07101874 0.07324666 0.07568821 0.07828236 0.0809986 0.08383691 0.08667521
0.06833303 0.06995056 0.07165965 0.07336874 0.07510834 0.07684796 0.07852652 0.08017457 0.08176158 0.08322652 0.08459989 0.08582067 0.08685833 0.08777391 0.08847586 0.08899469 0.08929989 0.08939144 0.08939144 0.0893304 0.08920833 0.08908625 0.08890313 0.08875053 0.0885369 0.08835378 0.08817066 0.08801807 0.08792651 0.08786547 0.08786547 0.08792651 0.08810963 0.0883843 0.08875053 0.08920833 0.08981872 0.09055118 0.0913752 0.09232131 0.09329793 0.09430507 0.09531222 0.09631936 0.09735702 0.09839468 0.09943233 0.10047 0.1014771 0.1024843 0.1034609 0.1044375 0.1053836 0.1062992 0.1071538 0.1080083 0.1088018 0.1095648 0.1102667 0.1109382 0.1115486 0.1121895 0.1128914 0.1135934 0.1143563 0.1151804 0.1160044 0.1168589 0.1177745 0.1186901 0.1196362 0.1205823 0.1215589 0.122505 0.1234817 0.1244583 0.1254349 0.1264115 0.1273271 0.1282732 0.1291583 0.1300433 0.1308674 0.1315388 0.1320576 0.1324544 0.1327291 0.1328816 0.1329122 0.1328511 0.1326985 0.1324544 0.1321797 0.1318745 0.1315388 0.1311726 0.1308368 0.1305011 0.1302264 0.1299518 0.1297687 0.1296466 0.1295855 0.1295855 0.1297992 0.1301959 0.1307758 0.1315693 0.1324849 0.1335531 0.1347128 0.1359641 0.1372764 0.1385888 0.1399011 0.1411524 0.1423427 0.1434108 0.144357 0.1451199 0.1456998 0.1460966 0.1462492 0.1461881 0.1459135 0.1456388 0.1454557 0.1454251 0.1455167 0.1456998 0.1460355 0.1464323 0.1469511 0.147531 0.1481719 0.1488433 0.1495758 0.1503083 0.1510712 0.1518037 0.1525057 0.1531771 0.153818 0.1543978 0.1549472 0.155405 0.1558017 0.1561375 0.1564427 0.1566868 0.1569005 0.1570836 0.1572056 0.1572972 0.1573888 0.1574803 0.1575719 0.1576634 0.1577855 0.1579076 0.1580907 0.1583043 0.158579 0.1589147 0.159281 0.1597387 0.1602576 0.1608069 0.1611732 0.1612647 0.1611121 0.1607459 0.1601355 0.159342 0.1583959 0.1572972 0.1561069 0.1548251 0.1534823 0.1521699 0.1508881 0.1496368 0.1485076 0.1475005 0.1466154 0.1459135 0.1453946 0.1450894 0.1449979 0.1451199 0.1455472 0.1462492 0.1472258 0.1483855 0.1497894 0.1513459 0.152994 0.1547641 0.1565342 0.1583043 0.1600134 0.1616004 0.1630043 0.1642251 0.1652017 0.1659037 0.1662699 0.1663309 0.1660258 0.1653238 0.1643167 0.1630349 0.1615394 0.1598608 0.1579686 0.1558933 0.1536654 0.1513459 0.1489349 0.1464323 0.1439297 0.1414576 0.139016 0.1366355 0.1344076 0.1323018 0.1303485 0.1286089 0.1270524 0.1257401 0.1247024 0.1238784 0.1231154 0.122383 0.12162 0.1208875 0.120155 0.1193921 0.1186291 0.1178356 0.1170421 0.1161875 0.1153024 0.1143869 0.1134102 0.1123726 0.1112739 0.1101141 0.1088628 0.1075505 0.1061771 0.1047122 0.1032168 0.1015687 0.09976805 0.09778429 0.09564793 0.09335897 0.09097845 0.08850638 0.08600378 0.08344015 0.08093756 0.07843496 0.07605445 0.073796 0.07165965 0.06973692 0.06802783 0.0665629 0.06534212 0.06442654 0.06381615 0.06348044 0.06348044 0.06384667 0.06451809 0.06555576 0.0668681 0.06848563 0.07037783 0.07251419 0.07483367 0.07733627 0.07993042 0.08264665 0.0853934
0.06836355 0.07004212 0.07175121 0.07352133 0.07532198 0.07709211 0.07883172 0.08051029 0.08209729 0.08362327 0.08499664 0.08624794 0.08731612 0.08823171 0.08896417 0.089483 0.0897882 0.08991027 0.08987975 0.08984923 0.08975767 0.0896356 0.08951352 0.08936092 0.08920833 0.08905573 0.08893365 0.08884209 0.08875053 0.08875053 0.08878105 0.08890313 0.08908625 0.08939144 0.08975767 0.09024598 0.09082586 0.0915278 0.09235182 0.09326741 0.094183 0.0951291 0.0960752 0.0970213 0.0979674 0.09888299 0.09982909 0.1007752 0.1016908 0.1025758 0.1034609 0.1043154 0.10517 0.105994 0.106757 0.10752 0.1082525 0.1089544 0.1096258 0.1102667 0.1108466 0.1114875 0.1121895 0.1129524 0.113807 0.1146921 0.1156382 0.1166148 0.1176524 0.1187206 0.1198193 0.120918 0.1220472 0.1231765 0.1243057 0.1254044 0.1265031 0.1275407 0.1285784 0.129555 0.1305011 0.1314167 0.1322102 0.1328816 0.13337 0.1337362 0.1339803 0.1340719 0.1340414 0.1339193 0.1336752 0.1334005 0.1330342 0.1326375 0.1322407 0.1318135 0.1313862 0.13102 0.1306842 0.1303791 0.1301654 0.1300128 0.1299213 0.1299518 0.1301349 0.1305011 0.131081 0.1317829 0.132668 0.1336752 0.1347739 0.1359641 0.1371849 0.1384362 0.1396875 0.1408777 0.142007 0.1430446 0.1439602 0.1446927 0.1453031 0.1456998 0.1459135 0.1458829 0.1456693 0.1454862 0.1454251 0.1454862 0.1456998 0.146066 0.1465238 0.1471037 0.1477446 0.1485076 0.1493011 0.1501556 0.1510407 0.1519563 0.1528414 0.1536959 0.1545199 0.1553134 0.1560154 0.1566868 0.1572362 0.1577245 0.1581212 0.1584569 0.1587621 0.1589758 0.1591589 0.159281 0.159403 0.1594641 0.1594946 0.1595251 0.1595556 0.1595862 0.1596472 0.1597082 0.1597998 0.1599524 0.1601355 0.1603797 0.1606543 0.1610206 0.1614478 0.1619056 0.1621498 0.1621498 0.1619056 0.1614173 0.1606849 0.1597693 0.1587011 0.1574803 0.1561375 0.1547641 0.1533297 0.1518953 0.1504914 0.1491485 0.1479277 0.1468596 0.1459135 0.145181 0.1446316 0.1442959 0.1441738 0.1443264 0.1447232 0.1453946 0.1463102 0.1474394 0.1487518 0.1502167 0.1518037 0.1534823 0.1551608 0.1568394 0.1584569 0.1599219 0.1612647 0.1623939 0.163279 0.1638894 0.1641946 0.1641641 0.1637673 0.1630349 0.1619667 0.1606849 0.1591894 0.1574803 0.1555881 0.1535433 0.1513764 0.1490875 0.146707 0.1442959 0.1418544 0.1394433 0.1370628 0.1347433 0.1325765 0.1305011 0.1286089 0.1268998 0.1254044 0.1241226 0.1230544 0.1222304 0.1214674 0.1207044 0.1199414 0.1191479 0.1183544 0.1175304 0.1167063 0.1158518 0.1149667 0.1140511 0.113105 0.1120979 0.1110602 0.1099615 0.1088323 0.1076116 0.1063602 0.1050479 0.1036745 0.1022401 0.1007447 0.09918818 0.09744857 0.09552585 0.09348105 0.09131417 0.08905573 0.08673625 0.08435573 0.0819447 0.07956418 0.07724471 0.07498626 0.07284991 0.07086614 0.0690655 0.06744796 0.06607459 0.06494537 0.06406031 0.06348044 0.06320576 0.06320576 0.06354147 0.06418239 0.06512849 0.06637979 0.06793627 0.0697064 0.07172069 0.07391809 0.0762986 0.07877067 0.08136483 0.0839895
0.06833303 0.07004212 0.07181224 0.07361289 0.07544406 0.07724471 0.07901483 0.08075444 0.08237197 0.08392847 0.08533236 0.08658365 0.08771287 0.08862846 0.08936092 0.08991027 0.09021547 0.09033754 0.09030703 0.09027651 0.09021547 0.09012391 0.09003235 0.08994079 0.08981872 0.08972716 0.0896356 0.08957456 0.08957456 0.08960508 0.08969664 0.08984923 0.09006287 0.09036806 0.09076482 0.09128365 0.09186351 0.09253494 0.09332845 0.09421352 0.09506806 0.09595312 0.09683818 0.09769273 0.09854727 0.09940182 0.1002258 0.1010499 0.1018434 0.1026369 0.1033999 0.1041628 0.1048953 0.1056278 0.1063297 0.1070012 0.1076726 0.108283 0.1088934 0.1095038 0.1100836 0.110694 0.1114265 0.1122505 0.1131661 0.1141732 0.1152109 0.1163401 0.1175304 0.1187511 0.120033 0.1213148 0.1225966 0.1238784 0.1251602 0.1264115 0.1276323 0.128792 0.1299213 0.1309894 0.1319661 0.1328816 0.1336752 0.1343161 0.1348044 0.1351096 0.1352927 0.1353232 0.1352316 0.1350485 0.1347433 0.1343771 0.1339193 0.1334615 0.1329732 0.1324544 0.1319966 0.1315388 0.131142 0.1308063 0.1305622 0.1303791 0.1302875 0.1302875 0.1304706 0.1308368 0.1313557 0.1320271 0.1328206 0.1337667 0.1347739 0.1359031 0.1370323 0.1382225 0.1393823 0.1405115 0.1415797 0.1425563 0.1434108 0.1441433 0.1447232 0.1451199 0.1453641 0.1453946 0.1452725 0.1451505 0.145181 0.1453641 0.1457303 0.1462186 0.146829 0.1475615 0.148416 0.1493316 0.1503083 0.1513459 0.1523836 0.1534517 0.1544894 0.1554966 0.1564427 0.1573277 0.1581212 0.1588232 0.1594336 0.1599524 0.1603491 0.1606849 0.1609595 0.1611732 0.1613258 0.1614173 0.1615089 0.1615089 0.1615089 0.1615089 0.1614784 0.1614478 0.1614173 0.1614173 0.1614478 0.1615394 0.161631 0.1617836 0.1619972 0.1622719 0.1626076 0.1629738 0.1631264 0.1630349 0.1626686 0.1620582 0.1612037 0.1601965 0.1589758 0.1576329 0.156168 0.1546725 0.153116 0.1515595 0.1500641 0.1486297 0.1473479 0.1461576 0.145181 0.1443875 0.1438076 0.1434414 0.1433193 0.1434719 0.1438381 0.144479 0.1453336 0.1464018 0.1476531 0.1490569 0.1505524 0.1521394 0.1537264 0.1553134 0.1568089 0.1581823 0.159403 0.1604407 0.1612342 0.161753 0.1619667 0.1618751 0.1614478 0.1606543 0.1595556 0.1582433 0.1567173 0.1550082 0.1531466 0.1511323 0.1490264 0.146768 0.144479 0.142129 0.1397485 0.1373985 0.1351096 0.1328816 0.1307453 0.1287615 0.1268998 0.1252518 0.1237869 0.1225356 0.1214674 0.1206433 0.1198804 0.1190869 0.1182628 0.1174388 0.1165843 0.1156992 0.1147836 0.113868 0.1128914 0.1118843 0.1108771 0.1097784 0.1086797 0.10752 0.1063297 0.1050784 0.1037661 0.1024538 0.1010499 0.09964597 0.09821156 0.09668559 0.09500702 0.09317585 0.09122261 0.0891778 0.08704145 0.08484405 0.08261613 0.08035769 0.07812977 0.07596289 0.07385705 0.07187328 0.07004212 0.06833303 0.06683758 0.06555576 0.06451809 0.06372459 0.06317525 0.06290057 0.06290057 0.06320576 0.06381615 0.06473173 0.06589147 0.06732589 0.06900445 0.07089666 0.07297198 0.0751999 0.07751938 0.07996093 0.08246353
0.06824147 0.0700116 0.07181224 0.07367393 0.07550509 0.07736678 0.07916743 0.08093756 0.0825856 0.08417262 0.08560703 0.08688885 0.08801807 0.08896417 0.08969664 0.09024598 0.0905817 0.09067326 0.09067326 0.09064274 0.09061222 0.09055118 0.09049014 0.0904291 0.09036806 0.09033754 0.09030703 0.09030703 0.09033754 0.0904291 0.0905817 0.09076482 0.09103949 0.0913752 0.09180248 0.09229079 0.09287066 0.09354208 0.09430507 0.09515962 0.09598364 0.09677715 0.09760118 0.09836416 0.09912714 0.09989013 0.1006226 0.1013245 0.101996 0.1026674 0.1033388 0.1039797 0.1046206 0.105231 0.1058414 0.1064213 0.1070012 0.107581 0.1081304 0.1086797 0.1092291 0.10987 0.110633 0.111518 0.1124947 0.1135934 0.1147836 0.1160654 0.1174083 0.1188122 0.1202466 0.1217115 0.1231765 0.1246414 0.1260758 0.1274797 0.1288226 0.1301349 0.1313252 0.1324544 0.133492 0.1344076 0.1352011 0.135842 0.1362998 0.1365745 0.1366966 0.1366661 0.1365135 0.1362083 0.135842 0.1353842 0.1348654 0.1342855 0.1337057 0.1331258 0.1325765 0.1320576 0.1315998 0.1312336 0.1309284 0.1307148 0.1306232 0.1306232 0.1308063 0.1311115 0.1315998 0.1322102 0.1329427 0.1337972 0.1347433 0.135781 0.1368186 0.1379174 0.1389855 0.1400232 0.1410303 0.1419459 0.1427394 0.1434414 0.1439907 0.144418 0.1446621 0.1447537 0.1446621 0.1446316 0.1447842 0.1450894 0.1455777 0.1461881 0.1469816 0.1478972 0.1489044 0.150003 0.1511628 0.1523836 0.1536043 0.1548251 0.1560154 0.1571446 0.1582433 0.1592199 0.160105 0.1608985 0.1615394 0.1620582 0.162455 0.1627907 0.1630349 0.1632485 0.1633706 0.1634621 0.1634926 0.1634926 0.1634316 0.1633706 0.1633095 0.163218 0.1631264 0.1630654 0.1630349 0.1630349 0.1630654 0.1631569 0.163279 0.1634621 0.1637063 0.163981 0.1640725 0.1638589 0.1633706 0.1626686 0.1617225 0.1605628 0.1592199 0.157755 0.156168 0.1545504 0.1528719 0.1512238 0.1496063 0.1481109 0.146707 0.1454557 0.144418 0.1435634 0.1429531 0.1425563 0.1424342 0.1425563 0.1429225 0.1435329 0.144357 0.1453641 0.1465544 0.1478667 0.1492706 0.1507355 0.152231 0.1536959 0.1550998 0.1563816 0.1575108 0.1584264 0.1591284 0.1595556 0.1597082 0.1595251 0.1590368 0.1582128 0.157053 0.1557102 0.1541842 0.1525057 0.1506745 0.1486907 0.1466154 0.1444485 0.1421901 0.1399316 0.1376427 0.1353842 0.1331563 0.1309894 0.1289446 0.1270219 0.1252518 0.1236343 0.1221998 0.1209791 0.1199414 0.1191174 0.1183239 0.1174998 0.1166453 0.1157602 0.1148447 0.1138986 0.1128914 0.1118843 0.1108161 0.1097174 0.1086187 0.1074589 0.1062382 0.1050174 0.1037661 0.1024538 0.1011414 0.09976805 0.09839468 0.09699078 0.09555637 0.09409144 0.09247391 0.0907343 0.08890313 0.0869804 0.08496612 0.0828908 0.08081548 0.07874016 0.07666484 0.07465056 0.07269731 0.07086614 0.06915705 0.06760056 0.06622718 0.06506745 0.06409083 0.06335836 0.06283953 0.06259537 0.06259537 0.06290057 0.06344992 0.06427394 0.06537265 0.06671549 0.06827199 0.0700116 0.07193432 0.07400964 0.07620704 0.078496 0.080846
0.06811939 0.06992004 0.07178172 0.07367393 0.07556614 0.07742782 0.07928951 0.08105963 0.08276872 0.08435573 0.08582067 0.08713301 0.08826222 0.08923884 0.09000183 0.09055118 0.09088689 0.09097845 0.09097845 0.09097845 0.09094793 0.09094793 0.09091742 0.09088689 0.09088689 0.09091742 0.09094793 0.09100898 0.09110053 0.09125313 0.09143624 0.0916804 0.0919856 0.09235182 0.0927791 0.09329793 0.09390832 0.09454922 0.09531222 0.09610572 0.09686871 0.09763169 0.09836416 0.09903558 0.09970701 0.1003479 0.1009888 0.1015687 0.1021486 0.1026979 0.1032473 0.1037661 0.1042849 0.1048038 0.1053226 0.1058109 0.1063297 0.106818 0.1073369 0.1078557 0.1083745 0.1090154 0.1097784 0.1107245 0.1117927 0.1130135 0.1143258 0.1157602 0.1172557 0.1188427 0.1204602 0.1221083 0.1237563 0.1254044 0.1270219 0.1285784 0.1300739 0.1314777 0.1327901 0.1339803 0.1350485 0.1359946 0.1367881 0.1373985 0.1377953 0.1380394 0.1381005 0.1380089 0.1377953 0.137429 0.1369407 0.1363914 0.135781 0.1351401 0.1344687 0.1337972 0.1331563 0.1325765 0.1320576 0.1316303 0.1312946 0.1310505 0.1309589 0.1309589 0.1311115 0.1313862 0.1318135 0.1323628 0.1330342 0.1338277 0.1346823 0.1355979 0.136544 0.1375206 0.1384972 0.1394738 0.1403589 0.1412134 0.1419764 0.1426173 0.1431667 0.1435634 0.1438381 0.1439602 0.1439297 0.1439907 0.1442044 0.1446316 0.145242 0.1460355 0.1469816 0.1480498 0.1492401 0.1505219 0.1518647 0.1532381 0.154642 0.1560459 0.1573888 0.1586706 0.1598914 0.16099 0.1619667 0.1627907 0.1634926 0.164042 0.1644388 0.1647439 0.1650186 0.1652017 0.1652933 0.1653543 0.1653543 0.1653238 0.1652323 0.1651407 0.1650186 0.164866 0.1647439 0.1646219 0.1645303 0.1644388 0.1644082 0.1644082 0.1644693 0.1645913 0.1647439 0.1649576 0.1649271 0.1646219 0.1640725 0.163218 0.1621498 0.1608985 0.1594336 0.1578465 0.156168 0.1543978 0.1526277 0.1508576 0.1491485 0.147531 0.1460355 0.1447232 0.1436245 0.1427089 0.142068 0.1416712 0.1415492 0.1416407 0.142007 0.1425563 0.1433193 0.1442959 0.1453946 0.1466154 0.1479582 0.1493316 0.150705 0.1520784 0.1533602 0.1545504 0.1555576 0.1563816 0.156992 0.1573277 0.1573888 0.1571751 0.1565952 0.1557102 0.1545504 0.1531771 0.1516511 0.1499725 0.1481719 0.1462492 0.1442044 0.1420985 0.1399316 0.1377342 0.1355368 0.13337 0.1312336 0.1291583 0.127205 0.1253433 0.1236343 0.1220778 0.1206739 0.1194836 0.1184459 0.1176219 0.1168284 0.1159739 0.1150583 0.1141427 0.1131356 0.1120979 0.1110297 0.109931 0.1087713 0.107581 0.1063602 0.105109 0.1038271 0.1025148 0.1011719 0.09982909 0.09845571 0.09708234 0.09567845 0.09430507 0.09290118 0.09146676 0.08991027 0.08826222 0.08652262 0.08472197 0.08282976 0.08090704 0.07898431 0.07706159 0.07513887 0.07330769 0.07150705 0.06982848 0.06827199 0.0668681 0.06558628 0.06451809 0.06363303 0.06296161 0.06253433 0.06229018 0.06229018 0.06256485 0.06308369 0.06384667 0.06482329 0.06607459 0.067509 0.06912653 0.07089666 0.07281938 0.07486419 0.07697003 0.07916743
0.06799731 0.06982848 0.07172069 0.07364341 0.07559665 0.07748886 0.07938106 0.08118171 0.08292132 0.08453885 0.08600378 0.08734664 0.08850638 0.089483 0.09024598 0.09079534 0.09113105 0.09125313 0.09125313 0.09125313 0.09125313 0.09128365 0.09128365 0.09134468 0.0913752 0.09143624 0.0915278 0.0916804 0.091833 0.09201612 0.09226027 0.09256546 0.09290118 0.09332845 0.09378624 0.09430507 0.09488494 0.09555637 0.09625831 0.0970213 0.09775377 0.09845571 0.09909663 0.09970701 0.1002869 0.1008362 0.1013551 0.1018434 0.1023012 0.1027284 0.1031557 0.1035525 0.1039797 0.1043765 0.1047732 0.1052005 0.1056278 0.1060551 0.1065128 0.1070012 0.1074895 0.1081304 0.1089239 0.109931 0.1110908 0.1124031 0.113868 0.1154245 0.1171031 0.1188732 0.1206739 0.122505 0.1243362 0.1261674 0.127968 0.1296771 0.1312946 0.1328206 0.1342245 0.1354758 0.136605 0.1375816 0.1383446 0.1389245 0.1393213 0.1395044 0.1395349 0.1393518 0.1390466 0.1386193 0.1380394 0.1373985 0.1366966 0.1359641 0.1352011 0.1344381 0.1337362 0.1330648 0.1324849 0.1319966 0.1316303 0.1313557 0.1312336 0.1312336 0.1313557 0.1316303 0.1319966 0.1325154 0.1330953 0.1337972 0.1345297 0.1353537 0.1362083 0.1370933 0.1379784 0.1388329 0.139657 0.1404199 0.1411219 0.1417323 0.1422511 0.1426479 0.1429225 0.1430751 0.1431057 0.1431972 0.1435329 0.1440823 0.1448147 0.1457303 0.146829 0.1480803 0.1494232 0.1508881 0.1524141 0.1540011 0.1555576 0.1571141 0.1586401 0.160044 0.1613868 0.1626076 0.1636758 0.1645608 0.1652933 0.1658426 0.1662699 0.1665751 0.1668193 0.1670024 0.1670939 0.1671245 0.1670939 0.1670329 0.1669108 0.1667582 0.1666056 0.1664225 0.1662394 0.1660563 0.1659037 0.1657511 0.1656595 0.1655985 0.1655985 0.165629 0.1657206 0.1658426 0.1657511 0.1653543 0.1646829 0.1637368 0.1625771 0.1611732 0.1596167 0.1579076 0.1561069 0.1542147 0.1523225 0.1504608 0.1486297 0.1469511 0.1453641 0.1439907 0.1428005 0.1418544 0.1411829 0.1407557 0.1406031 0.1407251 0.1410609 0.1415797 0.1423122 0.1431972 0.1442349 0.1453946 0.1466154 0.1478972 0.149179 0.1504303 0.1516206 0.1526888 0.1536043 0.1543368 0.1548556 0.1550998 0.1550998 0.1547946 0.1541842 0.1532381 0.1520173 0.150644 0.149118 0.1474699 0.1456998 0.1438076 0.1418238 0.1398096 0.1377037 0.1355979 0.133492 0.1313862 0.1293414 0.1273881 0.1254959 0.1236953 0.1220472 0.1205518 0.1192089 0.1180187 0.1170421 0.1161875 0.115394 0.1145089 0.1135628 0.1125557 0.1114875 0.1103888 0.1092291 0.1080083 0.106757 0.1054752 0.1041628 0.1027895 0.1014161 0.1000427 0.09863883 0.09720442 0.09580053 0.09439663 0.09299274 0.09158884 0.09021547 0.08884209 0.08734664 0.08579015 0.0841421 0.08243301 0.0806934 0.07892327 0.07715315 0.0753525 0.07361289 0.07193432 0.07031679 0.06879082 0.06735641 0.06607459 0.06494537 0.06396875 0.06317525 0.06256485 0.0621681 0.06195446 0.06198499 0.06219862 0.06268694 0.06335836 0.06427394 0.06540316 0.06671549 0.06818043 0.06979796 0.07156809 0.0734603 0.07541354 0.07742782
0.06790575 0.06976745 0.07169016 0.07364341 0.07559665 0.0775499 0.07944211 0.08130379 0.0830434 0.08469145 0.0861869 0.08752976 0.08872002 0.08969664 0.09049014 0.09103949 0.0913752 0.09149729 0.09149729 0.0915278 0.09155832 0.09158884 0.09164988 0.09174144 0.091833 0.0919856 0.09213819 0.09232131 0.09253494 0.0927791 0.09308429 0.09342001 0.09381676 0.09427455 0.09476286 0.09528169 0.09589209 0.09653299 0.09723493 0.0979674 0.09863883 0.09927974 0.09985961 0.1003784 0.1008667 0.1013245 0.1017213 0.1020875 0.1024232 0.102759 0.1030641 0.1033388 0.103644 0.1039492 0.1042544 0.1045901 0.1049258 0.1053226 0.1057193 0.1061466 0.1066044 0.1072453 0.1080999 0.1091375 0.1103888 0.1118232 0.1134102 0.1151193 0.1169505 0.1188732 0.120857 0.1229018 0.1249161 0.1269304 0.1288531 0.1307453 0.1325154 0.1341329 0.1356284 0.1369713 0.138131 0.1391076 0.1398706 0.1404505 0.1407862 0.1409388 0.1408777 0.1406641 0.1402673 0.1397485 0.1391076 0.1383751 0.1375511 0.1367271 0.1358725 0.1350485 0.134255 0.1335226 0.1328816 0.1323323 0.131905 0.1316303 0.1314777 0.1314777 0.1315998 0.1318135 0.1321492 0.1325765 0.1330953 0.1337057 0.1343771 0.135079 0.135842 0.136605 0.137368 0.138131 0.1388635 0.1395654 0.1402063 0.1407557 0.141244 0.1416102 0.1419154 0.1420985 0.1421596 0.1423427 0.1427699 0.1434108 0.1442654 0.1453336 0.1465849 0.1479888 0.1495147 0.1511323 0.1528414 0.154581 0.1563206 0.1580602 0.1597082 0.1612647 0.1627297 0.164042 0.1652017 0.1661784 0.1669413 0.1675212 0.167918 0.1682232 0.1684673 0.1686199 0.1687115 0.1687115 0.168681 0.1685894 0.1684368 0.1682537 0.16804 0.1678264 0.1675822 0.1673686 0.167155 0.1669413 0.1667887 0.1666667 0.1666056 0.1665751 0.1666056 0.1666667 0.1664836 0.1659952 0.1652323 0.1641946 0.1629128 0.1614173 0.1597387 0.1579076 0.1559849 0.1540011 0.1520173 0.1500336 0.1481414 0.1463407 0.1446927 0.1432277 0.142007 0.1409998 0.1402979 0.1398401 0.1396875 0.1398096 0.1401148 0.1406031 0.1412745 0.1420985 0.1430751 0.1441433 0.1453031 0.1464628 0.1476531 0.1488128 0.1499115 0.1508576 0.1516816 0.1523225 0.1527498 0.1529024 0.1528108 0.1524446 0.1517732 0.1507966 0.1495758 0.1481719 0.1466459 0.1449979 0.1432583 0.1414271 0.1395044 0.1375511 0.1355368 0.1335226 0.1314777 0.129494 0.1275407 0.1256485 0.1238479 0.1221388 0.1205518 0.1190869 0.117805 0.1166453 0.1156687 0.1148447 0.1139901 0.1130745 0.1120979 0.1110297 0.1099005 0.1087102 0.1074589 0.1061466 0.1048038 0.1033999 0.101996 0.100531 0.09906611 0.09760118 0.09613624 0.09464078 0.09317585 0.09174144 0.09033754 0.08893365 0.0875908 0.08624794 0.08481353 0.08331807 0.0817921 0.08020509 0.07858756 0.07693951 0.07529146 0.07367393 0.07208692 0.07056095 0.06909601 0.06772264 0.06644082 0.0653116 0.06427394 0.0634194 0.06271745 0.0621681 0.06180187 0.06161875 0.06161875 0.06183239 0.06225966 0.06287005 0.06369407 0.06470121 0.06589147 0.06723433 0.06872978 0.07031679 0.07202588 0.07382653 0.07571873
0.0678142 0.06973692 0.07169016 0.07367393 0.0756577 0.07761094 0.07956418 0.08142587 0.083196 0.08484405 0.08637002 0.08774339 0.08893365 0.08991027 0.09070378 0.09128365 0.09164988 0.09174144 0.09177196 0.09180248 0.09186351 0.09192456 0.09201612 0.09213819 0.09229079 0.09247391 0.09268754 0.0929317 0.09323689 0.09354208 0.0938778 0.09427455 0.09470183 0.09519014 0.09570897 0.09625831 0.09683818 0.09747909 0.09815052 0.09885247 0.09949338 0.1000732 0.1005921 0.1010499 0.1014466 0.1017823 0.1020875 0.1023317 0.1025758 0.1027895 0.1029726 0.1031557 0.1033388 0.1035525 0.1037661 0.1040103 0.1042849 0.1045901 0.1049258 0.1053226 0.1057804 0.1063908 0.1072758 0.1083745 0.1097174 0.1112434 0.1129219 0.1148141 0.1167979 0.1189037 0.1210401 0.1232375 0.1254654 0.1276323 0.1297381 0.1317524 0.1336446 0.1354148 0.1370018 0.1383751 0.1395959 0.1405725 0.1413355 0.1418849 0.1421901 0.1422816 0.1421901 0.1418849 0.1414271 0.1408167 0.1400842 0.1392602 0.1383446 0.137429 0.1364829 0.1355674 0.1347128 0.1338888 0.1331868 0.132607 0.1321492 0.131844 0.1316914 0.1316914 0.1317829 0.1319661 0.1322407 0.132607 0.1330648 0.1335836 0.1341329 0.1347739 0.1354148 0.1360862 0.1367576 0.137429 0.13807 0.1386803 0.1392297 0.1397485 0.1401758 0.140542 0.1408472 0.1410609 0.1411829 0.1414271 0.1419154 0.1426479 0.1436245 0.1448453 0.1462186 0.1477751 0.1494537 0.1512544 0.1531466 0.1550388 0.1569615 0.1588232 0.1606238 0.1623329 0.1639199 0.1653238 0.1665446 0.1675822 0.1684063 0.1689861 0.1694134 0.1697186 0.1699322 0.1700848 0.1701459 0.1701459 0.1700848 0.1699628 0.1697796 0.169566 0.1693219 0.1690472 0.1687725 0.1685283 0.1682537 0.1680095 0.1677959 0.1676128 0.1674907 0.1673991 0.1673686 0.1673686 0.1670939 0.1665446 0.16569 0.1645608 0.1631874 0.1616004 0.1598303 0.1578771 0.1558628 0.1537569 0.1516511 0.1496063 0.147592 0.1457303 0.1439907 0.1424648 0.1411829 0.1401453 0.1393823 0.1389245 0.1387719 0.1388635 0.1391686 0.1396264 0.1402368 0.1410303 0.1419154 0.1429225 0.1439907 0.1450894 0.1461881 0.1472258 0.1482024 0.1490875 0.1497894 0.1503388 0.1506745 0.150766 0.1506134 0.1501862 0.1494537 0.1484466 0.1471647 0.1457608 0.1442349 0.1426173 0.1409083 0.1391381 0.1372764 0.1353842 0.133431 0.1315083 0.129555 0.1276628 0.1258011 0.12397 0.1222609 0.1206433 0.1191174 0.1177135 0.1164317 0.115333 0.1143563 0.1135323 0.1126778 0.1117317 0.110694 0.1095648 0.1083745 0.1070927 0.1057804 0.1043765 0.1029116 0.1014161 0.09992065 0.09836416 0.09680767 0.09525117 0.09369469 0.09216871 0.09064274 0.0891778 0.08774339 0.08637002 0.08502716 0.08371483 0.08234145 0.08093756 0.07947262 0.07800769 0.07648171 0.07498626 0.07349081 0.07202588 0.07059146 0.06921809 0.06790575 0.06665446 0.06552524 0.06451809 0.06360251 0.06283953 0.06219862 0.06174083 0.06140511 0.06125252 0.06125252 0.06143563 0.06180187 0.06238174 0.0631142 0.06399927 0.06506745 0.06628823 0.06760056 0.0690655 0.07062198 0.07227004 0.07400964
0.0678142 0.06973692 0.07172069 0.07370445 0.07571873 0.07773302 0.07968626 0.08154795 0.08334859 0.08502716 0.08658365 0.08795702 0.08914728 0.09015442 0.09097845 0.09155832 0.09189404 0.09201612 0.09201612 0.09207715 0.09213819 0.09226027 0.09238235 0.09256546 0.0927791 0.09299274 0.09326741 0.0935726 0.09390832 0.09427455 0.09467131 0.09509858 0.09558689 0.0960752 0.09662455 0.09720442 0.09778429 0.09842519 0.09906611 0.09973753 0.1003174 0.1008362 0.101294 0.1016603 0.101996 0.1022401 0.1024538 0.1026064 0.1027284 0.10282 0.1029116 0.1029726 0.1030641 0.1031862 0.1033083 0.1034609 0.1036745 0.1039187 0.1041934 0.1045596 0.1049869 0.1055973 0.1065128 0.1076421 0.109046 0.1106635 0.1124947 0.1145089 0.1166453 0.1188732 0.1212232 0.1235732 0.1259537 0.1282732 0.1305317 0.1326985 0.1347128 0.1365745 0.1382225 0.1396875 0.1409388 0.1419154 0.1426784 0.1431972 0.1434719 0.1435329 0.1433498 0.1430141 0.1424648 0.1417628 0.1409693 0.1400537 0.1390771 0.1380394 0.1370323 0.1360251 0.135079 0.1342245 0.1334615 0.1328206 0.1323323 0.1319966 0.1318135 0.1318135 0.1318745 0.1320576 0.1322713 0.132607 0.1329732 0.1334005 0.1338888 0.1344076 0.134957 0.1355063 0.1360862 0.1366661 0.1372154 0.1377648 0.1382531 0.1387109 0.1391076 0.1394738 0.1397485 0.1399927 0.1401453 0.1404505 0.1410303 0.1418544 0.1429531 0.1442654 0.1457914 0.1474699 0.1493316 0.1512849 0.1532992 0.1553745 0.1574193 0.1594336 0.1613868 0.163218 0.1648965 0.1664225 0.1677348 0.1688336 0.1696881 0.170268 0.1706952 0.1710004 0.1712141 0.1713667 0.1713972 0.1713972 0.1713056 0.171153 0.1709394 0.1706952 0.1704206 0.1701459 0.1698102 0.169505 0.1691998 0.1689251 0.1686504 0.1684368 0.1682537 0.1681011 0.1680095 0.1679485 0.1676433 0.1670024 0.1660868 0.164866 0.1634011 0.1617225 0.1598303 0.157816 0.1556797 0.1534823 0.1512849 0.1491485 0.1470427 0.1450894 0.1433193 0.1417323 0.1403894 0.1392907 0.1385277 0.1380394 0.1378868 0.1379784 0.1382225 0.1386498 0.1392602 0.1399622 0.1408167 0.1417323 0.1427089 0.1437161 0.1447232 0.1456998 0.1465849 0.1473784 0.1479888 0.1484466 0.1487212 0.1487212 0.1485076 0.1480193 0.1472563 0.1461881 0.1449063 0.1434719 0.1419764 0.1403589 0.1386803 0.1369407 0.1351401 0.1333089 0.1314472 0.1295855 0.1277544 0.1259232 0.1241226 0.1224135 0.1207654 0.1192089 0.117744 0.1164012 0.1151804 0.1140817 0.113105 0.112281 0.1114265 0.1104499 0.1093817 0.1081914 0.1069401 0.1055973 0.1041628 0.1026674 0.1011414 0.09955442 0.09793688 0.09628884 0.09464078 0.09299274 0.0913752 0.0897882 0.08823171 0.08673625 0.08527131 0.08389794 0.0825856 0.08130379 0.07999145 0.07861808 0.07724471 0.07587133 0.07449795 0.07309406 0.07175121 0.07040835 0.06912653 0.06787524 0.06671549 0.0656168 0.06460965 0.06369407 0.06290057 0.06222914 0.06167979 0.06125252 0.06097784 0.06082524 0.06085576 0.06100836 0.06134408 0.06183239 0.0624733 0.06329732 0.06424342 0.0653116 0.06650186 0.0678142 0.06924861 0.07074407 0.07233107
0.06784472 0.06979796 0.07181224 0.07382653 0.07587133 0.07788561 0.07983886 0.08176158 0.08356223 0.08527131 0.08682781 0.08820118 0.08942196 0.0904291 0.09125313 0.091833 0.09219923 0.09232131 0.09232131 0.09238235 0.09247391 0.0926265 0.0927791 0.09299274 0.09323689 0.09351157 0.09384728 0.094183 0.09457975 0.09500702 0.09543429 0.0959226 0.09644143 0.09696026 0.09750962 0.09808949 0.09869987 0.09931026 0.09995117 0.1005921 0.1011414 0.1015992 0.101996 0.1023012 0.1025453 0.1026979 0.10282 0.102881 0.102881 0.102881 0.102881 0.1028505 0.1028505 0.1028505 0.102881 0.1029726 0.1030947 0.1033083 0.1035525 0.1038577 0.1042544 0.1048648 0.1057804 0.1069706 0.1084356 0.1101447 0.1120979 0.1142038 0.1164622 0.1188732 0.1213453 0.1238479 0.126381 0.1288531 0.1312336 0.1335226 0.1356589 0.1376122 0.1393518 0.1408777 0.142129 0.1431362 0.1438686 0.144357 0.1446011 0.1446011 0.1443875 0.1439907 0.1433803 0.1426173 0.1417323 0.1407251 0.139657 0.1385583 0.1374596 0.1363914 0.1353842 0.1344381 0.1336141 0.1329427 0.1324238 0.1320576 0.1318745 0.1318745 0.1319355 0.1320576 0.1322407 0.1325154 0.1328206 0.1331563 0.1335531 0.1339803 0.1344381 0.1349265 0.1354148 0.1359031 0.1363609 0.1368492 0.1372764 0.1376732 0.13807 0.1383751 0.1386803 0.1389245 0.1391076 0.1394738 0.1401148 0.1410303 0.1422206 0.143655 0.1452725 0.1471037 0.1490875 0.1511933 0.1533602 0.1555576 0.157755 0.1599219 0.1619972 0.1639199 0.1657206 0.1673076 0.1687115 0.1698407 0.1707257 0.1713667 0.1717634 0.1720686 0.1722822 0.1724043 0.1724654 0.1724348 0.1723128 0.1721602 0.171916 0.1716719 0.1713667 0.1710309 0.1706952 0.170329 0.1699933 0.1696576 0.1693524 0.1691082 0.1688641 0.168681 0.1685283 0.1684063 0.16804 0.1673686 0.1663615 0.1650797 0.1635232 0.161753 0.1597998 0.1576634 0.155466 0.1531771 0.1509186 0.1486602 0.1464933 0.144479 0.1426173 0.1409693 0.1395959 0.1384667 0.1376732 0.1371849 0.1370018 0.1370933 0.1373375 0.1377342 0.1382836 0.138955 0.1397485 0.1406031 0.1415187 0.1424342 0.1433803 0.1442349 0.1450589 0.1457303 0.1462797 0.1466764 0.1468596 0.1467985 0.1465238 0.1459745 0.145181 0.1440823 0.1427699 0.1413355 0.1398096 0.1382531 0.136605 0.1348959 0.1331563 0.1313862 0.1295855 0.1278154 0.1260148 0.1242752 0.1225661 0.120918 0.1193615 0.1178661 0.1164622 0.1151498 0.1139596 0.1128914 0.1119453 0.1111213 0.1102362 0.1092291 0.1081304 0.1068791 0.1055667 0.1041323 0.1026369 0.1010804 0.09943233 0.09775377 0.0960752 0.09433559 0.0926265 0.09088689 0.08920833 0.08756027 0.08597326 0.08441678 0.08295184 0.08157846 0.08026613 0.07901483 0.07773302 0.0764512 0.07516938 0.07385705 0.07257523 0.07132393 0.07007264 0.06885186 0.06769212 0.06659342 0.06555576 0.06457914 0.06369407 0.06290057 0.06219862 0.06161875 0.06113044 0.06076421 0.06052005 0.06039798 0.06039798 0.06055057 0.06082524 0.06128304 0.06186291 0.06256485 0.06338888 0.0643655 0.06543368 0.06662394 0.06790575 0.06924861 0.07071354
0.0679668 0.06995056 0.07196485 0.07400964 0.07605445 0.07809925 0.08008301 0.08200574 0.08383691 0.08554599 0.08710249 0.08850638 0.08972716 0.09076482 0.09158884 0.09216871 0.09253494 0.09265702 0.09265702 0.09274858 0.09284014 0.09302326 0.09320638 0.09345053 0.09375572 0.09406091 0.09442715 0.0948239 0.09525117 0.09570897 0.09619728 0.09671611 0.09726546 0.09781481 0.09839468 0.09897455 0.09958494 0.1001953 0.1008057 0.1014161 0.1019044 0.1023317 0.1026674 0.1029116 0.1030641 0.1031557 0.1031862 0.1031557 0.1030947 0.1029726 0.102881 0.102759 0.1026674 0.1026064 0.1025453 0.1025758 0.1026369 0.102759 0.1029726 0.1032473 0.1036135 0.1042239 0.1051395 0.1063908 0.1079167 0.1096869 0.1117012 0.1139291 0.1163096 0.1188427 0.1214369 0.124092 0.1267472 0.1293414 0.131844 0.134255 0.1364829 0.1384972 0.1402979 0.1418544 0.1431362 0.1441433 0.1448758 0.1453641 0.1455777 0.1455472 0.1452725 0.1447842 0.1441433 0.1432888 0.1423427 0.1412745 0.1401148 0.138955 0.1377648 0.1366355 0.1355674 0.1345602 0.1337057 0.1329732 0.1324238 0.1320576 0.131844 0.131844 0.131905 0.1319966 0.1321492 0.1323628 0.132607 0.1328816 0.1332174 0.1335531 0.1339193 0.1343161 0.1347128 0.1351401 0.1355368 0.1359336 0.1362998 0.1366661 0.1370323 0.1373375 0.1376122 0.1378868 0.1381005 0.1384972 0.1391992 0.1402063 0.1414576 0.1429836 0.1447232 0.1466764 0.1487823 0.1510102 0.1532992 0.1556186 0.1579686 0.1602271 0.1624245 0.1644693 0.1663309 0.1680095 0.1694439 0.1706342 0.1715803 0.1722212 0.172618 0.1729231 0.1731368 0.1732589 0.1732894 0.1732284 0.1731368 0.1729537 0.1727095 0.1724043 0.1720686 0.1717329 0.1713667 0.1709699 0.1706037 0.1702374 0.1699017 0.1695965 0.1693219 0.1691082 0.1689251 0.168742 0.1683452 0.1675822 0.1665141 0.1651712 0.1635537 0.1617225 0.1596777 0.1574803 0.1551914 0.1528414 0.1504914 0.1481719 0.145944 0.1438686 0.1419459 0.1402673 0.1388329 0.1376732 0.1368492 0.1363303 0.1361472 0.1362388 0.1364829 0.1368492 0.137368 0.1379784 0.1387109 0.1395044 0.1403589 0.141244 0.142068 0.142892 0.1436245 0.1442349 0.1447232 0.1450284 0.1451505 0.1450284 0.1446927 0.1441128 0.1432583 0.142129 0.1407862 0.1393518 0.1378563 0.1362998 0.1346823 0.1330037 0.1313252 0.1295855 0.1278765 0.1261369 0.1244583 0.1227797 0.1211317 0.1195446 0.1180492 0.1165843 0.1152414 0.1139901 0.1128304 0.1117622 0.1108466 0.1100226 0.109107 0.1080999 0.1069401 0.1056583 0.1042849 0.1027895 0.101233 0.09958494 0.09787585 0.09610572 0.09433559 0.09253494 0.0907343 0.08896417 0.08719404 0.08548495 0.08386742 0.08228041 0.08081548 0.07941158 0.07812977 0.07690899 0.0756577 0.07443692 0.07321614 0.07199536 0.0708051 0.06961484 0.06848563 0.06738693 0.06634927 0.06537265 0.06442654 0.063572 0.06277849 0.06210706 0.06149668 0.06097784 0.06055057 0.06024538 0.06003174 0.05990966 0.05990966 0.06003174 0.06030641 0.06067265 0.06119148 0.06183239 0.06256485 0.0634194 0.0643655 0.06543368 0.06659342 0.06784472 0.06915705
0.06821095 0.07019471 0.072209 0.07428432 0.07635964 0.07840444 0.08041873 0.08234145 0.08417262 0.08588171 0.08746871 0.08887261 0.09012391 0.09116157 0.09195507 0.09256546 0.0929317 0.09302326 0.09305377 0.09314533 0.09326741 0.09345053 0.09366416 0.09393884 0.09427455 0.09464078 0.09503753 0.09546481 0.0959226 0.09644143 0.09696026 0.09750962 0.09805896 0.09863883 0.0992187 0.09979858 0.100409 0.1010194 0.1015992 0.1021791 0.1026674 0.1030336 0.1033083 0.1034914 0.103583 0.1036135 0.1035525 0.1034609 0.1033083 0.1031252 0.1029116 0.1027284 0.1025453 0.1023927 0.1023012 0.1022401 0.1022401 0.1023317 0.1024843 0.1027284 0.1030641 0.1036745 0.1046206 0.1058719 0.1074284 0.1092901 0.1113654 0.1136849 0.116157 0.1187817 0.1214979 0.1242446 0.1270219 0.1297076 0.1323323 0.1348044 0.1371239 0.1392297 0.1410914 0.1426784 0.1439602 0.1449673 0.1456998 0.1461271 0.1463407 0.1462492 0.145944 0.1454251 0.1446927 0.1438076 0.1427699 0.1416407 0.1404505 0.1391992 0.1379784 0.1367576 0.1356284 0.1345907 0.1336752 0.1329427 0.1323323 0.1319355 0.1317524 0.1317219 0.1317524 0.131844 0.1319661 0.1321187 0.1323323 0.1325459 0.1328206 0.1330953 0.1334005 0.1337057 0.1340414 0.1343771 0.1347128 0.1350485 0.1353842 0.13572 0.1360251 0.1363303 0.136605 0.1368797 0.1371239 0.1375511 0.1383141 0.1393823 0.1407251 0.1423122 0.1441738 0.1461881 0.148416 0.1507355 0.1531466 0.1555881 0.1579991 0.1603797 0.1626686 0.164805 0.1667582 0.1684978 0.1699933 0.1712141 0.1721907 0.1728316 0.1732284 0.1735335 0.1737472 0.1738693 0.1738998 0.1738387 0.1737167 0.173503 0.1732589 0.1729537 0.1725874 0.1722212 0.1718245 0.1714277 0.1710309 0.1706342 0.170268 0.1699322 0.1696271 0.1693524 0.1691387 0.1689556 0.1684978 0.1677043 0.1665751 0.1651712 0.1634926 0.1616004 0.1594946 0.1572362 0.1548862 0.1524751 0.1500336 0.1476531 0.1453946 0.1432277 0.1412745 0.1395654 0.1381005 0.1369102 0.1360557 0.1355368 0.1353537 0.1354453 0.1356589 0.1359946 0.1364829 0.1370933 0.1377648 0.1385277 0.1392907 0.1401148 0.1409083 0.1416407 0.1423122 0.1428615 0.1432888 0.1435329 0.143594 0.1434414 0.1430446 0.1424037 0.1415492 0.1403894 0.139016 0.1375816 0.1360862 0.1345297 0.1329427 0.1313252 0.1296466 0.1279985 0.12632 0.1246414 0.1230239 0.1214063 0.1198193 0.1182934 0.1168284 0.115455 0.1141427 0.1128914 0.1117622 0.110755 0.109809 0.1089849 0.1080693 0.1070317 0.1058414 0.1045291 0.1030947 0.1015687 0.09992065 0.09821156 0.09644143 0.09461027 0.09274858 0.09088689 0.08902521 0.08719404 0.0853934 0.08362327 0.0819447 0.08035769 0.07886223 0.07745834 0.07617652 0.07498626 0.07376549 0.07257523 0.07141549 0.07028627 0.06915705 0.06805836 0.06702069 0.06604407 0.06506745 0.06418239 0.06335836 0.06259537 0.06189343 0.06128304 0.06076421 0.06030641 0.05994018 0.05966551 0.05948239 0.05939083 0.05939083 0.05951291 0.05972654 0.06006226 0.06052005 0.0610694 0.06174083 0.06250381 0.06335836 0.06433498 0.06537265 0.06650186 0.06772264
