0.257462 0.258164 0.2567601 0.2550815 0.2541659 0.2517854 0.2532198 0.2560886 0.2572789 0.2559055 0.2548068 0.2570652 0.2571263 0.2575535 0.2573399 0.2615211 0.2643594 0.2657022 0.2661906 0.2637795 0.26381 0.2633522 0.26381 0.2595679 0.2550815 0.2535555 0.2489776 0.2428127 0.2400354 0.2349997 0.2338705 0.2303302 0.2313984 0.2285296 0.2270036 0.2240127 0.2262101 0.2288042 0.2330464 0.2358237 0.2392724 0.2394861 0.2440029 0.2428432 0.2452237 0.2480315 0.2523042 0.2542575 0.2553256 0.2541964 0.2540743 0.2517854 0.2508698 0.2486114 0.2492828 0.2496796 0.2529756 0.2552341 0.2550204 0.255936 0.2545626 0.2563023 0.2570042 0.2599036 0.2593237 0.262101 0.2590185 0.2601782 0.2571263 0.2603003 0.2641458 0.2657022 0.2700665 0.2729048 0.2756516 0.2796191 0.2816944 0.2833425 0.2824269 0.2798633 0.2816639 0.283434 0.2866996 0.2895074 0.2882561 0.2876152 0.2886223 0.2877983 0.2871574 0.2858146 0.2806263 0.2764756 0.2749802 0.2795581 0.281023 0.279436 0.2822438 0.2819996 0.2859061 0.2871574 0.2899042 0.2895074 0.2928951 0.2923763 0.2930171 0.2960691 0.2985106 0.3008606 0.3004639 0.2986327 0.2965574 0.2933224 0.2898737 0.2886223 0.2886223 0.2889886 0.2923763 0.2935665 0.2995178 0.3032717 0.3067509 0.3117256 0.3133126 0.3159678 0.316334 0.3164561 0.3176769 0.3164256 0.3162425 0.3144113 0.3156626 0.3193249 0.3224684 0.3221327 0.3207593 0.3225905 0.324208 0.3261002 0.3266191 0.3287554 0.327321 0.3305561 0.3331807 0.3392846 0.3465177 0.3487151 0.3550327 0.3580846 0.3594885 0.3580236 0.3553989 0.3560093 0.3541781 0.3518892 0.3491119 0.3481658 0.3486236 0.3450528 0.3451138 0.3485015 0.350119 0.3505158 0.3476164 0.3505463 0.3518586 0.3524995 0.3563755 0.3576573 0.3567418 0.3565891 0.3564671 0.3600989 0.3649515 0.3696515 0.3713605 0.3718489 0.3757859 0.3768235 0.375969 0.3782274 0.379967 0.3760911 0.3736495 0.3739242 0.3733443 0.3769761 0.3780443 0.3807911 0.3798755 0.3816151 0.3853079 0.3885125 0.3920833 0.3932125 0.3939144 0.3932735 0.3973021 0.3989196 0.4001099 0.4009949 0.4043216 0.4076787 0.4080144 0.4052371 0.4045047 0.4037417 0.4058475 0.4051456 0.4056339 0.407404 0.4063969 0.4054508 0.4031923 0.4017274 0.4059696 0.4094488 0.4151865 0.4171092 0.4234572 0.4242202 0.4251358 0.428615 0.4303546 0.4339559 0.4358176 0.4374962 0.4370994 0.4373741 0.4391747 0.4390527 0.440365 0.4415247 0.4417689 0.4439968 0.4446988 0.4475371 0.4499481 0.4509247 0.4491851 0.4480559 0.4472624 0.4478118 0.4499176 0.4535799 0.4526643 0.4530001 0.4498565 0.443417 0.4412806 0.4423488 0.4428981 0.4483001 0.450528 0.448117 0.4453702 0.4449734 0.4397546 0.4385949 0.4343527 0.4321553 0.4261735 0.4215345 0.4205274 0.4174449 0.4153696 0.4174449 0.4170176 0.4191235 0.4176585 0.4195202 0.4200085 0.4229384 0.4230605 0.4187267 0.4208631 0.4224806 0.4215345 0.4196423 0.4174449 0.4157053 0.4159495 0.4153391 0.4127754 0.4127754 0.4092352 0.4097235 0.410517 0.4098456 0.4099677 0.4091131 0.4099371 0.4101813 0.4077702 0.4062443 0.40188 0.4011475 0.4009949 0.3962339 0.3968748 0.395654 0.39718
0.258164 0.255814 0.2563938 0.2530367 0.253525 0.2529756 0.2565159 0.2555088 0.2585302 0.2566685 0.2543795 0.2537081 0.2540743 0.2578893 0.2591711 0.2600256 0.2627724 0.2675639 0.267747 0.2663737 0.2694867 0.2644815 0.259873 0.258225 0.255814 0.252762 0.246536 0.2392724 0.23149 0.2321919 0.2300555 0.2304828 0.2278276 0.2271562 0.22679 0.2256913 0.2221205 0.2252335 0.2295367 0.2321309 0.2385705 0.2414698 0.2449185 0.2415919 0.2412867 0.2447964 0.249588 0.2523958 0.2549289 0.255875 0.2544711 0.252762 0.2516633 0.2478789 0.2465055 0.2504731 0.251938 0.2534945 0.2533114 0.2545626 0.2520295 0.2563328 0.2587438 0.2609412 0.2623756 0.2637185 0.2619483 0.2586523 0.2544711 0.2605445 0.264573 0.2658243 0.2662516 0.2709821 0.2788561 0.2806873 0.2850821 0.2831899 0.2792224 0.2800159 0.2795886 0.2847769 0.2876762 0.2853568 0.2875847 0.2853873 0.2850211 0.2874321 0.2852042 0.2814198 0.2787035 0.2787646 0.2764756 0.2780321 0.2820302 0.2791308 0.2759263 0.2785814 0.2810841 0.2827321 0.2867607 0.2917048 0.2934444 0.2908198 0.2924068 0.2952146 0.2986327 0.2993957 0.3017152 0.295184 0.2909113 0.2892327 0.2882561 0.2871574 0.2847769 0.2867301 0.2844107 0.2918269 0.2983886 0.3003723 0.3053775 0.3104132 0.3143502 0.3147165 0.3157847 0.3172801 0.3168223 0.3142892 0.3091619 0.312458 0.3130989 0.3148996 0.3182567 0.3180431 0.3212782 0.3252457 0.3287249 0.3282976 0.3279924 0.3263444 0.3233535 0.3255814 0.3298541 0.3362327 0.3464262 0.3464872 0.3499054 0.356284 0.3618385 0.3578404 0.3563145 0.353171 0.3526216 0.3504547 0.3518281 0.3475859 0.3424892 0.3439236 0.3418788 0.3465483 0.3473112 0.3495697 0.3462125 0.3520418 0.3543918 0.353934 0.3570164 0.356345 0.3584508 0.358756 0.3589086 0.3608008 0.3645242 0.3698651 0.3731307 0.372032 0.3749619 0.3775255 0.3763352 0.379845 0.3798755 0.3747177 0.3730086 0.3709638 0.3695904 0.3775255 0.3795398 0.3825612 0.3818287 0.3827138 0.3858573 0.3916255 0.3943417 0.3941281 0.3980651 0.3973936 0.4005982 0.3997131 0.403528 0.403467 0.4081365 0.4087164 0.4107611 0.4070988 0.4074956 0.4052677 0.4044436 0.4038638 0.4044131 0.4062443 0.4038943 0.4031313 0.3977904 0.4019105 0.4034365 0.405817 0.4102118 0.4161021 0.423091 0.4253494 0.4254105 0.4298053 0.4322774 0.4342916 0.4344137 0.4351462 0.4353293 0.4377403 0.4369163 0.437191 0.4405481 0.4421962 0.4440579 0.4437832 0.4414942 0.4442715 0.4458585 0.4454618 0.4454923 0.4423488 0.4421962 0.445889 0.4471403 0.4493072 0.4526033 0.4448209 0.4408228 0.4400903 0.436489 0.4372215 0.4392968 0.4433864 0.4462858 0.443417 0.4448209 0.4409754 0.4400293 0.4347799 0.4306903 0.4266618 0.4242813 0.4214124 0.4195202 0.4137215 0.4087774 0.4108527 0.4119209 0.4153696 0.4130501 0.4182689 0.4201611 0.4197034 0.4223891 0.4169871 0.4172007 0.4194897 0.4197949 0.4179332 0.4141793 0.4137826 0.4121956 0.4123482 0.4084722 0.4071599 0.4060307 0.4055423 0.4092047 0.4074956 0.4073125 0.4084417 0.4055423 0.4081365 0.4096014 0.4067021 0.4021547 0.3994384 0.3956845 0.3930904 0.3918391 0.3947384 0.3926326
0.2537081 0.2531282 0.2512055 0.2529146 0.2507172 0.2531893 0.2563023 0.2563633 0.2579503 0.2568211 0.255051 0.2566685 0.2570958 0.2572789 0.2608191 0.2616737 0.2632607 0.2672893 0.2676555 0.2649393 0.2655802 0.2640237 0.2611854 0.2571873 0.2526704 0.2500458 0.2465666 0.242538 0.2352133 0.2336263 0.2308185 0.2288958 0.2278581 0.2288348 0.2271562 0.2258439 0.2265458 0.2263017 0.228438 0.2310322 0.235488 0.239364 0.2428432 0.2437283 0.2426906 0.2437893 0.2460172 0.2488555 0.2499542 0.2522737 0.2533724 0.2530977 0.2530062 0.2493133 0.2467802 0.2470244 0.2467192 0.2501984 0.2506562 0.251236 0.2528231 0.2546237 0.2554477 0.259873 0.2630776 0.2620094 0.2599951 0.2601782 0.2570652 0.2609717 0.2644204 0.2671367 0.270097 0.2712263 0.2776048 0.2784289 0.2805042 0.281023 0.2812977 0.2810535 0.2813892 0.2842886 0.2851126 0.2843496 0.28496 0.2856925 0.2837392 0.28496 0.2839529 0.2837087 0.2822743 0.2814808 0.2790698 0.281023 0.2823964 0.2798328 0.2786425 0.281023 0.2829457 0.2830678 0.2884698 0.2908808 0.2921931 0.2903009 0.2932003 0.293658 0.2959775 0.2960996 0.2941769 0.2939327 0.2914301 0.2892632 0.2878594 0.2853262 0.2853873 0.2859672 0.2871269 0.2892022 0.2929561 0.2986327 0.300586 0.3069035 0.3091314 0.3119392 0.3130074 0.3130989 0.3142587 0.3101386 0.3096502 0.3109321 0.3116645 0.3130074 0.3149606 0.317158 0.3196606 0.3245743 0.3265275 0.3253677 0.323445 0.3228957 0.3219496 0.325673 0.329671 0.3364768 0.340597 0.3456632 0.3466703 0.3488372 0.3522554 0.3518281 0.3521638 0.3488372 0.3465483 0.3473112 0.3475859 0.3456327 0.3405664 0.3401392 0.3405054 0.3425502 0.3455716 0.3479216 0.3494781 0.3514924 0.3543002 0.3583898 0.3590612 0.3594885 0.3591528 0.3601905 0.3641275 0.367332 0.3673015 0.3686138 0.3708112 0.3747177 0.3763352 0.3779833 0.3763963 0.378319 0.3782274 0.3758469 0.3724593 0.3737105 0.3747482 0.3766099 0.3785021 0.3828053 0.3846365 0.3860709 0.3902216 0.3940365 0.3955014 0.3955014 0.3968138 0.3994384 0.4014527 0.4019105 0.4046268 0.4052982 0.405756 0.4095099 0.4090216 0.4074345 0.4045962 0.4037722 0.4041995 0.4009339 0.4019105 0.4043521 0.4062443 0.4052066 0.4024904 0.4046268 0.4033449 0.4063053 0.4105475 0.4160105 0.4203748 0.4219923 0.4266008 0.4303241 0.4296527 0.4305378 0.4328877 0.4343832 0.4328877 0.4346274 0.4349936 0.4359702 0.4403955 0.4410975 0.4400293 0.442654 0.4423488 0.439541 0.4396631 0.438839 0.4382286 0.4398462 0.4374352 0.4387169 0.4423793 0.4420131 0.4422877 0.4391442 0.4360923 0.4362144 0.4361838 0.4345053 0.4336202 0.437191 0.4370994 0.4380455 0.4363975 0.4367637 0.435665 0.4319722 0.4281878 0.4229994 0.4215345 0.4177806 0.4135384 0.4116157 0.4064274 0.4075566 0.4085332 0.4125618 0.4120125 0.4134164 0.4139047 0.4173534 0.4164988 0.4172313 0.4155222 0.4147287 0.416041 0.4156443 0.4143625 0.4093572 0.4100287 0.4072209 0.4044436 0.4054813 0.4037112 0.4031313 0.4027956 0.4040469 0.4064884 0.4068852 0.4070988 0.4067631 0.4038943 0.4047793 0.4036501 0.3997436 0.3978209 0.3920833 0.391717 0.3915339 0.3915034
0.2495269 0.2526399 0.2499237 0.248886 0.2504731 0.2548679 0.2579808 0.2563328 0.2553562 0.2547458 0.255814 0.2566075 0.2579198 0.2595984 0.2651834 0.2642068 0.2654886 0.2673808 0.2658548 0.26381 0.2608497 0.2610022 0.2615211 0.2563938 0.251877 0.2490081 0.248764 0.2413783 0.2379906 0.2345114 0.2313984 0.2284685 0.2288958 0.2270036 0.2252029 0.2264543 0.2267594 0.2270646 0.2292926 0.2311542 0.233962 0.2388451 0.2422633 0.2456815 0.2451016 0.2449795 0.2439419 0.2453458 0.2474516 0.2507172 0.2524873 0.2529451 0.2510834 0.2478789 0.2454373 0.2433315 0.2433925 0.2461393 0.2446438 0.2502899 0.2508698 0.2527925 0.2534029 0.2561497 0.2605445 0.2617347 0.2578282 0.2601477 0.2591101 0.2594763 0.2622841 0.2686321 0.2718977 0.2728438 0.2747971 0.2765977 0.2783373 0.2766587 0.2774522 0.280199 0.2806568 0.281023 0.2832204 0.2836172 0.285784 0.2832814 0.2853568 0.2859977 0.2871574 0.284899 0.2830983 0.283434 0.2823964 0.2820607 0.2797412 0.2795886 0.2842886 0.2827016 0.2850211 0.2854483 0.285723 0.2894159 0.2907892 0.289599 0.2905146 0.2915827 0.2939022 0.2949399 0.2918269 0.2916133 0.2900262 0.2866081 0.2887139 0.2853873 0.2837698 0.2835256 0.2838308 0.2845633 0.2870353 0.2932613 0.2989074 0.3009522 0.3052554 0.3070866 0.3057438 0.3092535 0.3098333 0.3069035 0.3076665 0.3074834 0.306934 0.3090704 0.3102911 0.3143808 0.320271 0.3229567 0.3227736 0.3214918 0.3215223 0.3232619 0.3210645 0.323384 0.328145 0.3332418 0.3385216 0.3394677 0.3416346 0.3433132 0.3454495 0.3470671 0.3478911 0.3443203 0.3436184 0.3450833 0.3449612 0.3445035 0.3391931 0.339895 0.340658 0.3449612 0.3472502 0.3478606 0.3474333 0.3526521 0.3572301 0.3591833 0.3588171 0.3605872 0.3624184 0.3625404 0.3674235 0.3695599 0.3720015 0.3693768 0.3723372 0.3748398 0.3755112 0.3768846 0.3789599 0.3786852 0.3767014 0.3779833 0.374321 0.3748398 0.3777391 0.3804553 0.3827748 0.3872307 0.389306 0.3894891 0.3935177 0.3940975 0.3970884 0.3993469 0.3977293 0.3993774 0.4020326 0.4017579 0.4068547 0.403406 0.4067021 0.4062443 0.407343 0.4063358 0.4062138 0.4053287 0.4013001 0.3997436 0.3982482 0.4009034 0.4047183 0.4045962 0.4071904 0.404993 0.4049625 0.4065189 0.4109138 0.4158579 0.4184521 0.4229689 0.4276384 0.4298053 0.428554 0.4308429 0.4320637 0.4327351 0.4318196 0.4328877 0.43243 0.4357566 0.4374046 0.4374352 0.4399683 0.4393884 0.4399377 0.4361838 0.4326131 0.4331624 0.430904 0.4335592 0.4338644 0.4329488 0.4348105 0.4356955 0.4331929 0.4319111 0.4330098 0.4316059 0.4309956 0.4309956 0.4293475 0.4291339 0.4321248 0.4327351 0.4313923 0.4318501 0.4266008 0.4259293 0.4238845 0.4226027 0.4203748 0.4168956 0.409815 0.4065495 0.404291 0.4049014 0.4086553 0.4078313 0.4107917 0.4122261 0.4109748 0.4133858 0.4134469 0.4161631 0.412928 0.4127754 0.4130196 0.4117073 0.4107306 0.4099677 0.4055423 0.4031618 0.4021242 0.4029177 0.4015138 0.3988891 0.399469 0.4006592 0.405756 0.4040163 0.4044741 0.4032534 0.4010254 0.4038638 0.4008729 0.397119 0.3961423 0.3923579 0.3877495 0.3863151 0.389306
0.2506867 0.2501984 0.2505646 0.2478179 0.2487334 0.2530672 0.2570958 0.2591406 0.2589574 0.2587743 0.2612159 0.2597204 0.2604529 0.2617042 0.2649698 0.2649393 0.2650308 0.2640847 0.2647561 0.2615211 0.2626808 0.2606971 0.2571873 0.2548984 0.2548373 0.2529146 0.2477568 0.2436672 0.2386315 0.2353659 0.2305439 0.2304523 0.2318867 0.2302692 0.2262101 0.2272172 0.2261796 0.2296588 0.233077 0.236251 0.2378075 0.2387231 0.2403101 0.2446744 0.2474211 0.2462614 0.242599 0.2434231 0.2438503 0.2461698 0.2492523 0.2483672 0.2500763 0.2462308 0.2446133 0.2450711 0.243362 0.241714 0.243362 0.2467802 0.2473906 0.249588 0.2520906 0.2567295 0.2595068 0.2603003 0.259751 0.2582555 0.2592016 0.2631386 0.2661906 0.2682354 0.2701581 0.2720503 0.271623 0.2748886 0.2775438 0.2764451 0.2749191 0.275438 0.2755905 0.2763535 0.2789172 0.2811451 0.2816639 0.2835867 0.2837698 0.2859977 0.2850821 0.2857535 0.2847159 0.2840139 0.2836477 0.2813282 0.2804736 0.281847 0.283434 0.2852347 0.2831594 0.2829457 0.2855704 0.2891412 0.2917659 0.294421 0.2946347 0.2935665 0.2950314 0.2929256 0.2932613 0.2898126 0.288012 0.2852042 0.2860282 0.28496 0.2855704 0.2824269 0.2827016 0.285723 0.2880425 0.2896295 0.2931697 0.2990295 0.2997925 0.3018373 0.3056827 0.3061405 0.3087041 0.3069951 0.3054386 0.3062015 0.3037905 0.3050723 0.3074834 0.3099249 0.3159067 0.3169139 0.3204541 0.3222548 0.3202405 0.3216444 0.3199048 0.3209119 0.3251541 0.3287249 0.3303424 0.3333333 0.3373314 0.3388879 0.3385216 0.3405359 0.3409327 0.3441677 0.3440762 0.3430385 0.345358 0.3430996 0.3416651 0.3386437 0.3409327 0.3431606 0.3458768 0.3456937 0.3470976 0.3519502 0.3546054 0.3573521 0.3600073 0.361045 0.362693 0.3637917 0.3646463 0.3699872 0.372093 0.3723066 0.3729171 0.3756028 0.3751755 0.3778917 0.3769151 0.3800586 0.3781969 0.3784105 0.3761216 0.3752976 0.3780443 0.3813709 0.3843618 0.3875054 0.3907099 0.3911066 0.3925105 0.3944333 0.397943 0.4007203 0.4013306 0.4043521 0.4044741 0.4022768 0.4017579 0.4025209 0.4023073 0.4053287 0.4095099 0.4089605 0.4056034 0.4044131 0.4020936 0.4007813 0.3997436 0.3996521 0.4044741 0.4048709 0.4075566 0.4096014 0.4101202 0.4090216 0.4115241 0.4148813 0.4179637 0.4209241 0.4229994 0.4256241 0.4252274 0.42538 0.4258988 0.4306598 0.4311176 0.43243 0.4320942 0.4332235 0.4333455 0.4339559 0.4361228 0.4355735 0.4328267 0.4313618 0.4292254 0.4276079 0.4261124 0.4264176 0.426967 0.4305988 0.427852 0.4287981 0.4296222 0.4287981 0.4272417 0.4279436 0.4278826 0.4265397 0.42303 0.4255631 0.4271501 0.4244339 0.4267228 0.4264176 0.4245559 0.4235488 0.4201611 0.4189098 0.4149728 0.412165 0.4057254 0.4044436 0.4031618 0.4014832 0.4043826 0.4060001 0.4079534 0.4080144 0.4090521 0.4126534 0.4157053 0.4154917 0.412104 0.4117988 0.4084722 0.4077702 0.4060001 0.40658 0.4062138 0.4046268 0.4030092 0.400354 0.3991027 0.3990722 0.4016053 0.4005371 0.4010865 0.401117 0.4024904 0.4013612 0.4015443 0.4015748 0.3986754 0.395593 0.3919917 0.3889397 0.3842092 0.3828053 0.3849722
0.2483977 0.2470549 0.2473906 0.2474516 0.2476347 0.254288 0.2586523 0.2615516 0.2626808 0.2614906 0.2631691 0.2622841 0.2631081 0.2630776 0.2640847 0.2639932 0.2654886 0.2628334 0.2657633 0.264573 0.2612769 0.2570347 0.2551731 0.2566075 0.2554477 0.2533419 0.2496796 0.2446438 0.2374412 0.2346029 0.2325581 0.2318867 0.2328328 0.2287127 0.2265763 0.2259354 0.2266679 0.2296893 0.2345724 0.237014 0.2402796 0.2388146 0.240188 0.2424464 0.2483062 0.2478789 0.2445218 0.2454679 0.2445828 0.246475 0.244949 0.2472075 0.247238 0.2451321 0.2460477 0.2449185 0.2436367 0.2439724 0.2416835 0.2462003 0.246414 0.2500458 0.2527315 0.2585302 0.2582555 0.2603919 0.2599341 0.2624672 0.2632607 0.2648782 0.2681133 0.2679607 0.2727217 0.2718977 0.2717451 0.2741256 0.2742782 0.2752854 0.2732406 0.2725996 0.2682354 0.2695477 0.2717451 0.2780932 0.2824269 0.280962 0.2796496 0.2827626 0.284075 0.2821522 0.282549 0.2822743 0.2839834 0.2823353 0.2827931 0.2844107 0.287371 0.2863639 0.283312 0.2847159 0.2840444 0.2902399 0.2940853 0.2960081 0.2993957 0.2954587 0.2948178 0.2935665 0.2928646 0.2879815 0.2853262 0.2816334 0.280962 0.283434 0.2849295 0.2842276 0.2824879 0.2848379 0.2866996 0.2877373 0.2892327 0.2940548 0.2979308 0.3018678 0.3058353 0.3051029 0.3056217 0.3042178 0.3053775 0.3045535 0.299823 0.3032717 0.3027834 0.3090093 0.3098639 0.3138009 0.3168223 0.3193249 0.3206067 0.3197217 0.3195691 0.3197217 0.3221327 0.3240249 0.3237502 0.3285113 0.330434 0.3349203 0.3339437 0.3378807 0.3372398 0.3404749 0.3434047 0.3412379 0.343008 0.3424586 0.3399255 0.3392846 0.3398645 0.3411158 0.344534 0.3449307 0.3460294 0.3518892 0.3588781 0.3585729 0.3589391 0.3636697 0.3671184 0.3669963 0.3645547 0.3696209 0.3709638 0.3718183 0.3701703 0.3754807 0.3793872 0.3766099 0.3774034 0.3789294 0.3806995 0.3789294 0.3797839 0.377495 0.3768541 0.3828969 0.3857962 0.3892449 0.3921138 0.3907709 0.393304 0.3951047 0.398706 0.4020326 0.4044131 0.4068852 0.4057254 0.4044131 0.4015138 0.4028871 0.4016664 0.4062443 0.4091131 0.4071293 0.4063053 0.4040163 0.4021547 0.4004151 0.3977293 0.3993164 0.4016969 0.4063663 0.4103339 0.4092657 0.4113105 0.4107306 0.4130196 0.4169566 0.4188488 0.4197034 0.424678 0.4259293 0.4250442 0.4257767 0.4214124 0.4279436 0.4315449 0.4286456 0.4309345 0.4319111 0.4336202 0.4319417 0.4319417 0.4319722 0.4308735 0.4282183 0.4225416 0.4247696 0.4208021 0.4230605 0.4244644 0.4233962 0.423091 0.4253494 0.4255631 0.4244644 0.4229689 0.4243423 0.4220839 0.4196728 0.4181774 0.4197949 0.419856 0.4209852 0.4204663 0.4197644 0.4216871 0.4196423 0.4208326 0.4157663 0.4160105 0.4114326 0.4039553 0.4022157 0.4007203 0.401819 0.3989806 0.4028566 0.399469 0.4051761 0.411402 0.4118598 0.4175365 0.4163767 0.41128 0.4112189 0.4075566 0.4071599 0.4044741 0.4040163 0.4037722 0.40188 0.4031923 0.3999573 0.3987975 0.3982177 0.4005371 0.3998047 0.3967833 0.3974242 0.4007813 0.401056 0.4018495 0.3993469 0.3970274 0.3926936 0.3891839 0.3833547 0.3800891 0.3813099 0.3803638
0.2475127 0.2480925 0.2492218 0.2491607 0.250351 0.2522126 0.2572484 0.258988 0.2628029 0.2620094 0.2639932 0.26381 0.2625893 0.2635354 0.2650919 0.2627419 0.262925 0.2637795 0.2608191 0.2621315 0.2593542 0.2566075 0.2548373 0.2541354 0.2534334 0.2522737 0.2494964 0.2419276 0.2383873 0.2350302 0.2310322 0.2306965 0.2318867 0.2286822 0.2281023 0.2270646 0.2300555 0.2343283 0.2376244 0.2374718 0.2404016 0.2414698 0.2425075 0.2439114 0.2460477 0.2478484 0.2454373 0.2468412 0.2464445 0.2445523 0.2459257 0.2453763 0.2459562 0.2454068 0.2454984 0.2438198 0.2443692 0.2434841 0.241714 0.2474211 0.2499542 0.2539217 0.2548984 0.2588049 0.2610022 0.2628945 0.2616432 0.2638406 0.26616 0.2695477 0.2688763 0.2701581 0.2736373 0.2721113 0.2693646 0.2702802 0.2694867 0.2710432 0.2707685 0.2695782 0.2682964 0.2670146 0.2673503 0.2734542 0.275499 0.2768724 0.2780932 0.280138 0.2809925 0.2809314 0.2837087 0.2825185 0.2845938 0.285723 0.2846853 0.2842276 0.2847464 0.2858451 0.2860282 0.2863639 0.287371 0.2913081 0.2927425 0.2960386 0.2969847 0.2956724 0.2917964 0.2932918 0.2919795 0.2863334 0.2830983 0.2823964 0.2810841 0.2808704 0.2832204 0.2814503 0.2804431 0.2805042 0.2848379 0.2858756 0.2871574 0.2906671 0.2924983 0.2979308 0.3003418 0.3016542 0.3012879 0.3023866 0.3011048 0.3007996 0.2999145 0.3005249 0.3022645 0.3082769 0.3091009 0.3131295 0.3176463 0.3185314 0.3163035 0.3173106 0.3172191 0.3198437 0.3202405 0.3226821 0.323384 0.3264359 0.3306476 0.3301898 0.3346457 0.3344015 0.3374229 0.3386742 0.3416041 0.3429469 0.3433437 0.343008 0.3423366 0.3416041 0.342245 0.3436184 0.3446255 0.3459073 0.3472502 0.3496917 0.3543002 0.3604346 0.3623573 0.3647989 0.3684917 0.3677593 0.3670573 0.3695599 0.3706891 0.3714826 0.3723677 0.3738937 0.3733443 0.3755417 0.3740463 0.3762437 0.3784105 0.3764573 0.3778307 0.3800586 0.3832937 0.3849722 0.3869255 0.3908319 0.3936703 0.393304 0.3959897 0.3992553 0.401941 0.4025209 0.4048099 0.4059391 0.4080144 0.407465 0.4045047 0.403528 0.4067021 0.406641 0.4101202 0.4068547 0.4069462 0.4061832 0.4017579 0.3994995 0.3999878 0.4023683 0.4026124 0.4071904 0.4080449 0.4113105 0.41128 0.4094488 0.4108832 0.4151254 0.4173839 0.4165598 0.4189709 0.4208326 0.4243423 0.4259598 0.4262345 0.4249527 0.4295611 0.427028 0.428554 0.4276079 0.430904 0.4308124 0.430904 0.4272722 0.428493 0.4268144 0.4249222 0.4215955 0.4202527 0.418391 0.4217787 0.4191845 0.4190319 0.419978 0.4204358 0.4223585 0.420741 0.4210767 0.4190624 0.4177196 0.4159495 0.4166514 0.4162241 0.416743 0.4190014 0.4163462 0.4158274 0.4154612 0.4136605 0.4139962 0.4100897 0.4071599 0.4044131 0.4021852 0.4024599 0.3994384 0.398004 0.3992553 0.3997131 0.4037722 0.4060001 0.409754 0.4127144 0.4139047 0.4127449 0.4123176 0.4106696 0.4098456 0.4063358 0.4051151 0.4029482 0.4004761 0.4006898 0.3973326 0.3968138 0.3973021 0.3982177 0.3955625 0.3955014 0.3966306 0.396295 0.3972411 0.3978209 0.397943 0.394006 0.3894281 0.3847586 0.3823781 0.3784105 0.3753281 0.3745651
0.2454068 0.2476347 0.250351 0.2500458 0.2497101 0.2517549 0.2521211 0.2580113 0.2623451 0.2603308 0.264573 0.2636575 0.2607886 0.2644815 0.2664652 0.2620094 0.2611243 0.2604224 0.2580113 0.2586523 0.2559665 0.2577672 0.255875 0.2530672 0.2500763 0.2506867 0.2481841 0.2415309 0.2390283 0.2364646 0.2324055 0.2333822 0.2318867 0.228438 0.2297504 0.2303913 0.2328633 0.2342062 0.2363731 0.2375938 0.2382042 0.2429347 0.2427211 0.2468107 0.2468107 0.2459257 0.246414 0.2485198 0.2465666 0.2468107 0.2449795 0.2445828 0.2425685 0.2422938 0.2423854 0.2417445 0.2389062 0.240951 0.2418666 0.2476653 0.251999 0.2526399 0.2567906 0.2602393 0.2624977 0.2623146 0.2651529 0.2654276 0.2688458 0.2711042 0.2717756 0.2729659 0.2736983 0.2704938 0.2694867 0.2679302 0.2673503 0.2664042 0.2692425 0.2664958 0.2664042 0.2640542 0.2639016 0.2668925 0.2705548 0.2713484 0.2733321 0.2749496 0.2761704 0.2787646 0.2822133 0.2816944 0.2834035 0.2859672 0.2862113 0.2838308 0.2860282 0.2884392 0.288897 0.2886223 0.2922847 0.2895685 0.2898737 0.2929561 0.2956724 0.2931392 0.2898737 0.2923457 0.2917659 0.2844412 0.2824574 0.2806568 0.2819691 0.2831594 0.2818165 0.279436 0.2790392 0.2780626 0.2791613 0.28261 0.2891107 0.2898737 0.2909724 0.2964353 0.2975035 0.3008912 0.3003723 0.3012269 0.3002197 0.2993957 0.2974119 0.2999451 0.3048282 0.307758 0.3101691 0.31081 0.3153269 0.3160898 0.314808 0.3156015 0.3164866 0.3188671 0.3232009 0.3226821 0.3248184 0.3286639 0.3297625 0.3288164 0.3324178 0.3329061 0.3379418 0.3407496 0.343008 0.3451444 0.3438015 0.3474333 0.3474638 0.3478301 0.3462125 0.3469755 0.3481047 0.3462125 0.3467008 0.3491119 0.3531099 0.3576573 0.3648599 0.3678203 0.3683086 0.3670573 0.3675762 0.3703839 0.3725813 0.3704755 0.3700787 0.3721541 0.3692852 0.3706586 0.3722761 0.3730086 0.3737105 0.3771898 0.3782885 0.3803943 0.3841482 0.3882073 0.3890618 0.39248 0.3933651 0.397943 0.3996826 0.4015443 0.403406 0.4047488 0.4073125 0.4079839 0.4079228 0.409693 0.4070073 0.4056034 0.4090826 0.4073735 0.410456 0.40893 0.4080449 0.4075566 0.4048404 0.402643 0.3989196 0.4023988 0.4049319 0.4048709 0.4059391 0.4102728 0.4115547 0.4093878 0.4079839 0.4137826 0.4133248 0.4130196 0.4166514 0.419215 0.4237624 0.4265092 0.4270891 0.4256546 0.4273637 0.4250442 0.4256546 0.4227858 0.4243728 0.4258988 0.4278826 0.4262955 0.4238845 0.4214124 0.4224501 0.4204969 0.4164683 0.4164683 0.418391 0.4175365 0.4156443 0.4189098 0.4191235 0.4200085 0.4182079 0.4160105 0.4135995 0.4113105 0.4101813 0.4130501 0.4120125 0.4132943 0.4152475 0.4142709 0.4132637 0.4096014 0.4087774 0.4079534 0.4055118 0.4024599 0.3982482 0.3985839 0.4008118 0.3996215 0.3989806 0.4004761 0.4009644 0.4017884 0.404169 0.4066105 0.4107611 0.4095709 0.4110969 0.4120735 0.4131112 0.4114936 0.4079534 0.4037112 0.4006898 0.3986754 0.3954404 0.3953794 0.3928462 0.3934566 0.3967222 0.395532 0.3930599 0.3911677 0.3903742 0.3937313 0.3965086 0.3919002 0.3914118 0.3884209 0.3811573 0.3779833 0.3746261 0.3736495 0.3711469
0.2484893 0.2481536 0.2498321 0.2500458 0.2494354 0.2501068 0.2547763 0.2569737 0.260514 0.2602698 0.2626198 0.2633828 0.2635049 0.2634133 0.26146 0.2640847 0.2619178 0.2574315 0.2573399 0.2549289 0.2563023 0.257462 0.2545932 0.2548373 0.251114 0.2484893 0.248764 0.2439724 0.2391198 0.2361899 0.2360984 0.2355796 0.2328633 0.2304218 0.229903 0.2304523 0.2312458 0.2334737 0.2373192 0.2370445 0.2399438 0.2433925 0.2459562 0.2466276 0.2471159 0.2495575 0.2506867 0.2497101 0.2485198 0.2458646 0.2459562 0.2459867 0.2434231 0.2433925 0.2435451 0.2434841 0.2411646 0.2446438 0.2459562 0.2469023 0.2490997 0.2531893 0.2559971 0.2581029 0.2609107 0.2637185 0.2647867 0.2662821 0.2674724 0.2689373 0.2725081 0.2714094 0.273149 0.2698834 0.2682354 0.2679302 0.2653971 0.2657022 0.2668315 0.26381 0.2619178 0.2624672 0.2634438 0.2656107 0.2648477 0.2678691 0.2714399 0.2723555 0.2766282 0.2769334 0.2783983 0.2840139 0.2854789 0.2850516 0.2861808 0.2847769 0.2853568 0.2862723 0.291186 0.2913386 0.290423 0.2908198 0.2924983 0.2928646 0.291949 0.2908808 0.289721 0.289721 0.2875542 0.2842276 0.2816029 0.2829152 0.2808094 0.2811146 0.2795886 0.2791003 0.2742477 0.2748276 0.2783373 0.2813892 0.2838308 0.2865165 0.292071 0.2943905 0.2968626 0.2971678 0.2980834 0.2978697 0.2972899 0.2960081 0.2946652 0.2998535 0.3034853 0.3046756 0.3053775 0.30846 0.3125496 0.3120002 0.3143808 0.3141061 0.3174327 0.3199658 0.3230483 0.3248184 0.3247268 0.3271989 0.3298846 0.3295489 0.3314717 0.3342794 0.3410547 0.344534 0.343832 0.3445645 0.3450833 0.3476775 0.3496612 0.3489288 0.3489593 0.3462431 0.3476164 0.3488677 0.3464872 0.3488067 0.3517671 0.3572606 0.3652261 0.3660807 0.3693768 0.3701703 0.370506 0.3705671 0.3742904 0.3723677 0.3708417 0.3708417 0.3712385 0.372032 0.3734054 0.3737716 0.3745956 0.3739242 0.3801501 0.3824696 0.3878105 0.3914118 0.3919307 0.3959287 0.3995605 0.3996215 0.4023683 0.4034975 0.4017274 0.4041995 0.4056034 0.4099982 0.4135079 0.4123482 0.4121345 0.4080755 0.4085332 0.409815 0.4126228 0.4115241 0.4084722 0.4087774 0.4076177 0.4030702 0.4002014 0.4018495 0.4059391 0.4045047 0.4047793 0.4093267 0.4116157 0.4084111 0.4073735 0.4114936 0.4099371 0.4119209 0.4142404 0.4146676 0.4182384 0.4220228 0.4264787 0.4260514 0.4271806 0.4263871 0.4229384 0.4210767 0.4229079 0.423793 0.423915 0.4225111 0.4195507 0.4164073 0.4147897 0.4136605 0.4135079 0.4169871 0.4188793 0.4165904 0.4141183 0.4147287 0.4140267 0.4151559 0.4124397 0.4106086 0.4078618 0.4084111 0.4092962 0.4087469 0.4089605 0.4069767 0.4083806 0.4095099 0.4067021 0.4061832 0.4010254 0.39718 0.394769 0.3940365 0.3932125 0.397943 0.3973021 0.3961729 0.3951962 0.396295 0.3962034 0.3991638 0.4023683 0.4054508 0.4080449 0.4074345 0.4088079 0.4104254 0.4134469 0.4119514 0.4046573 0.4010254 0.3969053 0.3935482 0.391656 0.3926326 0.3926326 0.3938228 0.3930904 0.3913203 0.3903436 0.3908625 0.3884515 0.3903742 0.3898858 0.3889092 0.389367 0.3857657 0.3804248 0.374443 0.3705671 0.3702008 0.3669963
0.2480315 0.2493438 0.252762 0.2515412 0.248123 0.2517549 0.255814 0.2547153 0.2562412 0.2616127 0.2632912 0.2609412 0.2640237 0.2606971 0.2593237 0.2620704 0.2618568 0.2572179 0.2547153 0.2561191 0.2548373 0.2573094 0.2557529 0.2538302 0.2548679 0.2506256 0.2470549 0.2426296 0.2369529 0.2380516 0.2381737 0.2380211 0.2365867 0.2315815 0.2295367 0.2296588 0.2267289 0.2326497 0.2381127 0.2365867 0.2420802 0.2416529 0.2439419 0.246536 0.2476958 0.2478179 0.2501984 0.2482146 0.2510529 0.2486114 0.247238 0.2480925 0.2450711 0.2440945 0.2469328 0.2440335 0.2425685 0.244186 0.2476042 0.2476958 0.2473906 0.2500763 0.2530367 0.258286 0.2623146 0.2631997 0.2630776 0.2677165 0.2690899 0.2702191 0.2734542 0.2730879 0.2740646 0.2688458 0.2669536 0.2661295 0.2623451 0.2646341 0.262162 0.2634438 0.2583165 0.2593847 0.258225 0.2603919 0.2619789 0.2663431 0.2696698 0.2741256 0.277086 0.2772081 0.2781237 0.2823353 0.2893548 0.2863944 0.2865776 0.284075 0.284075 0.2885918 0.2915827 0.2912775 0.2918574 0.2917048 0.2923152 0.2912165 0.2909113 0.2900873 0.28731 0.2891717 0.2866996 0.2834035 0.2819081 0.2832204 0.2821522 0.2800159 0.2767503 0.2759568 0.2711347 0.272447 0.2745529 0.2791613 0.2839223 0.2852957 0.2889581 0.2885918 0.2938717 0.2948178 0.2941769 0.293597 0.2894159 0.2925288 0.2930782 0.2952756 0.2986938 0.2991821 0.304523 0.3065678 0.3073918 0.3102301 0.3128243 0.3124886 0.311634 0.3184398 0.3212171 0.3237197 0.3263444 0.3270463 0.3306476 0.3293963 0.3276872 0.3359275 0.3429164 0.343771 0.3485625 0.3483184 0.3489593 0.3478911 0.3499054 0.3501801 0.3482268 0.3493866 0.3464567 0.3481963 0.3472197 0.3496307 0.3510956 0.3588171 0.3664164 0.3683696 0.3709028 0.369682 0.370445 0.373558 0.3740157 0.3705976 0.3690716 0.3714216 0.3705976 0.3724898 0.3760605 0.375145 0.3720625 0.3753586 0.3793872 0.3852774 0.3896722 0.3921138 0.3976073 0.3986449 0.4037417 0.4044741 0.4047793 0.4045047 0.4027345 0.4025819 0.406641 0.4097845 0.4166819 0.4126228 0.4149118 0.4102423 0.4071293 0.410578 0.4125008 0.4127449 0.412165 0.4107306 0.4070988 0.4037722 0.4009949 0.4043216 0.4051151 0.4040163 0.4029177 0.4094488 0.4102728 0.4090216 0.4093572 0.4118904 0.4084722 0.4116157 0.410578 0.4155527 0.4153391 0.4205579 0.4233657 0.4249222 0.426204 0.4245254 0.4206494 0.4188183 0.4176891 0.4187573 0.4196728 0.4196118 0.4134469 0.4111274 0.4119819 0.4101813 0.4106086 0.4134469 0.4164683 0.4115852 0.4099371 0.4107917 0.4110358 0.4121956 0.412043 0.4086248 0.4030397 0.4055118 0.4049014 0.4049014 0.405817 0.4045047 0.4019105 0.4049625 0.4017884 0.3982482 0.3938839 0.3926326 0.3872307 0.3876885 0.3897638 0.394769 0.398706 0.3964781 0.3934566 0.3937008 0.394067 0.3966917 0.3968138 0.3998657 0.4023683 0.401941 0.4053592 0.4069157 0.4138436 0.4088689 0.4052982 0.4009034 0.3951047 0.3922358 0.3894891 0.3896112 0.3878105 0.3893975 0.3935177 0.3913508 0.3885735 0.3879937 0.387719 0.3888787 0.3886651 0.3855216 0.3856742 0.3805164 0.3780138 0.3718794 0.3666606 0.3678508 0.3620827
0.2485808 0.2532808 0.2528536 0.2525178 0.2533114 0.2536165 0.2551425 0.2539217 0.2572484 0.2604834 0.2614906 0.2607886 0.2643289 0.2630166 0.2590185 0.2601782 0.2592932 0.2601172 0.2578282 0.2556919 0.2550815 0.2552341 0.2554782 0.2530977 0.2501068 0.2493438 0.2440945 0.2412257 0.2418055 0.2400659 0.2358542 0.2354575 0.2347861 0.2344198 0.2302692 0.2298114 0.2325887 0.2336568 0.2373192 0.2363731 0.2381737 0.2413783 0.2438809 0.2451321 0.2447354 0.2468107 0.2477873 0.2494964 0.2497406 0.2493133 0.247238 0.246414 0.2483062 0.2475432 0.2455594 0.2453153 0.244186 0.2455594 0.2451627 0.2466276 0.2498016 0.250351 0.254227 0.2568516 0.2611243 0.2604834 0.2615821 0.266923 0.2681133 0.2688763 0.2691509 0.2714094 0.2702496 0.2703412 0.2687237 0.2677165 0.2660685 0.2649698 0.2637795 0.2641763 0.2583471 0.2575841 0.2587743 0.2609717 0.2643594 0.2646036 0.269273 0.2722334 0.2752243 0.2756516 0.2772386 0.282549 0.2854483 0.2843801 0.2862418 0.2862113 0.2853873 0.2856314 0.2899347 0.291247 0.2920405 0.2927119 0.2907282 0.2913691 0.2910944 0.2902704 0.2867607 0.2863944 0.2865776 0.2831289 0.2807789 0.2795886 0.2812366 0.2772081 0.277025 0.2733321 0.2693036 0.2711042 0.2719282 0.2734237 0.276323 0.2774827 0.2820607 0.2843496 0.2874321 0.2895074 0.2874626 0.2878594 0.2909418 0.2911249 0.292834 0.2931697 0.2971067 0.2964048 0.3017762 0.3039431 0.3063541 0.3091924 0.3112678 0.3110541 0.3135262 0.3141366 0.3167918 0.3226515 0.3237197 0.3261307 0.3284502 0.3308002 0.3329061 0.3359275 0.3404444 0.3447781 0.3460294 0.3493255 0.3503021 0.3495392 0.3493255 0.3505768 0.3483489 0.3488982 0.3502106 0.3496612 0.3521943 0.3540255 0.3546359 0.3602515 0.3641275 0.3677287 0.3678813 0.3710859 0.372795 0.3715742 0.3705365 0.3714216 0.3734664 0.3733443 0.3748703 0.3742294 0.3768846 0.3746872 0.3764878 0.3785631 0.38308 0.3847586 0.3867729 0.3914424 0.3945858 0.3981871 0.4013306 0.4031313 0.4016053 0.40423 0.403528 0.4044436 0.4073125 0.4115241 0.4151254 0.4139657 0.4125313 0.4133553 0.4108222 0.4097235 0.411341 0.4113715 0.4113105 0.408991 0.4080144 0.4067936 0.4049319 0.4036196 0.4063969 0.4062748 0.407343 0.4083501 0.4118598 0.4114326 0.4110969 0.4131417 0.4114631 0.4103339 0.4135079 0.4140267 0.4165904 0.4172618 0.4197644 0.4233352 0.4221144 0.4211988 0.416804 0.4154306 0.4148508 0.41833 0.4153391 0.4150644 0.4111579 0.4096319 0.4094183 0.4103644 0.4103339 0.4093878 0.4111274 0.408228 0.4071293 0.4051151 0.40658 0.4079839 0.4081975 0.4037722 0.3998352 0.3992553 0.3996215 0.4022462 0.4021547 0.3994384 0.3977599 0.3995605 0.3986754 0.39248 0.3877495 0.3852774 0.3857657 0.3864371 0.389367 0.3918391 0.393243 0.3923274 0.3922969 0.3919612 0.3919917 0.3910151 0.3951047 0.3962339 0.3990722 0.3991943 0.4035891 0.4044436 0.4080755 0.4050846 0.4023378 0.3966612 0.3948605 0.3922969 0.3898248 0.3882378 0.3864982 0.3872307 0.3904047 0.3892449 0.3873222 0.3868339 0.3835378 0.3840566 0.38543 0.3843924 0.3806995 0.3788073 0.3738937 0.3716657 0.3668742 0.3649209 0.3617775
0.2503815 0.2537692 0.2546542 0.2530367 0.2556003 0.2537081 0.2537692 0.2550204 0.2568821 0.2598425 0.2592627 0.2606971 0.2630776 0.2612159 0.2592321 0.2606665 0.258286 0.2580724 0.2592016 0.2585607 0.258225 0.2536776 0.2547763 0.2514192 0.2505646 0.2492828 0.2451932 0.2434536 0.2435146 0.2375023 0.2359153 0.2339925 0.2356406 0.2319783 0.2332906 0.2308491 0.2324361 0.2341146 0.2347555 0.2352439 0.237777 0.2380211 0.2397607 0.2430568 0.2467802 0.246536 0.2454984 0.2465055 0.2474822 0.2466581 0.2471464 0.2452848 0.2475127 0.2448575 0.2449185 0.2426296 0.243301 0.2444912 0.248001 0.246414 0.2497406 0.251877 0.2530062 0.2578282 0.2583471 0.2599646 0.2636575 0.2646646 0.2673503 0.2649393 0.264512 0.2653971 0.2679912 0.2688152 0.2694867 0.2694561 0.2690899 0.2675639 0.2686931 0.2666789 0.260514 0.2597815 0.2602393 0.260636 0.2627419 0.2672282 0.2674114 0.2713789 0.2700055 0.2747665 0.2768418 0.2814198 0.284899 0.2826711 0.2838918 0.2869743 0.2859367 0.2865165 0.2869133 0.2899347 0.2869438 0.2897821 0.2939938 0.2945126 0.2942379 0.2932918 0.2891717 0.288012 0.2838613 0.2835256 0.2812672 0.2775133 0.278673 0.2745224 0.2749191 0.270097 0.2673808 0.2694561 0.2703412 0.2685711 0.2710432 0.2734847 0.2737899 0.2761094 0.2795275 0.2830373 0.2849295 0.2851737 0.2886529 0.2889886 0.2887139 0.2889886 0.2932918 0.2952146 0.2958555 0.3035464 0.3062015 0.3084905 0.3047366 0.3085515 0.3134041 0.3131905 0.3141366 0.3214307 0.3229872 0.3251236 0.3262223 0.3293658 0.3331197 0.337484 0.3454495 0.3458463 0.3485625 0.3484405 0.3485931 0.3509125 0.3544833 0.3513093 0.3492645 0.3526521 0.3523775 0.3525301 0.3522859 0.3544528 0.3596411 0.3620216 0.3640664 0.3668132 0.3689801 0.3705671 0.370445 0.3733443 0.3713605 0.3719099 0.3734359 0.3750839 0.3785631 0.3781359 0.3757248 0.374443 0.3754502 0.3821339 0.3857352 0.3841482 0.3888177 0.390893 0.3935787 0.3952267 0.3989196 0.4007813 0.3997131 0.4023073 0.4066716 0.4084111 0.4072209 0.4119514 0.4138436 0.4147592 0.4143625 0.4132027 0.4141183 0.4126228 0.4104254 0.4069767 0.4064884 0.4087164 0.4100287 0.4079839 0.4078313 0.4047183 0.4043216 0.4060917 0.4095709 0.4124092 0.4164988 0.4172618 0.4172923 0.4172618 0.412928 0.4118598 0.4135384 0.414515 0.4145761 0.4182079 0.4187573 0.4188488 0.4212293 0.4204663 0.4157358 0.4132332 0.4148203 0.4161631 0.4160715 0.4114936 0.4102423 0.4102118 0.4098761 0.4086858 0.408167 0.4079228 0.4080755 0.4045657 0.4004761 0.4021242 0.4016969 0.4006592 0.4022462 0.3997436 0.3971495 0.3958982 0.3972716 0.3992248 0.3952878 0.3949521 0.3954709 0.3939144 0.3933956 0.3897638 0.3865898 0.3823476 0.3808216 0.3837209 0.3853385 0.3872612 0.3880242 0.3904963 0.3926936 0.3888482 0.3887566 0.3911677 0.3916255 0.3925105 0.3947079 0.3965696 0.4009034 0.4012086 0.4047183 0.3999268 0.3986754 0.3958372 0.3910151 0.3887261 0.389367 0.3875359 0.386254 0.3843618 0.3856131 0.3853385 0.3849417 0.381432 0.3821339 0.3834462 0.3847281 0.3838735 0.3808216 0.3764878 0.3699872 0.369743 0.3647378 0.3662028 0.3630593
0.2518159 0.2525484 0.2529451 0.2552036 0.2553256 0.2567906 0.2544711 0.2575841 0.2602088 0.2636269 0.2616737 0.2625893 0.2643899 0.2632912 0.2623451 0.2626198 0.2596289 0.2595984 0.2617347 0.2594763 0.2568821 0.2519075 0.2493438 0.2490997 0.2476653 0.2459867 0.2435451 0.2412867 0.2393945 0.2382348 0.2353354 0.2355796 0.2313374 0.2296283 0.2296588 0.2315815 0.2319172 0.2298419 0.2308491 0.233077 0.2372581 0.2389367 0.2409815 0.2423244 0.2427211 0.2431179 0.2444607 0.2443692 0.2450406 0.2454679 0.2462308 0.2460172 0.2434231 0.2455289 0.2432705 0.2414393 0.2435757 0.2447049 0.2467497 0.2470854 0.2515107 0.2503815 0.254288 0.2569432 0.2597204 0.2626198 0.2624367 0.2634438 0.2646646 0.2628639 0.2624672 0.2627113 0.2659769 0.2693036 0.2704938 0.2714704 0.2693951 0.2691509 0.2706769 0.2686931 0.265275 0.2592627 0.2576756 0.2603308 0.2632607 0.2667094 0.267686 0.2705548 0.2723555 0.2724776 0.2725691 0.277025 0.2815724 0.28261 0.2833425 0.2845633 0.2834951 0.2851126 0.2867912 0.2899652 0.2872185 0.2887444 0.2931697 0.2929561 0.2931392 0.292834 0.2885918 0.2883171 0.2829457 0.2794055 0.2774217 0.2754074 0.2743698 0.2733932 0.2711042 0.2706159 0.2693646 0.2693341 0.267747 0.2672587 0.2667399 0.2696087 0.2720198 0.2732406 0.2743087 0.2783983 0.2807789 0.2825795 0.2842581 0.2870048 0.2845022 0.2855094 0.2882561 0.2916438 0.2964964 0.3011048 0.3065678 0.3066288 0.3053165 0.3082463 0.3093756 0.3138314 0.3175243 0.3183178 0.3230788 0.3264359 0.3281145 0.3313801 0.3360801 0.3418177 0.3474638 0.349234 0.352408 0.3522859 0.3536288 0.3543612 0.3543612 0.3539645 0.3524995 0.3544223 0.3528047 0.3531099 0.356406 0.3581151 0.3582677 0.3622047 0.3623573 0.3647684 0.3662028 0.3694073 0.371971 0.3722151 0.372032 0.3742294 0.3749008 0.3776781 0.3789904 0.3774644 0.3771898 0.3795398 0.3809437 0.3832937 0.3838125 0.3844839 0.3859794 0.3896417 0.3925411 0.3969969 0.3970579 0.400232 0.4000793 0.4033144 0.4067631 0.4078313 0.4084111 0.4114326 0.4123176 0.4113715 0.4125618 0.4119819 0.4107611 0.410517 0.40658 0.4060307 0.405878 0.4090826 0.4126534 0.4110969 0.408991 0.4091131 0.4086858 0.411402 0.4134469 0.4150949 0.4191235 0.4216871 0.4202222 0.4198865 0.419154 0.4157358 0.4154001 0.4144235 0.4158274 0.4170787 0.4185741 0.4184826 0.4170787 0.4162852 0.4157358 0.4124703 0.4093572 0.4085943 0.410517 0.4078008 0.4097845 0.4107306 0.4093572 0.4097845 0.4084417 0.4070683 0.4065189 0.4024904 0.3979735 0.3943722 0.3957761 0.3978514 0.3991638 0.3970884 0.3942806 0.3947384 0.3940365 0.3946774 0.3945553 0.3944943 0.3941281 0.3930294 0.3894281 0.3857352 0.3859794 0.3816761 0.3787158 0.3806385 0.3824696 0.383843 0.3874138 0.3892755 0.388604 0.3897027 0.3859488 0.3877495 0.3892144 0.390893 0.3936397 0.39483 0.3962339 0.3978209 0.3977293 0.395593 0.3943722 0.3913508 0.3889703 0.3890008 0.384545 0.3852164 0.3844534 0.3808826 0.3781664 0.3793872 0.3769761 0.3779528 0.3801807 0.3805469 0.3801501 0.3795398 0.3796924 0.3758164 0.3716963 0.3673015 0.365043 0.3643716 0.3627846
0.2507477 0.2520906 0.2532808 0.2570347 0.2587743 0.2561191 0.2571873 0.2598425 0.2666484 0.2663737 0.2647867 0.2619789 0.2614906 0.2606055 0.2626198 0.2617042 0.2631997 0.2628945 0.2611549 0.2588049 0.2537997 0.2509614 0.248001 0.2478789 0.2444912 0.2456815 0.2412257 0.2400354 0.2420802 0.2378685 0.2359763 0.2329244 0.2281023 0.2300861 0.2281328 0.2281633 0.2263932 0.2299335 0.2327107 0.2332601 0.2329549 0.2376244 0.2415003 0.2429958 0.2438503 0.242477 0.2430263 0.2411646 0.2384484 0.2415003 0.2411951 0.2429653 0.2406763 0.2428432 0.2434231 0.2408289 0.2404932 0.2413783 0.2436672 0.2476958 0.251114 0.2508088 0.252762 0.2556919 0.2571263 0.2618873 0.2646646 0.2630166 0.2603919 0.2630471 0.2615821 0.2634133 0.2638711 0.2686321 0.2725386 0.2742172 0.2732406 0.2697613 0.2732711 0.2674419 0.2660075 0.2593542 0.2576451 0.2596594 0.261338 0.2624977 0.2676555 0.2701886 0.2696393 0.2679302 0.2686931 0.2732711 0.2821217 0.2800464 0.2802905 0.2818165 0.285723 0.284075 0.2882561 0.2881951 0.2899957 0.2888665 0.2900568 0.2930782 0.2953977 0.2911249 0.2908198 0.2874321 0.281786 0.2779405 0.2765366 0.2759263 0.2724776 0.2727523 0.2720198 0.2689373 0.2666178 0.266038 0.2682048 0.2640237 0.2621925 0.264512 0.2689373 0.2689678 0.2679912 0.2733932 0.2769029 0.2811451 0.2816334 0.2835256 0.2824574 0.2825795 0.2830068 0.2865776 0.2932308 0.2983886 0.3057132 0.3066593 0.308521 0.3095587 0.3082158 0.3134957 0.3166697 0.3192944 0.3224684 0.3253677 0.3294574 0.3353781 0.3403833 0.3452359 0.3481963 0.3510346 0.3554904 0.3563145 0.355643 0.3572606 0.355521 0.3553379 0.3587866 0.356284 0.3561313 0.3582372 0.3584508 0.358756 0.3580541 0.3625709 0.3609839 0.366569 0.3679424 0.3699567 0.3715132 0.3724898 0.3765794 0.3747177 0.3767014 0.3775865 0.3800586 0.3807911 0.3820423 0.3824086 0.3833547 0.3810352 0.383843 0.3848196 0.386193 0.3890313 0.3891534 0.3925411 0.398706 0.3998657 0.3984313 0.4020936 0.4036501 0.4046878 0.4098761 0.4127754 0.4132027 0.4107306 0.40893 0.4106086 0.4098456 0.4106391 0.4065189 0.406641 0.4083501 0.4123787 0.41363 0.4124397 0.4118598 0.4093267 0.409815 0.4122261 0.4161021 0.4189098 0.4219313 0.4216871 0.4234572 0.4209241 0.4203748 0.4184521 0.4164073 0.4126534 0.4127754 0.4158274 0.4160105 0.4146676 0.4125008 0.4138436 0.4111884 0.4092962 0.4052066 0.4054202 0.4047183 0.4076177 0.4067631 0.4072209 0.4105475 0.4059696 0.4067021 0.4034365 0.4017884 0.3984923 0.3919002 0.3891839 0.3874443 0.3929683 0.3931819 0.3933651 0.3930294 0.3939449 0.39718 0.3961118 0.3966612 0.39483 0.3915949 0.387017 0.383843 0.3841787 0.383904 0.3800281 0.3777696 0.380669 0.3795398 0.3842092 0.3888787 0.3867424 0.3888482 0.3843924 0.3819203 0.3855216 0.3859488 0.3904047 0.3929988 0.3920222 0.3939144 0.3936092 0.3959287 0.3942196 0.3907709 0.387841 0.3875664 0.3845755 0.3813099 0.3819813 0.379143 0.3779222 0.3737716 0.3734359 0.372093 0.3741683 0.3764573 0.3769456 0.3774339 0.3754807 0.3749619 0.3728865 0.369682 0.3657145 0.3621132 0.3628151 0.3605872
0.2503815 0.2501068 0.2501984 0.2536165 0.2569737 0.2591711 0.2615821 0.2627419 0.2659159 0.2646951 0.2606665 0.2612769 0.2634438 0.2615516 0.2639627 0.2624367 0.2625282 0.2614295 0.2585607 0.2579503 0.252701 0.2500763 0.2475127 0.2454984 0.2469023 0.2451627 0.2416529 0.2389062 0.2369529 0.2361899 0.2348776 0.2307575 0.2279192 0.2273698 0.2279192 0.2280718 0.2274003 0.22914 0.2331075 0.2325276 0.2328939 0.2364646 0.2383263 0.2394555 0.2416835 0.2420802 0.2420497 0.2410425 0.2389062 0.2386315 0.241012 0.2391198 0.2386926 0.2390283 0.237777 0.2395776 0.241836 0.240188 0.2435451 0.2472685 0.2492218 0.2517854 0.2539828 0.2563633 0.2587743 0.2588354 0.2643899 0.2631386 0.2625893 0.2626808 0.2642068 0.264451 0.266099 0.268449 0.2724165 0.2726302 0.2721724 0.2710126 0.2710432 0.2691815 0.2636269 0.2600256 0.2574315 0.2588354 0.2588354 0.2614295 0.2657633 0.266862 0.2666484 0.266862 0.2671367 0.270036 0.2772691 0.2789782 0.277025 0.2805652 0.2818165 0.2815419 0.2862418 0.2892632 0.288836 0.2906977 0.290484 0.2922236 0.2911249 0.2905146 0.2910029 0.2875237 0.281725 0.2788561 0.2751327 0.2740035 0.275499 0.2727217 0.2667399 0.2641458 0.2628639 0.2627113 0.2618873 0.2608191 0.2627113 0.2632302 0.2678386 0.2671061 0.2686321 0.2677776 0.2707685 0.2760789 0.2775133 0.2792834 0.2787951 0.2805042 0.2793139 0.2838613 0.2882256 0.2949399 0.2986938 0.3024782 0.3035769 0.3061405 0.3094671 0.3147775 0.3186535 0.3220106 0.3262223 0.3301898 0.3316853 0.3368736 0.3408411 0.3472807 0.3506379 0.3533846 0.3540255 0.3548495 0.3565281 0.357993 0.3579015 0.3600378 0.3631508 0.3624489 0.3600684 0.3601905 0.360282 0.3588476 0.3600378 0.3612586 0.3640969 0.3660502 0.3686748 0.3703839 0.3716352 0.375267 0.3757248 0.3747177 0.3773119 0.3791735 0.3775865 0.3778917 0.3767625 0.379967 0.3792651 0.3797839 0.3794787 0.3805774 0.3811573 0.3835073 0.3856131 0.390191 0.3952573 0.3962339 0.3978209 0.3984313 0.3988891 0.4024904 0.4044741 0.4096014 0.4092047 0.4107001 0.4085943 0.409815 0.4077702 0.4094183 0.4103339 0.4104865 0.410456 0.4109443 0.4108832 0.4135079 0.4115547 0.4117073 0.4117988 0.4154001 0.4182689 0.4204969 0.4218397 0.4228469 0.4201916 0.4186962 0.4179943 0.4167735 0.4167735 0.414393 0.4161936 0.4151865 0.4135689 0.4149118 0.4132943 0.4128365 0.4085332 0.4087469 0.4062748 0.4050235 0.4029482 0.4038027 0.4020326 0.4040163 0.4056339 0.404169 0.3998047 0.3993164 0.3974852 0.3945858 0.3888787 0.3876274 0.3891534 0.3891229 0.3881768 0.3897333 0.3918086 0.3910761 0.3905268 0.3925716 0.3895196 0.3896112 0.3883294 0.3836904 0.3833242 0.3822255 0.3806385 0.3782274 0.3763963 0.3775255 0.3791735 0.3827443 0.3850027 0.3842092 0.3815235 0.3802112 0.3802722 0.3833852 0.3857047 0.3875969 0.3911372 0.3937618 0.3928768 0.3927852 0.3939449 0.390954 0.3875359 0.3868034 0.3843313 0.3785326 0.378258 0.3756638 0.3736495 0.3731307 0.3710859 0.3691937 0.370445 0.3701703 0.3734969 0.3748703 0.3766099 0.3742904 0.3731307 0.3677593 0.3648294 0.3617469 0.3610755 0.3591222 0.3562229
0.2505036 0.2519075 0.2515107 0.2552951 0.255936 0.260575 0.2623451 0.2642373 0.2642678 0.2642068 0.2594458 0.2624367 0.2624977 0.2646341 0.2646341 0.2643594 0.262925 0.2616432 0.2556614 0.2577977 0.2549899 0.2511445 0.250351 0.2491912 0.2469938 0.2420497 0.2409205 0.2389367 0.2342367 0.2329244 0.2342978 0.2334737 0.2305439 0.2259965 0.2242263 0.2247757 0.2263932 0.2302081 0.2328939 0.2342978 0.2335042 0.2348166 0.2367088 0.2404322 0.2395776 0.24089 0.2400354 0.2388146 0.2399133 0.2375328 0.2382958 0.2368614 0.2383873 0.2384789 0.2361594 0.2381737 0.2419276 0.243301 0.2416835 0.2454679 0.2451627 0.2492828 0.2544406 0.2573704 0.2556919 0.2620704 0.2633522 0.2649393 0.2648477 0.2638711 0.2653055 0.2675945 0.2672282 0.2679302 0.2701886 0.2729964 0.2746139 0.2712263 0.2702191 0.2659464 0.2594458 0.2572789 0.2568821 0.2568211 0.2556003 0.2592321 0.2601172 0.2639627 0.2623756 0.2635354 0.2616432 0.2652445 0.2716841 0.2747665 0.2757737 0.27556 0.2776354 0.2815113 0.2819996 0.2856314 0.290362 0.2892327 0.2908503 0.291186 0.2909418 0.2896295 0.2906671 0.2872795 0.2837392 0.2806873 0.2768418 0.276323 0.2760483 0.2693646 0.263688 0.2616127 0.2616432 0.2584386 0.260514 0.2617958 0.2593237 0.261338 0.2659769 0.2652139 0.2654581 0.2663431 0.266099 0.2706464 0.2746444 0.2758347 0.276323 0.2742172 0.2759568 0.279436 0.2844717 0.2917659 0.2938107 0.3004334 0.3025392 0.3084905 0.3121223 0.3137704 0.3161204 0.3210645 0.3254898 0.3333028 0.3370567 0.3412989 0.3448392 0.3475859 0.3528353 0.3544528 0.353995 0.357932 0.3579015 0.3592138 0.3628761 0.3623878 0.3635781 0.364219 0.3644937 0.3634865 0.3614722 0.3616249 0.3635781 0.3671489 0.3671184 0.3688885 0.3683391 0.3722456 0.3710554 0.3756943 0.3761826 0.3768235 0.3766099 0.3778002 0.3756028 0.3761521 0.3745041 0.3761216 0.3746566 0.3775865 0.3773729 0.3789294 0.3810962 0.3837209 0.3849112 0.3887872 0.389367 0.3900995 0.3914729 0.3961423 0.3982177 0.3996215 0.4008423 0.4035586 0.4084111 0.4101202 0.4099982 0.4072514 0.4070073 0.4076177 0.4126228 0.4107917 0.412043 0.4116157 0.410517 0.4138131 0.412928 0.4155527 0.4175975 0.4196423 0.4242813 0.4243423 0.4256546 0.4221449 0.4214735 0.4209852 0.4164073 0.4150339 0.4141793 0.4156748 0.4178417 0.414393 0.4110053 0.4135079 0.4127754 0.4109443 0.4090826 0.4059086 0.4017579 0.4028261 0.402643 0.4017884 0.4013306 0.3997131 0.3976683 0.3970274 0.3961423 0.3969664 0.3946774 0.3908625 0.3868034 0.3840566 0.3855216 0.3838735 0.3839651 0.384606 0.3876885 0.3880242 0.3871696 0.3871391 0.3824086 0.3853385 0.3826222 0.3801807 0.380669 0.3796008 0.3741683 0.3749619 0.3720625 0.3747787 0.3778612 0.3810657 0.3805469 0.3824391 0.3796313 0.3797229 0.3760605 0.3801196 0.3826222 0.3863761 0.3926631 0.3939144 0.3950436 0.3916255 0.3904657 0.3908625 0.388543 0.3842398 0.3790209 0.3746872 0.3723982 0.3712995 0.3665995 0.3666606 0.3681255 0.3663554 0.3641275 0.3691937 0.3707502 0.3732527 0.3728865 0.3715437 0.3681865 0.3650125 0.3588171 0.3562229 0.3575352 0.3522859 0.3503937
0.2470854 0.2509614 0.2507477 0.2555393 0.2587743 0.2599341 0.2599951 0.2610022 0.2617652 0.2628639 0.2624061 0.2630471 0.2652139 0.2635049 0.26616 0.2632607 0.2622536 0.2622536 0.2596899 0.2564243 0.2556003 0.2505951 0.2502289 0.2471464 0.2426296 0.2412562 0.2381432 0.2358848 0.2353354 0.2332296 0.2330159 0.2342062 0.2298724 0.2285296 0.2283465 0.2277666 0.2284991 0.229262 0.2330464 0.234664 0.2350607 0.2351218 0.2382958 0.2410731 0.2432094 0.2419276 0.2422938 0.2414698 0.2415614 0.2375633 0.2389977 0.2355796 0.2353354 0.2363731 0.2391503 0.2410425 0.241012 0.2442471 0.2439419 0.243301 0.2452848 0.2515717 0.2554172 0.2557224 0.2580113 0.2634133 0.2674419 0.2690594 0.2681743 0.2667399 0.2655497 0.2664652 0.2675639 0.2703107 0.2722029 0.2729659 0.2754685 0.2737594 0.2678386 0.266038 0.2592016 0.2577062 0.257523 0.2561191 0.2548373 0.2548373 0.2575535 0.2593237 0.2572484 0.2587438 0.2595984 0.2607276 0.2639932 0.2694867 0.2734847 0.2744003 0.2782763 0.2816334 0.2842581 0.2872795 0.2896905 0.2907282 0.2886834 0.2899042 0.2885308 0.2893853 0.2908808 0.2886834 0.2872795 0.2818775 0.2805042 0.2789477 0.2752548 0.2705548 0.2664347 0.2602088 0.2549594 0.2559665 0.2585912 0.2596289 0.2603919 0.2624977 0.2644204 0.2651834 0.2639932 0.2635049 0.2652139 0.2689373 0.2702191 0.2693341 0.2707074 0.2704023 0.2747055 0.278612 0.2825795 0.2868522 0.2953672 0.3000061 0.3036379 0.3091314 0.3121223 0.3167002 0.3202405 0.3251236 0.330434 0.3338827 0.3380944 0.3391931 0.3425197 0.3476164 0.353171 0.3537203 0.3558262 0.3588171 0.3629067 0.3648294 0.3653787 0.3670573 0.3657145 0.3654093 0.3645242 0.3650125 0.3635781 0.3675456 0.3714216 0.3712995 0.3727644 0.371208 0.3723677 0.3737411 0.3727339 0.3741378 0.3728865 0.3738937 0.3720625 0.3725508 0.3725813 0.3754502 0.3751755 0.3745956 0.3730086 0.3734054 0.3766404 0.3770372 0.3782885 0.3803028 0.3839956 0.3851553 0.386956 0.3860709 0.3904047 0.3926936 0.3933956 0.3985229 0.4027651 0.4031313 0.4091741 0.4097235 0.4089605 0.4057254 0.4069767 0.4068241 0.4079534 0.4122261 0.4120125 0.4120125 0.412104 0.4118293 0.4157053 0.4165904 0.419856 0.4266313 0.4297748 0.4294085 0.4266008 0.4237624 0.421565 0.4205274 0.4165293 0.415217 0.4158884 0.4162546 0.4175059 0.4144845 0.4127754 0.4121345 0.4087774 0.4104254 0.4067936 0.4037112 0.4009339 0.4009644 0.4012086 0.3981566 0.395654 0.396356 0.394769 0.3941281 0.3915034 0.3904963 0.3917781 0.389367 0.3852164 0.3818592 0.3810657 0.3810047 0.3830495 0.3812794 0.3807911 0.3818592 0.3802112 0.3802722 0.38073 0.3792956 0.3793567 0.3778002 0.3761826 0.3759385 0.3746566 0.3739547 0.3734969 0.3757859 0.3770677 0.3794482 0.379967 0.3800281 0.3772203 0.3770677 0.3768846 0.3790514 0.3804859 0.3852469 0.3909846 0.3930599 0.3925105 0.393243 0.3939755 0.391717 0.3886346 0.3837515 0.3793567 0.3728865 0.3714826 0.3687359 0.3677287 0.3656534 0.3643716 0.363395 0.3640969 0.3651956 0.3664774 0.3668132 0.3656229 0.3648599 0.3648599 0.3597327 0.3562229 0.3520418 0.3533541 0.3496612 0.3457547
0.2454984 0.2506562 0.2520601 0.2584386 0.2619178 0.2595373 0.2624672 0.2590185 0.2583776 0.2595679 0.2630166 0.2632607 0.2647256 0.2625588 0.2661295 0.2613074 0.2634743 0.2624977 0.2606055 0.257462 0.2536471 0.2515412 0.2459867 0.2443692 0.2405542 0.239425 0.2360984 0.2345114 0.231612 0.2345724 0.2376854 0.2328633 0.2294146 0.2294757 0.2283465 0.2288653 0.2253556 0.2292926 0.2356101 0.2373802 0.2364646 0.2385399 0.2388146 0.2431484 0.2461088 0.2436977 0.2451627 0.2429653 0.2410425 0.2399438 0.2384484 0.2358848 0.2324666 0.2406458 0.2415919 0.2422023 0.2443386 0.2469023 0.2478484 0.2454679 0.2460783 0.2521211 0.2562107 0.2560886 0.2610633 0.2636575 0.2690289 0.270799 0.2748581 0.2696393 0.2691204 0.2697918 0.2701886 0.2709211 0.2736678 0.2779711 0.28026 0.2722334 0.2678997 0.2631691 0.2592321 0.2580419 0.2565464 0.2549289 0.2505646 0.2528536 0.2580113 0.2562412 0.2536471 0.2555393 0.2549594 0.2568821 0.2565159 0.2646951 0.2704328 0.2733932 0.2783983 0.281786 0.2839223 0.2841665 0.2891412 0.2887139 0.2877983 0.2877678 0.2909113 0.2915217 0.2921931 0.2879204 0.289599 0.2858451 0.2830983 0.2804431 0.2781542 0.2722334 0.2650308 0.2577367 0.2470549 0.2525789 0.2528536 0.2586828 0.2615211 0.2589574 0.2617347 0.2637795 0.2612464 0.2646951 0.2673808 0.2668009 0.2649393 0.2673808 0.266038 0.2697918 0.2679302 0.2769029 0.2827626 0.2862723 0.2930171 0.2990295 0.3030581 0.3103522 0.3137093 0.31551 0.3219801 0.3264054 0.3324483 0.3321431 0.3351035 0.3360496 0.3423671 0.3444424 0.3519197 0.3550021 0.3617469 0.3615943 0.3641885 0.368919 0.3720625 0.3664164 0.3640664 0.364158 0.3667826 0.3653177 0.3662333 0.369682 0.379967 0.378319 0.378258 0.3762742 0.3771898 0.3740768 0.3748703 0.3742904 0.3716963 0.3714521 0.3728865 0.3725203 0.3715742 0.3735274 0.3747482 0.3747482 0.3735274 0.3734664 0.3748093 0.3763047 0.3772508 0.3807606 0.3843618 0.3816761 0.3794787 0.3848501 0.3872612 0.390954 0.3880242 0.3965086 0.4011781 0.4057865 0.4086553 0.4073735 0.4066105 0.4074345 0.4066105 0.4056644 0.4056339 0.4091436 0.411402 0.4107001 0.4115241 0.4138131 0.4150034 0.4187573 0.423091 0.4298968 0.4376183 0.4288897 0.4257157 0.4248611 0.4247391 0.4213819 0.415217 0.4150034 0.4117683 0.4148813 0.4172923 0.4148203 0.4121345 0.4106696 0.4068241 0.4093878 0.4075871 0.402704 0.4016664 0.4020936 0.398706 0.3991943 0.3946164 0.3934872 0.3954404 0.3918696 0.391717 0.3879326 0.3861015 0.3862235 0.3834768 0.3803943 0.3745956 0.3762742 0.3785326 0.3804859 0.3793872 0.3787768 0.3793567 0.3756028 0.3736495 0.3754196 0.3772508 0.3739242 0.3734969 0.3731307 0.3727644 0.3748093 0.3734664 0.3750839 0.3767014 0.3781664 0.3827138 0.3811573 0.3798144 0.3774339 0.3738021 0.3772203 0.3814625 0.3863761 0.3911066 0.39013 0.3921443 0.3922358 0.3961729 0.3896722 0.386193 0.3808521 0.3749313 0.3725813 0.3694073 0.3677898 0.3620827 0.36428 0.3644326 0.3616859 0.3588476 0.3593664 0.3620827 0.3597327 0.3618385 0.3597327 0.3607093 0.3568333 0.3523164 0.3476775 0.3473417 0.3451749 0.336019
0.2493438 0.2499237 0.253464 0.2572484 0.2599036 0.2613685 0.2593237 0.2590795 0.260575 0.2606665 0.2625893 0.2614906 0.2617042 0.2635659 0.2618568 0.259812 0.2606055 0.2595679 0.2576451 0.2549899 0.2509614 0.2485808 0.2456205 0.2447354 0.2466276 0.2445828 0.2413783 0.2398523 0.2385705 0.2355796 0.2391503 0.2362815 0.2335042 0.2332601 0.2312763 0.228377 0.229201 0.2297198 0.2353659 0.2363731 0.2359153 0.2369224 0.2396692 0.2425075 0.2461088 0.2490386 0.2470549 0.2484588 0.2435451 0.241714 0.2404627 0.2406763 0.2430568 0.2450711 0.2463834 0.2462919 0.2469328 0.2494049 0.2508698 0.2519075 0.2535555 0.2552341 0.2576146 0.2589269 0.2602698 0.2635964 0.2675945 0.2703412 0.2709211 0.2706769 0.2698834 0.2714094 0.2727828 0.27556 0.2760178 0.2787341 0.2766587 0.2731185 0.2680217 0.2642068 0.2603308 0.2604834 0.2592932 0.2546237 0.2544711 0.254227 0.2549594 0.2562717 0.2570652 0.2551731 0.2564243 0.256638 0.2600256 0.2642678 0.2675945 0.2727828 0.2778795 0.2801074 0.2802905 0.2836172 0.2837087 0.2863944 0.2869438 0.2863944 0.2887749 0.2881035 0.2895685 0.2874016 0.2866081 0.2828542 0.281023 0.2781847 0.2778795 0.2725386 0.2657022 0.259873 0.2529451 0.2510834 0.2543795 0.2575841 0.2583776 0.2577977 0.2595679 0.2617042 0.2608191 0.2655191 0.2673503 0.2650613 0.2658854 0.2660685 0.2660685 0.2687542 0.2727217 0.2787646 0.2814198 0.2856925 0.2917659 0.2956724 0.3011048 0.3081548 0.3131295 0.3162425 0.3209424 0.3236282 0.3266496 0.3311359 0.3355002 0.3351035 0.3392846 0.3430385 0.3499664 0.3543918 0.3575352 0.3624184 0.3637917 0.3676067 0.3687359 0.3675151 0.3675151 0.3672404 0.3658976 0.3666911 0.3665995 0.3694378 0.3752365 0.3772813 0.3768846 0.3787158 0.3784105 0.3769151 0.3762437 0.3728865 0.3743515 0.3734664 0.3748398 0.3719404 0.3717573 0.3762742 0.3769151 0.3760605 0.3753586 0.37368 0.3770982 0.3769456 0.3774339 0.3793567 0.3824696 0.3785937 0.3775255 0.3814625 0.3864066 0.3894891 0.3919612 0.3936703 0.3994384 0.4032534 0.40423 0.4044741 0.4076787 0.4076177 0.4070378 0.4041079 0.4074956 0.4084417 0.4063053 0.4084111 0.41128 0.4135384 0.4177806 0.4185131 0.4217787 0.4249527 0.4276994 0.4300189 0.4283098 0.4235793 0.422328 0.4197949 0.4182384 0.4147897 0.4134469 0.4135384 0.416804 0.4154612 0.4124397 0.4079228 0.4077092 0.4086553 0.4075261 0.4040469 0.4023683 0.4001404 0.3999268 0.3991638 0.397882 0.3948605 0.3932125 0.3906183 0.3905573 0.386193 0.3826833 0.3810047 0.379845 0.3794482 0.3773119 0.3738937 0.37603 0.3754807 0.3762131 0.3773119 0.3746566 0.3750534 0.3722456 0.3715742 0.369682 0.3714826 0.3706281 0.3725813 0.3732527 0.3714216 0.3723066 0.3737105 0.3731917 0.3749924 0.3760911 0.3757248 0.374321 0.3733138 0.37368 0.3758164 0.3794787 0.3820118 0.3856742 0.3859488 0.3865592 0.3887872 0.3886956 0.3850943 0.3826222 0.3785937 0.3721846 0.3698041 0.3685528 0.3671794 0.3623878 0.3611671 0.3621437 0.3571385 0.3573827 0.3564671 0.3560398 0.355582 0.3559177 0.3530794 0.3509125 0.350821 0.3493255 0.3442288 0.3412989 0.3405359 0.3353781
0.2490081 0.2515107 0.2555393 0.2566685 0.2581334 0.2593847 0.2594763 0.2581945 0.2590185 0.2596289 0.2599951 0.2596899 0.2630166 0.2604224 0.2573399 0.2572179 0.2571873 0.257462 0.2560886 0.2528841 0.252762 0.2490081 0.2484893 0.2500763 0.2507477 0.2459257 0.2458341 0.2420192 0.2394555 0.2387231 0.2398828 0.2412867 0.2413477 0.2382348 0.2361594 0.2325887 0.2298724 0.2336263 0.235427 0.2364646 0.2371971 0.2384179 0.2420802 0.2431179 0.2489776 0.2483062 0.2516633 0.2513276 0.2499847 0.2452848 0.242599 0.2461698 0.2474211 0.2478179 0.2517244 0.2532808 0.252762 0.2536776 0.2549594 0.2558445 0.2572484 0.2584081 0.2578588 0.2582555 0.2600562 0.2629555 0.2662821 0.2712263 0.2734542 0.2736068 0.272325 0.2741867 0.277849 0.2756821 0.2790698 0.2762315 0.2772691 0.2729659 0.2671367 0.2661906 0.2607581 0.2614906 0.2585302 0.2562717 0.2560886 0.2547763 0.2540743 0.2548679 0.2568211 0.2558445 0.2526094 0.2567295 0.2622536 0.2630166 0.2649698 0.2729964 0.277025 0.2782763 0.2809925 0.2839834 0.2820912 0.2831899 0.2825795 0.2828542 0.2838003 0.2860587 0.2848684 0.2854483 0.2875542 0.2802295 0.2782152 0.2775133 0.2757737 0.2696087 0.2661906 0.2607581 0.254349 0.2541659 0.253586 0.2532808 0.2545932 0.2588964 0.259812 0.2621925 0.2609107 0.2638406 0.2662821 0.266038 0.2666484 0.2691509 0.2701886 0.2711957 0.275438 0.2810535 0.2830678 0.2871879 0.2894159 0.2964048 0.3008301 0.3059269 0.3129769 0.3174327 0.3211866 0.3237197 0.3240249 0.3295489 0.3336996 0.3339437 0.3347678 0.3396204 0.3466093 0.3517671 0.3536288 0.3578404 0.3625099 0.3635476 0.3665995 0.3648294 0.3680645 0.3659891 0.3687969 0.3671489 0.3645242 0.3688274 0.3689801 0.3729781 0.3761521 0.3763658 0.3763047 0.3757248 0.3747177 0.3727034 0.3721235 0.3752365 0.3749924 0.375145 0.3730696 0.3755417 0.3782885 0.3758469 0.3770066 0.3769456 0.3762131 0.3765489 0.3777086 0.3797839 0.3803638 0.3774644 0.3773729 0.3802112 0.3827748 0.3894586 0.3926021 0.3921748 0.3986144 0.4003235 0.4030702 0.4048709 0.4065495 0.4084417 0.407404 0.404993 0.4043826 0.4039858 0.4045962 0.4076787 0.4109443 0.4139657 0.4171092 0.4162852 0.4188488 0.4203137 0.4228163 0.4262955 0.4272111 0.4245559 0.4219313 0.416804 0.4162241 0.4147592 0.4122261 0.4147287 0.4161326 0.4122871 0.4095709 0.4096014 0.4099982 0.4088689 0.4070988 0.4060612 0.4047488 0.4012391 0.399469 0.3986449 0.3975767 0.3929073 0.3872307 0.3879021 0.3874748 0.3843618 0.382256 0.3781359 0.3776781 0.3781053 0.3752365 0.3722761 0.3697735 0.3723677 0.3763963 0.375206 0.3743515 0.3746872 0.370445 0.3698041 0.3653787 0.3674235 0.3666911 0.3674846 0.3702313 0.3707502 0.3703534 0.3703839 0.3700177 0.3691021 0.369682 0.3708723 0.3737411 0.3721846 0.3714216 0.3749313 0.3756333 0.3789599 0.3796619 0.3835989 0.3848501 0.3857962 0.3843313 0.381432 0.3782274 0.3757248 0.3708723 0.3684002 0.3670573 0.3665385 0.3634255 0.3600073 0.3588781 0.3560093 0.3528658 0.3502716 0.3485015 0.3509431 0.3488067 0.3489898 0.345419 0.3451138 0.3448697 0.339895 0.3401392 0.334371 0.3331502
0.2476653 0.2516328 0.2567601 0.2570042 0.2615516 0.2626808 0.2620094 0.2599341 0.2599036 0.2610328 0.2603003 0.2577367 0.2559665 0.2551425 0.2557529 0.2537692 0.2524568 0.2532198 0.2522126 0.2510834 0.2502594 0.2493438 0.2498932 0.2504425 0.2502899 0.2492218 0.2462614 0.2445828 0.2462919 0.2430568 0.2447049 0.2442166 0.2410425 0.2394861 0.2371971 0.237014 0.2359763 0.2346945 0.238601 0.2397607 0.2443081 0.2450711 0.244949 0.244125 0.2461088 0.2484893 0.2536471 0.2532198 0.2542575 0.2500763 0.2509919 0.249649 0.2505036 0.2521821 0.255112 0.2571263 0.2593237 0.2599951 0.2584691 0.2606971 0.2580113 0.2603003 0.2604834 0.2598425 0.2619483 0.2656717 0.2678386 0.2684185 0.2717756 0.2713178 0.2750107 0.2758957 0.2767808 0.2771776 0.2759263 0.2745224 0.2727523 0.2741256 0.2701886 0.2675945 0.2646036 0.2610633 0.2594763 0.2585912 0.2593847 0.2574925 0.2576146 0.2551731 0.253586 0.2557529 0.2556003 0.2593237 0.26146 0.2632912 0.2653055 0.2697613 0.2746139 0.2811451 0.2829152 0.2814198 0.2800464 0.2805042 0.281786 0.2807789 0.2808704 0.2827931 0.2853568 0.2843496 0.2819386 0.2799548 0.2781847 0.2773912 0.2743698 0.2697613 0.2636269 0.2598425 0.2550204 0.253586 0.2538912 0.252762 0.2533724 0.2569126 0.2585302 0.2635049 0.2649087 0.2684795 0.2705243 0.2710432 0.2727523 0.2712263 0.2738815 0.2774217 0.2778185 0.2829457 0.2862723 0.2879815 0.2901483 0.2956724 0.3018373 0.3048587 0.3090399 0.3151437 0.3201184 0.3208204 0.3231398 0.3259171 0.3293048 0.3306476 0.3327534 0.3380333 0.3416957 0.3463346 0.3519197 0.3540865 0.3559177 0.3605567 0.363456 0.3649209 0.3647378 0.3663248 0.3659586 0.3659586 0.3656839 0.3652567 0.3656229 0.3687359 0.3718183 0.3748093 0.375908 0.377495 0.3771287 0.3773119 0.3761521 0.3755417 0.374443 0.3772813 0.3774644 0.3771287 0.3769456 0.3761521 0.3752365 0.3758469 0.3770982 0.3793872 0.3770677 0.378319 0.3786242 0.3785326 0.3795092 0.3798755 0.3841787 0.3860404 0.389306 0.3910151 0.3952267 0.3993774 0.4012086 0.4008729 0.4038943 0.4050235 0.4064884 0.4049319 0.4048404 0.4034975 0.4058475 0.4048404 0.4091741 0.4129891 0.412867 0.4139047 0.4134469 0.4160715 0.4206494 0.4209546 0.4225111 0.419856 0.4200085 0.4168651 0.4134469 0.4142098 0.4139047 0.4154917 0.4129586 0.4146982 0.413691 0.4102728 0.408228 0.4081365 0.405878 0.4041995 0.4018495 0.402704 0.3984618 0.3959897 0.3954099 0.3894586 0.385491 0.3850332 0.3835378 0.3818898 0.378258 0.3787463 0.3750534 0.3731612 0.3707196 0.369682 0.3716657 0.3725813 0.3723372 0.3723677 0.3725508 0.3723982 0.3698041 0.3659281 0.3637917 0.3636086 0.3628456 0.3659281 0.3700482 0.3703534 0.3708417 0.3677593 0.3688885 0.3686138 0.3676677 0.3684612 0.3695294 0.3689495 0.3717268 0.3722761 0.3722761 0.3758774 0.3764573 0.3774339 0.3788073 0.3789294 0.3770372 0.3727644 0.3721541 0.3706281 0.3655924 0.3667216 0.3633339 0.3633645 0.3632424 0.3586034 0.3553684 0.3507294 0.3483794 0.3463651 0.3451444 0.3433742 0.3428249 0.3422145 0.3411768 0.3397729 0.3402613 0.336782 0.3353171 0.3300983 0.3289691
0.2452542 0.2498321 0.2564243 0.2592321 0.2621315 0.2618263 0.2636575 0.2610328 0.2607581 0.2609717 0.2601477 0.2570652 0.2549899 0.2549289 0.251236 0.2526399 0.2497406 0.2492523 0.2514802 0.248123 0.2436367 0.248001 0.2500458 0.2484588 0.2530977 0.2501068 0.247238 0.2492523 0.2509919 0.2470549 0.2494964 0.2474516 0.2450406 0.2426906 0.2420802 0.2422328 0.2377159 0.2394555 0.2425075 0.2455899 0.2489471 0.2478789 0.2452848 0.2477568 0.2476653 0.2500153 0.253464 0.2555698 0.2573704 0.2576756 0.2571568 0.2572484 0.2541659 0.2553867 0.2568821 0.2593847 0.2618873 0.2647256 0.2638711 0.2616432 0.259049 0.2628334 0.2610022 0.2647867 0.2641458 0.2679607 0.2660685 0.2667704 0.2665568 0.2701886 0.2744918 0.2776048 0.280138 0.2771776 0.2764756 0.2755295 0.2724776 0.272447 0.2725996 0.2678691 0.2632912 0.2656412 0.2639627 0.2630471 0.2628334 0.2605445 0.2595373 0.2537386 0.2517549 0.2555698 0.2580724 0.2584691 0.2609412 0.2641458 0.2647256 0.2704023 0.2772081 0.2790087 0.2824879 0.2805042 0.2793444 0.2803516 0.2780016 0.2787035 0.2758042 0.2820607 0.2828847 0.283312 0.283434 0.2792529 0.2759568 0.2745834 0.2733016 0.2693646 0.2603308 0.2588354 0.2537386 0.2531587 0.2577367 0.2533114 0.2505951 0.2563328 0.2612159 0.2658243 0.2712873 0.269975 0.2704938 0.2751938 0.2771165 0.2772081 0.2782763 0.2812672 0.2802905 0.2848074 0.2863944 0.2917353 0.2946652 0.2978697 0.2992126 0.3044009 0.3094366 0.3127327 0.3177074 0.3204846 0.3203626 0.3204846 0.3228652 0.3284197 0.3309833 0.3361411 0.3427944 0.3464872 0.3470366 0.3526216 0.3517976 0.357993 0.3593664 0.3596411 0.3613807 0.3622658 0.3633645 0.3628151 0.3652872 0.361106 0.3619911 0.3631508 0.3662333 0.3712995 0.374443 0.3756028 0.3792041 0.3807606 0.3802722 0.3783495 0.3758164 0.3753281 0.3791125 0.3777391 0.3731307 0.3760911 0.3737716 0.3773729 0.3812183 0.3788989 0.379967 0.3792346 0.3820423 0.3797839 0.379967 0.3812183 0.3830495 0.3879021 0.3882988 0.3880242 0.3914118 0.3966917 0.3988586 0.3982787 0.3990112 0.4029482 0.4052066 0.4052371 0.4070073 0.4028566 0.4032839 0.403528 0.4076177 0.4081975 0.408991 0.4117073 0.4124092 0.4132332 0.4153696 0.4188488 0.4194287 0.4161021 0.4180248 0.4160715 0.4117988 0.4154612 0.4174449 0.4135384 0.4122871 0.4144845 0.4140573 0.4099677 0.4099066 0.4068547 0.400293 0.4032534 0.4001404 0.4021547 0.3992859 0.3960508 0.3938839 0.3897333 0.3827443 0.381432 0.3806385 0.379143 0.3775865 0.376793 0.3706586 0.3711774 0.3667216 0.3674541 0.372032 0.3702313 0.3723066 0.3692547 0.3725508 0.3676372 0.3655314 0.3662638 0.3659891 0.3615333 0.3590002 0.3625709 0.3670573 0.3693768 0.3673015 0.3650125 0.3618995 0.3637307 0.3667216 0.3646463 0.3662638 0.3684917 0.368095 0.368919 0.3703839 0.3720015 0.3709333 0.3724898 0.3723372 0.3706891 0.3674846 0.3667216 0.3647684 0.3631508 0.3615638 0.3624794 0.36193 0.36193 0.3604651 0.3548495 0.3507904 0.3494476 0.3472807 0.3427333 0.340597 0.339132 0.3395288 0.3362937 0.3352255 0.3349509 0.3384911 0.331319 0.327382 0.3277178 0.324147
0.2486419 0.2537997 0.2589269 0.2602088 0.2600562 0.2615516 0.2617347 0.2617347 0.2630471 0.2608802 0.2585607 0.2586828 0.2560886 0.2537997 0.2553256 0.2527925 0.2506562 0.2495269 0.2483367 0.2470854 0.2466581 0.2459562 0.2471159 0.248001 0.2487334 0.2497711 0.2483977 0.2486724 0.2494354 0.2501068 0.2504425 0.2484588 0.2484283 0.2463529 0.2462614 0.2443692 0.2455289 0.247299 0.2475737 0.2509919 0.2497406 0.2494049 0.2506256 0.2477873 0.2513886 0.2531282 0.2564549 0.2578282 0.2610633 0.2613074 0.2599951 0.2632607 0.2631386 0.261399 0.2615516 0.2654886 0.264573 0.2671672 0.2653971 0.2659159 0.2624672 0.2647867 0.2666178 0.2670451 0.2690899 0.2682048 0.2694561 0.2676555 0.2708906 0.2721113 0.2771471 0.2791308 0.2796802 0.280962 0.279497 0.277025 0.2768724 0.2749802 0.2731185 0.2710432 0.2686321 0.2670756 0.2635049 0.2639016 0.2633217 0.2611549 0.2586828 0.2555698 0.2563938 0.254349 0.2581334 0.258988 0.2619483 0.2622841 0.2646646 0.269212 0.2758042 0.2780626 0.2808399 0.28026 0.2772081 0.2775133 0.2784594 0.2792529 0.2769029 0.2798022 0.2785204 0.2807483 0.2814198 0.2772691 0.2762315 0.2743698 0.2715925 0.2681133 0.2635659 0.2577367 0.2555393 0.2551425 0.2569737 0.2556919 0.2543185 0.2595068 0.261399 0.2663431 0.2690899 0.2706464 0.2743087 0.2759263 0.280199 0.280199 0.2814808 0.2819691 0.2849905 0.2885003 0.2886834 0.2918879 0.2931697 0.296649 0.3002808 0.3051944 0.3075139 0.3106269 0.3136178 0.3167613 0.3202405 0.3199658 0.3235366 0.327321 0.330373 0.3335775 0.337484 0.3433437 0.3462431 0.350058 0.3517671 0.3541476 0.3562229 0.3580541 0.3620521 0.3610145 0.3630898 0.3608619 0.3615943 0.3593664 0.3615333 0.3613807 0.366508 0.3697125 0.3705976 0.3741073 0.3778612 0.3792651 0.3795703 0.3763352 0.3759995 0.3762742 0.3772813 0.3763047 0.375267 0.3770372 0.3801501 0.3810047 0.3813404 0.3808826 0.38308 0.3796924 0.382317 0.3828053 0.3829579 0.3814625 0.3840566 0.3867118 0.3885125 0.3879326 0.3912287 0.3922358 0.3951352 0.394769 0.3951657 0.3976683 0.4022157 0.4036196 0.4023988 0.40188 0.3994079 0.4009949 0.4046573 0.4040774 0.407404 0.4088079 0.4068547 0.4106696 0.4135689 0.4126228 0.4149118 0.4142404 0.4133553 0.4118293 0.4117073 0.4116157 0.4127754 0.4114631 0.4122871 0.4119514 0.4084111 0.4079839 0.4062748 0.4040774 0.4032229 0.4025819 0.3990112 0.3996215 0.395654 0.3926936 0.3891839 0.3866813 0.3849417 0.3806079 0.3795092 0.377556 0.376793 0.3741378 0.3733443 0.3704145 0.3682781 0.3666606 0.3676067 0.3673625 0.3695294 0.3669352 0.3667521 0.3671184 0.3645547 0.3619606 0.3629067 0.3630593 0.3615333 0.3650736 0.3647378 0.3652872 0.3644326 0.3600684 0.3606177 0.3633339 0.3631203 0.3640969 0.3623878 0.3632424 0.3637917 0.3660807 0.3670573 0.3670268 0.3653482 0.3646768 0.3653787 0.3678813 0.3645853 0.363395 0.360343 0.3578099 0.3593054 0.3582677 0.3582677 0.3559788 0.3547274 0.3536288 0.3480437 0.3463041 0.3452054 0.3411463 0.3388574 0.3369346 0.3361106 0.3347678 0.3314106 0.3325703 0.3307087 0.3262528 0.3230178 0.3225294 0.3218885
0.2472075 0.2546237 0.2592321 0.261338 0.2638406 0.262162 0.2634743 0.262101 0.262986 0.2587438 0.2584081 0.2595984 0.2574925 0.2567601 0.256699 0.2544711 0.2513581 0.2492828 0.2460477 0.246536 0.2482146 0.2459867 0.2452848 0.2479399 0.2464445 0.2468107 0.2480315 0.2491912 0.2472075 0.2483367 0.2490692 0.2498932 0.2517244 0.2523042 0.2505646 0.2497711 0.2521821 0.2528841 0.2493438 0.2548373 0.2573704 0.2533724 0.2531587 0.2499847 0.2503815 0.2529146 0.2576756 0.2627724 0.2657328 0.2662211 0.2658854 0.2657633 0.2683575 0.2667094 0.2658854 0.2675945 0.2700055 0.2691204 0.266862 0.2697308 0.2667094 0.2689068 0.2712263 0.2738204 0.2743087 0.2726302 0.2695477 0.2715925 0.2752854 0.2766893 0.2791308 0.2783068 0.2820607 0.2816029 0.2790698 0.2802295 0.2804126 0.2762315 0.2728438 0.2729354 0.2686321 0.269212 0.2653055 0.2637795 0.26146 0.2598425 0.2600562 0.2577977 0.2575841 0.2560886 0.2555393 0.2564243 0.2599036 0.2633828 0.266038 0.2679912 0.2721113 0.2757126 0.2789477 0.2780016 0.2773607 0.2797107 0.2792224 0.2805957 0.2800159 0.2765977 0.276323 0.2792529 0.2772386 0.2781847 0.2784899 0.2727217 0.2719282 0.2690594 0.2629555 0.2607581 0.2584691 0.2571263 0.2579808 0.2568821 0.2583471 0.2604834 0.2635049 0.2680828 0.2711347 0.2736068 0.2740951 0.2787646 0.2827321 0.2811146 0.2852652 0.2843801 0.2875237 0.2885613 0.2923763 0.2917659 0.2949399 0.2963133 0.3004028 0.305347 0.3065068 0.3117256 0.3138925 0.317921 0.3217359 0.3190807 0.321095 0.3267411 0.3289385 0.3307087 0.3333944 0.3408716 0.3446255 0.3456937 0.3507599 0.3546664 0.3535067 0.358756 0.3612586 0.3605567 0.3616554 0.360343 0.3567418 0.358695 0.3580846 0.3608619 0.3647073 0.3676372 0.3718489 0.3732527 0.3751144 0.3749008 0.3758774 0.3756028 0.3787158 0.3745956 0.375145 0.3749619 0.375267 0.3794787 0.381493 0.3803638 0.3819508 0.3818898 0.3852774 0.381493 0.3787768 0.3802417 0.3828053 0.3805164 0.3835683 0.3834768 0.3867118 0.386193 0.3860709 0.3893975 0.3890313 0.3925105 0.3918391 0.3973936 0.4009339 0.4006898 0.4009339 0.3968138 0.3976683 0.3977904 0.401117 0.4024599 0.4039858 0.4058475 0.4027345 0.4078618 0.4104865 0.4070073 0.4071293 0.4088384 0.4082891 0.411341 0.4102423 0.4111274 0.4111884 0.4100592 0.4106696 0.4107306 0.4070378 0.4068547 0.4040163 0.4025819 0.4024904 0.4002625 0.400354 0.3998962 0.3956845 0.3897027 0.3852774 0.38543 0.3824391 0.3832021 0.3800891 0.3772203 0.3774034 0.3746872 0.3733138 0.3727644 0.3674846 0.365043 0.3644326 0.3667216 0.36428 0.365867 0.3651651 0.3632119 0.3615333 0.3601294 0.3623878 0.3646158 0.3646158 0.3634255 0.3631814 0.3590917 0.3593664 0.3591222 0.3565891 0.3592749 0.3611976 0.3617164 0.3604041 0.3584508 0.3599158 0.3608008 0.3624489 0.3589697 0.3582067 0.3612586 0.3624184 0.3616859 0.363395 0.3597632 0.3575047 0.3544223 0.3525301 0.3523775 0.351645 0.3496917 0.3481658 0.3483489 0.3475859 0.3443508 0.3396204 0.3377281 0.3374229 0.33431 0.3335164 0.3301898 0.3275652 0.3278093 0.3232924 0.3203626 0.3191723 0.3180126 0.3163035
0.2485503 0.2524568 0.2586523 0.2642068 0.2639627 0.2639016 0.2647867 0.2639932 0.2621925 0.2592627 0.2570958 0.2579198 0.2570652 0.2576756 0.2556919 0.2516328 0.2498932 0.2473295 0.2479094 0.2447964 0.2443692 0.2452848 0.2462919 0.2470854 0.248001 0.2476958 0.248123 0.2471769 0.2491302 0.2488555 0.2501984 0.2507783 0.2502899 0.253586 0.2563938 0.2559055 0.2563938 0.2568211 0.258164 0.2576451 0.2600562 0.2567906 0.2565464 0.2533724 0.2511445 0.256699 0.261399 0.2646341 0.2658854 0.2681133 0.2700665 0.2713789 0.2699445 0.2698224 0.2719282 0.2744918 0.2759873 0.2725691 0.2724165 0.2742172 0.2716535 0.2736983 0.273149 0.2761399 0.2756211 0.2757126 0.2744003 0.2720503 0.2768418 0.2765366 0.2782763 0.2787646 0.2826711 0.2816334 0.2812977 0.2803821 0.2787035 0.2769639 0.2751938 0.2725081 0.2722945 0.27086 0.2683575 0.2634743 0.2612769 0.2612769 0.2596899 0.2591711 0.2575841 0.2595679 0.2599646 0.2574925 0.2600562 0.2628029 0.2652139 0.2680828 0.2717756 0.2718977 0.2733932 0.2749802 0.2790392 0.2802905 0.279375 0.280138 0.2763841 0.2766893 0.2756211 0.2749802 0.2747665 0.2742172 0.2752854 0.2734542 0.2701581 0.2670756 0.2615821 0.2581945 0.2590185 0.2599951 0.2628639 0.2626198 0.2640542 0.2666484 0.2693036 0.2689373 0.272386 0.2731185 0.2774217 0.2792834 0.2827016 0.2836782 0.2871574 0.2867301 0.2890191 0.2924068 0.2909724 0.2931392 0.2973814 0.2987243 0.302173 0.3084295 0.3129463 0.3150217 0.3180126 0.320271 0.3205457 0.3209424 0.3206067 0.3231704 0.3230178 0.3265275 0.3326314 0.3357444 0.3382775 0.344534 0.3504853 0.3534456 0.3528353 0.3569859 0.3589391 0.3566807 0.3583288 0.3565281 0.3578099 0.3561008 0.3597632 0.3602515 0.3643716 0.3660502 0.3663859 0.3708417 0.3693768 0.3712995 0.3745041 0.3765183 0.3757248 0.3748093 0.3731307 0.3720015 0.3758469 0.3794177 0.3808216 0.3820729 0.3819508 0.3824391 0.3850027 0.382195 0.3828359 0.3806079 0.3818898 0.3820118 0.383019 0.383904 0.3815846 0.3810657 0.3807911 0.3831716 0.3863456 0.3896417 0.3912287 0.3951657 0.39718 0.3958677 0.3969053 0.3935177 0.3943417 0.395532 0.3989806 0.4011781 0.4012086 0.401056 0.4019105 0.4018495 0.4044131 0.4053592 0.4042605 0.4072209 0.4085943 0.4103339 0.4101202 0.4071904 0.4065495 0.4066105 0.4054202 0.4064274 0.4019715 0.4036501 0.4033754 0.4051761 0.4039248 0.4024904 0.398767 0.3966001 0.3920833 0.3922053 0.3892449 0.3868339 0.3835989 0.3829579 0.3806385 0.3790514 0.3786852 0.3755722 0.3748398 0.372856 0.3672709 0.3656534 0.3629677 0.3651041 0.3618995 0.3632729 0.361869 0.3616859 0.3607703 0.3612586 0.3609229 0.3616859 0.3624489 0.3597327 0.3583593 0.355643 0.3561313 0.3562229 0.3536593 0.3526827 0.3541476 0.3547885 0.3530184 0.353934 0.3535677 0.3542697 0.355582 0.3546359 0.3565281 0.3557651 0.3558567 0.3591833 0.3579625 0.3576268 0.3506684 0.349356 0.3496002 0.3465483 0.34841 0.346182 0.3442288 0.3457547 0.3428554 0.342306 0.336782 0.3361106 0.3334859 0.3286944 0.3261307 0.3246353 0.3248489 0.3217359 0.3177989 0.3187145 0.3177989 0.3166697 0.3140145
0.248764 0.2512971 0.2585302 0.2626808 0.2679607 0.2637795 0.2648782 0.2623756 0.2577367 0.2563633 0.2565769 0.2603919 0.2592016 0.2538607 0.2505341 0.248001 0.2483367 0.2473906 0.2458951 0.2434231 0.2450711 0.2470854 0.2479705 0.2483062 0.2517549 0.2485198 0.2480925 0.2508698 0.2509003 0.2491912 0.2493133 0.2526704 0.251999 0.2551731 0.2583471 0.2573399 0.259751 0.26146 0.261338 0.2610938 0.2656717 0.2607886 0.2556003 0.255936 0.2517549 0.2578893 0.2606971 0.2639016 0.2684185 0.2688763 0.2712568 0.2742782 0.2728438 0.2743087 0.2789782 0.2776659 0.2829457 0.2807789 0.2772996 0.2792224 0.2782457 0.2798633 0.278673 0.2789477 0.2808094 0.2772081 0.2736068 0.2740646 0.2769029 0.2795581 0.278673 0.2800769 0.2821828 0.2816944 0.2848074 0.2829457 0.2823353 0.277788 0.2765977 0.2742172 0.2763535 0.272447 0.2707379 0.2678386 0.2641763 0.2625588 0.2639627 0.2608497 0.259812 0.2613074 0.262223 0.2600562 0.2577062 0.2588964 0.2616737 0.2661906 0.2673198 0.2682659 0.2720808 0.2741867 0.2788561 0.2781847 0.2797107 0.2760178 0.2742172 0.272386 0.2713484 0.2736983 0.27556 0.2725691 0.2729659 0.2691204 0.2677776 0.2666484 0.2642983 0.260514 0.2545321 0.2610022 0.26616 0.267747 0.268388 0.2707685 0.2704328 0.2704938 0.2693951 0.2751938 0.2764756 0.2777269 0.2804431 0.2835867 0.2854789 0.289721 0.2919185 0.2917353 0.2920405 0.2924983 0.2956724 0.3004334 0.3059879 0.3086431 0.3142587 0.3143808 0.318745 0.3217359 0.3217665 0.3196606 0.3177989 0.3196301 0.3209424 0.3230178 0.3277483 0.3342184 0.3356833 0.3425197 0.3470061 0.3519807 0.3551547 0.3546054 0.3531404 0.3540255 0.3535067 0.3530489 0.3553684 0.3563145 0.3591222 0.3598242 0.3604651 0.359519 0.3632119 0.3629677 0.365806 0.3698041 0.3727644 0.3729171 0.3749619 0.3726119 0.3694378 0.3717268 0.3713911 0.3785021 0.3832326 0.3788683 0.379082 0.3813404 0.3848501 0.3832326 0.3837209 0.3828664 0.3825612 0.3800586 0.3803333 0.3825612 0.3788683 0.3815846 0.379082 0.3805164 0.381493 0.3865287 0.3883904 0.3924495 0.392419 0.3909846 0.391717 0.3902826 0.3908014 0.3911372 0.3950742 0.3974547 0.397119 0.3959592 0.3977293 0.398706 0.4016664 0.4029177 0.4019715 0.4044436 0.4086248 0.4046268 0.4064579 0.4027345 0.3985229 0.4008118 0.4032229 0.4026124 0.3976988 0.3994079 0.4021852 0.4061527 0.408228 0.4011475 0.3981261 0.3958982 0.3902216 0.3910151 0.3900995 0.38543 0.382256 0.3834462 0.3800281 0.3789599 0.3762131 0.3747177 0.3727339 0.3720625 0.3708723 0.3658365 0.3631814 0.364982 0.3618385 0.3643716 0.3617775 0.3630898 0.3605872 0.3591528 0.3601905 0.357932 0.3582677 0.3557651 0.3543307 0.3538729 0.3526521 0.3511262 0.3506379 0.3480437 0.3481963 0.348532 0.350119 0.3479216 0.3495697 0.3506989 0.3499359 0.3493866 0.3507294 0.3522859 0.3536288 0.3556125 0.3573216 0.3532931 0.3457242 0.3429775 0.3442288 0.3448697 0.343069 0.3440762 0.3441983 0.342245 0.3393151 0.3386132 0.3363242 0.3325703 0.328847 0.3238113 0.3225905 0.3202405 0.3197522 0.3182567 0.3151743 0.3158152 0.316395 0.3138009 0.3131295
0.2483367 0.2516633 0.2560886 0.2577977 0.260514 0.2627419 0.2653055 0.2625588 0.2580724 0.2573399 0.2593847 0.2603613 0.2578282 0.254349 0.2512971 0.2473295 0.248825 0.2451016 0.2443081 0.2454984 0.2471464 0.2478484 0.2505341 0.2530977 0.2521821 0.2514192 0.2503205 0.2502899 0.2494964 0.2519075 0.2504731 0.2514497 0.2547458 0.2570958 0.2567601 0.2601172 0.259873 0.2616737 0.2656107 0.2658854 0.2666789 0.2652139 0.2617042 0.2610328 0.2599646 0.2594458 0.2648782 0.2655191 0.270036 0.2714399 0.271562 0.2742477 0.2748886 0.2793444 0.2793444 0.2812977 0.2833425 0.2855399 0.2805652 0.2802295 0.2800464 0.2818165 0.2789172 0.2801074 0.2792529 0.2806263 0.2787646 0.2783983 0.2822743 0.2827626 0.2812061 0.2835256 0.2846548 0.2833425 0.2863029 0.2852957 0.2852652 0.28261 0.2793139 0.2759873 0.2755905 0.2743087 0.270097 0.2663126 0.2667094 0.2647867 0.2620399 0.2619789 0.2618568 0.2647561 0.2623451 0.2607886 0.2588354 0.2602698 0.2630776 0.2642068 0.2671367 0.2674419 0.2713789 0.2722029 0.2740035 0.2767198 0.2770555 0.276201 0.2765061 0.2741561 0.2699445 0.2710126 0.2713789 0.2740341 0.2706159 0.2694867 0.2662211 0.2651529 0.2649087 0.264512 0.2617042 0.2648477 0.2675639 0.2678691 0.268449 0.2706464 0.2720808 0.2718977 0.2756211 0.2782763 0.2815419 0.2816029 0.2824269 0.2841055 0.2841055 0.2886834 0.2894464 0.2900568 0.2934139 0.2932613 0.2952756 0.2970762 0.3020204 0.3078191 0.3107184 0.3146859 0.3184398 0.3194165 0.3181347 0.3208204 0.3196301 0.3200879 0.3206373 0.3236282 0.3265885 0.3323567 0.3340963 0.3404749 0.3439846 0.3493255 0.3493255 0.3508515 0.3544528 0.3532625 0.3497528 0.3510346 0.3534762 0.3557957 0.3541476 0.3553379 0.3545749 0.3553073 0.3583898 0.3590612 0.3628151 0.3649209 0.3657145 0.3693463 0.3691632 0.3707502 0.3710248 0.3706281 0.3719099 0.3732222 0.3754196 0.3785021 0.3798144 0.3801501 0.382195 0.3806079 0.3824696 0.3811573 0.3792956 0.3796008 0.3790209 0.3806385 0.3826833 0.3797534 0.3798755 0.3802722 0.3824391 0.3833242 0.3881463 0.38778 0.387719 0.3892144 0.3908014 0.3894586 0.3916865 0.3900995 0.3895196 0.3897943 0.3927852 0.3910456 0.3931514 0.39248 0.3970884 0.397882 0.398706 0.3998962 0.4030702 0.4007813 0.3982177 0.3975462 0.3984618 0.3980956 0.4012391 0.4011781 0.3998657 0.4014832 0.4016664 0.4017884 0.4043826 0.4009949 0.3966612 0.3939755 0.3920833 0.3912592 0.3882683 0.3863761 0.3834462 0.383782 0.3821339 0.3788378 0.3783495 0.375206 0.3726119 0.3730696 0.3688885 0.3669047 0.3660502 0.3645547 0.3639443 0.363395 0.3634865 0.3612586 0.3585729 0.3582372 0.359519 0.3580236 0.3557346 0.3542697 0.3506684 0.3489593 0.348532 0.3485625 0.3452664 0.3462125 0.3474028 0.3474028 0.3453275 0.3436794 0.3440151 0.3435574 0.3452664 0.3441983 0.3441372 0.3442898 0.3467314 0.3465177 0.3479522 0.3454801 0.3411463 0.3402307 0.3396204 0.3384301 0.3399255 0.3393151 0.3378502 0.3347067 0.332845 0.3305561 0.3271074 0.3238113 0.3228957 0.3183178 0.3152353 0.3167002 0.3165781 0.316395 0.3124886 0.311573 0.3108405 0.3109931 0.3107184
0.2446438 0.2495575 0.2513581 0.2568211 0.2596899 0.2627724 0.2635049 0.2634133 0.2609107 0.2610938 0.2619483 0.2573094 0.2577672 0.2522126 0.2476347 0.2494354 0.2486114 0.248062 0.2434536 0.2474516 0.2492523 0.2499237 0.2523958 0.2537081 0.2532503 0.2510529 0.2501678 0.2497406 0.2489776 0.250351 0.2537997 0.2529146 0.2538607 0.2543185 0.2570042 0.2594152 0.2652445 0.2669841 0.2680828 0.2669841 0.2678691 0.2643289 0.2648477 0.2622841 0.2651224 0.2640847 0.2674114 0.2686321 0.2729354 0.2744308 0.276323 0.2802295 0.2802295 0.2813892 0.2828847 0.2842886 0.2878288 0.2862418 0.2868828 0.2832204 0.2839223 0.2837392 0.280138 0.2804736 0.2812366 0.2808704 0.28261 0.2851431 0.2863639 0.2847464 0.2862418 0.2871879 0.2845633 0.2836782 0.2878899 0.2854789 0.2847769 0.2844107 0.28261 0.2772996 0.273149 0.2717146 0.2701581 0.266862 0.2654581 0.2643594 0.2617958 0.2615821 0.2649698 0.265336 0.2643289 0.2604224 0.2599341 0.2604224 0.2620399 0.2635659 0.2643594 0.2667094 0.2686931 0.268449 0.2710126 0.2710432 0.2721724 0.2756821 0.2757432 0.2718367 0.2696087 0.2692425 0.2711347 0.272325 0.2727217 0.2696087 0.2667399 0.2687237 0.2675334 0.2664958 0.2646341 0.2702496 0.2720503 0.2735457 0.2713484 0.2736678 0.2712263 0.2737289 0.2776354 0.2815419 0.2831594 0.2819996 0.2823353 0.2838918 0.2845022 0.2879204 0.2927119 0.2905451 0.2910944 0.2916438 0.2941769 0.2966184 0.2992431 0.3036074 0.3052249 0.3102606 0.3141366 0.3153879 0.3152964 0.3194165 0.3207593 0.3227126 0.3238113 0.3248489 0.3285113 0.3294269 0.3311664 0.3378197 0.3413905 0.3441983 0.3475859 0.3514314 0.3533236 0.3523775 0.3469755 0.3491424 0.3489593 0.3526827 0.3532015 0.3522554 0.3494171 0.3532015 0.3517976 0.3570164 0.3584813 0.3609534 0.3623573 0.3639748 0.3643411 0.3672404 0.3669352 0.3674235 0.3685223 0.3724287 0.3737105 0.3761521 0.3809742 0.3800891 0.3803943 0.3804859 0.3811878 0.3778002 0.3756943 0.3771898 0.379967 0.3808216 0.3853995 0.3846365 0.3810352 0.3826528 0.385369 0.3833242 0.3858573 0.3867424 0.38778 0.3888177 0.3890618 0.3878716 0.3890924 0.3875054 0.3878716 0.3841482 0.3856437 0.3846976 0.3851859 0.3902216 0.3929073 0.3939755 0.3953488 0.3977904 0.3984618 0.3958066 0.3958066 0.3959287 0.3952573 0.3990417 0.4003235 0.4021852 0.4023378 0.400232 0.3996215 0.4025209 0.4021547 0.4006287 0.3958982 0.3959287 0.3935482 0.3927242 0.3911372 0.3862846 0.3861015 0.3840872 0.3833242 0.381432 0.376793 0.3750839 0.3729171 0.3741989 0.3725203 0.367393 0.3677898 0.3677593 0.3633034 0.3646158 0.3630593 0.3627541 0.3603125 0.3572301 0.3575658 0.357108 0.3539034 0.3535982 0.3475554 0.346121 0.3467924 0.3427944 0.3418788 0.3431911 0.3439236 0.3420008 0.3415736 0.3377587 0.3366905 0.3381859 0.3392541 0.3400171 0.3391626 0.338247 0.340597 0.3393151 0.3380638 0.3388879 0.3387658 0.3356833 0.3329976 0.3317463 0.3326619 0.333547 0.3318074 0.326558 0.3230788 0.3220106 0.3224684 0.3165476 0.3141976 0.3145028 0.3108405 0.3093756 0.3122444 0.311695 0.3129158 0.310047 0.3074529 0.3101691 0.311634
0.2421107 0.246414 0.2505341 0.2564854 0.2559971 0.2588049 0.262162 0.2626503 0.2623146 0.260575 0.2573704 0.2567601 0.2539523 0.2534945 0.2480315 0.2463834 0.2478179 0.2482451 0.2469633 0.2493438 0.2489166 0.2491607 0.2526704 0.2527925 0.2540133 0.2526399 0.2489776 0.249649 0.2504425 0.2491607 0.2508393 0.251938 0.2527925 0.2565769 0.2604834 0.2625893 0.2664958 0.2694256 0.2698224 0.2682354 0.2688763 0.2664042 0.2664652 0.2639932 0.2671977 0.2680828 0.2688458 0.2685711 0.2728133 0.2740646 0.2788256 0.2824574 0.2849295 0.2854178 0.2888665 0.2894159 0.2879204 0.2892022 0.2894159 0.2867912 0.2860587 0.2831899 0.284075 0.2806263 0.2805957 0.2817555 0.2828237 0.2858756 0.2856314 0.2849295 0.2869438 0.2874626 0.2858146 0.284197 0.285662 0.2861503 0.2861808 0.2856009 0.2812366 0.2796191 0.2767503 0.2735763 0.2690899 0.2682964 0.2654276 0.2639932 0.2648782 0.2625588 0.2624061 0.2620094 0.2617652 0.2627113 0.2616737 0.2635659 0.2637795 0.2625282 0.2629555 0.2631997 0.2617652 0.2641458 0.2646341 0.2690899 0.2703412 0.2736068 0.2737899 0.2705243 0.2706464 0.270097 0.2701581 0.2721113 0.2717756 0.2736373 0.2717756 0.2713178 0.2704938 0.2694561 0.2707074 0.2730879 0.2759263 0.2760789 0.2751327 0.274675 0.2776354 0.279436 0.2791613 0.2821522 0.2845633 0.2844107 0.2835867 0.2855399 0.2844717 0.2877983 0.2922541 0.2910639 0.2909724 0.2944821 0.2932918 0.2957334 0.2986022 0.3020509 0.3032717 0.3062626 0.3079717 0.3121834 0.315571 0.3187756 0.3211256 0.3240249 0.3252457 0.3254898 0.326497 0.3293048 0.3320515 0.3325398 0.3386437 0.3424586 0.3457853 0.3463041 0.3490508 0.3488372 0.3459684 0.3447171 0.3457547 0.3473112 0.3459378 0.3474638 0.3471586 0.3486846 0.3496612 0.3543612 0.3588781 0.3610755 0.3628456 0.3632424 0.3629677 0.3639748 0.3650125 0.3664469 0.3694378 0.3706891 0.3706586 0.3747177 0.3749619 0.3740157 0.3771592 0.3764573 0.3757859 0.3745651 0.3755417 0.3786852 0.3829885 0.383782 0.384606 0.3849417 0.3810962 0.3819813 0.3837515 0.386254 0.387841 0.3882073 0.3896722 0.3872307 0.3874748 0.3872001 0.3848196 0.3825612 0.3803028 0.3811268 0.3825307 0.3819813 0.3841482 0.3872307 0.3875054 0.3891534 0.3936397 0.3951962 0.3955625 0.3949216 0.3952267 0.3924495 0.3935787 0.3967527 0.3982482 0.3994079 0.4006592 0.4003235 0.3988586 0.3991638 0.3990417 0.398706 0.3978209 0.3954099 0.3947079 0.39013 0.3893975 0.3871696 0.3833547 0.383782 0.3836294 0.3798755 0.3781664 0.3740463 0.3754807 0.375267 0.373558 0.369682 0.3676982 0.3681865 0.3653482 0.3651346 0.361869 0.3606788 0.3576573 0.3579015 0.3574132 0.3571995 0.3538729 0.3512788 0.3480742 0.3438625 0.3416041 0.3402613 0.340597 0.3392236 0.3365074 0.3363548 0.3371788 0.3362327 0.33431 0.335134 0.3331502 0.3348593 0.3372398 0.3347678 0.3335775 0.3354087 0.3347067 0.3336385 0.3329671 0.3324788 0.3288164 0.3270158 0.3250321 0.3258561 0.3242996 0.3195385 0.3178905 0.3172801 0.3164561 0.3125801 0.3103217 0.3070561 0.307758 0.3044925 0.3057132 0.3082158 0.3074834 0.3087652 0.3068119 0.3099554 0.3112983
0.244064 0.2459257 0.251877 0.2526704 0.2565769 0.2594458 0.2628639 0.2612769 0.2648477 0.2575535 0.2549594 0.2549594 0.2518159 0.2524568 0.2496796 0.2471769 0.2460172 0.2484588 0.2507783 0.2477568 0.2481536 0.248825 0.2506256 0.2530062 0.2532503 0.2520601 0.2502594 0.251877 0.2487029 0.2498932 0.2520906 0.2507172 0.2529756 0.2580724 0.2609412 0.2658854 0.2689068 0.2720198 0.2726302 0.2731185 0.2715925 0.2710737 0.267686 0.2676555 0.2657022 0.2666789 0.26851 0.2689068 0.2688152 0.276201 0.2795886 0.28496 0.2867912 0.2894464 0.2902704 0.2887444 0.2893243 0.2885003 0.2911249 0.2862418 0.2844412 0.2849905 0.2855704 0.2845328 0.2822438 0.2813587 0.2837087 0.2867301 0.2862113 0.2866386 0.288073 0.2872185 0.2845938 0.2847464 0.284075 0.2843496 0.2893548 0.2842276 0.2800159 0.2798022 0.2768418 0.2728133 0.2693036 0.2689068 0.2658548 0.2647561 0.2652445 0.263688 0.2626808 0.261399 0.2622536 0.2638711 0.2649393 0.2648477 0.2620704 0.259751 0.2571263 0.2603919 0.258164 0.2601782 0.2611854 0.2669536 0.2689068 0.2706464 0.271562 0.2716535 0.2688763 0.2685711 0.2700055 0.2719282 0.2761704 0.2744308 0.2730879 0.2727217 0.2719587 0.2743087 0.2755905 0.2759873 0.279375 0.2772081 0.2774522 0.2788561 0.2792224 0.2817555 0.283373 0.2810841 0.2829457 0.2838613 0.2860282 0.2833425 0.2829457 0.2885003 0.2924373 0.2909113 0.2914912 0.2924068 0.2949704 0.2962522 0.2988769 0.3002808 0.3036074 0.303699 0.3065373 0.3088567 0.3106879 0.3173411 0.3225905 0.3225905 0.3253067 0.3283892 0.3293963 0.3282976 0.3297015 0.3338522 0.3351645 0.3415736 0.3434353 0.3448697 0.3456632 0.3446255 0.3459073 0.3430996 0.3437099 0.3429469 0.3425502 0.3441677 0.3416651 0.3443508 0.3482879 0.3533541 0.3570774 0.3575352 0.3614722 0.3608008 0.3600989 0.3624794 0.3658365 0.3660807 0.3644632 0.3654703 0.3691021 0.3687054 0.3683086 0.370506 0.371971 0.3727339 0.3730086 0.3741073 0.3742904 0.3796313 0.3833242 0.3861015 0.3883599 0.3850638 0.3833547 0.3847281 0.3851248 0.3875664 0.3895807 0.3902216 0.3897333 0.3861625 0.38073 0.3826528 0.3835683 0.3804859 0.3762437 0.37838 0.3749619 0.3785631 0.3832631 0.3811573 0.3803333 0.3852469 0.3899469 0.3902216 0.3919307 0.3935787 0.3936703 0.3923274 0.3908319 0.3937008 0.3978209 0.3962339 0.3996215 0.3980345 0.396295 0.3969053 0.3993469 0.3966306 0.3944027 0.3927242 0.3945858 0.3880547 0.3836294 0.3847891 0.3829579 0.3813099 0.3838125 0.3828969 0.3802722 0.3792346 0.3738326 0.3741683 0.3742599 0.3737105 0.37133 0.3704145 0.3680645 0.3646158 0.3611671 0.3605872 0.3558567 0.3579625 0.3592138 0.3569249 0.355521 0.3495086 0.3449917 0.3392846 0.3377281 0.337606 0.3334859 0.3315632 0.3309528 0.331258 0.3309833 0.3295184 0.3299152 0.3286944 0.3292437 0.3323262 0.3376366 0.3311359 0.3293963 0.330495 0.3293963 0.3291827 0.3300067 0.3282061 0.3232009 0.3191113 0.3181041 0.3159983 0.3157541 0.3140756 0.3090399 0.3081548 0.3075444 0.3051334 0.3006775 0.3023866 0.3015321 0.3006775 0.2987853 0.3021425 0.3047976 0.3063236 0.3041568 0.3058048 0.3090399
0.2458646 0.248123 0.2494354 0.2525178 0.2550204 0.2569126 0.2578282 0.2588049 0.2588049 0.2568821 0.2546542 0.2539217 0.251938 0.2512055 0.2490997 0.2489471 0.2474822 0.249588 0.2512055 0.2492523 0.2500763 0.2530062 0.2555393 0.2537997 0.2560886 0.2550204 0.2533114 0.2518464 0.2516328 0.2527925 0.2516328 0.2525789 0.2569432 0.2591711 0.2626808 0.2639016 0.2661906 0.2699139 0.2714704 0.2733321 0.2717146 0.2726912 0.2705243 0.2718062 0.2726912 0.2716535 0.2736373 0.2730574 0.2743087 0.2782152 0.2823353 0.2845938 0.2893243 0.290423 0.290423 0.291949 0.2924068 0.291247 0.290423 0.2897821 0.2876152 0.2867607 0.2858451 0.2840139 0.2840139 0.281023 0.2834035 0.2867607 0.285662 0.2866691 0.2881646 0.2868217 0.28496 0.2839529 0.2872185 0.2856009 0.2885003 0.2860282 0.282549 0.2810535 0.2773912 0.2758652 0.2733626 0.2748886 0.2708295 0.2698834 0.2686016 0.2699445 0.2679607 0.265275 0.262162 0.2620399 0.2641458 0.262925 0.2594458 0.2602088 0.2576146 0.2564243 0.2588659 0.259751 0.2631081 0.2647867 0.2676555 0.2667704 0.2707685 0.2715925 0.2697613 0.2722639 0.272386 0.2739425 0.2769334 0.2758652 0.2737594 0.2723555 0.2745529 0.2742477 0.2764146 0.279436 0.280199 0.2808704 0.2798633 0.281023 0.2808094 0.2805957 0.2838918 0.2807789 0.2820607 0.2839834 0.2832509 0.2838308 0.2860282 0.2870353 0.2870048 0.2874626 0.290362 0.2903925 0.2948788 0.2980223 0.2975035 0.2983275 0.3020509 0.3033938 0.3048892 0.3074223 0.3107184 0.3172801 0.321797 0.3216444 0.3251846 0.3266496 0.3283587 0.3307087 0.3322957 0.3329061 0.3354392 0.3381554 0.3410242 0.3421229 0.3438015 0.3423976 0.3442593 0.343008 0.3415125 0.3410547 0.3386742 0.339834 0.3409632 0.3417262 0.3478911 0.3499664 0.3498749 0.3534456 0.3566502 0.3545138 0.3556736 0.3577489 0.3608314 0.3648294 0.3645547 0.3633645 0.3643106 0.3659586 0.3663554 0.3696209 0.3702008 0.3708723 0.3742294 0.3744735 0.3760911 0.3787768 0.3828969 0.3851859 0.3868339 0.3859488 0.3839956 0.3850943 0.3831411 0.3851248 0.3850638 0.386956 0.384545 0.3811573 0.3803333 0.377617 0.3767014 0.3760911 0.3753281 0.3766709 0.3775255 0.3801501 0.381554 0.3811878 0.3797839 0.3810352 0.3834462 0.3888787 0.3919612 0.3919917 0.3931209 0.3917781 0.3900079 0.391656 0.3950742 0.3951047 0.3963255 0.3934566 0.3958066 0.3955014 0.3973326 0.395654 0.3937618 0.393243 0.388604 0.3847891 0.3832326 0.3813709 0.3792041 0.381432 0.3820118 0.3810962 0.3828969 0.3813404 0.3775255 0.377556 0.3783495 0.3736495 0.3724287 0.3705976 0.3701093 0.3676677 0.363517 0.3591222 0.3572606 0.3582982 0.3552768 0.3536898 0.3537813 0.3477385 0.3428554 0.3376671 0.3340353 0.3312275 0.3292132 0.3300372 0.3297931 0.3283892 0.3277788 0.3264359 0.3258561 0.3226821 0.3236587 0.326497 0.3266496 0.3271989 0.3258866 0.3242691 0.3232314 0.3222243 0.3222853 0.3203321 0.3178295 0.3156931 0.3130379 0.3107795 0.3107489 0.307636 0.3067814 0.3056522 0.3020814 0.3002503 0.2977477 0.2964048 0.2952451 0.2960691 0.296649 0.2992431 0.3025392 0.303821 0.3024171 0.30376 0.3070256
0.2451932 0.2482451 0.2494964 0.2537997 0.2568211 0.2573094 0.2555393 0.2558445 0.2580113 0.2521211 0.2498016 0.2492218 0.2514802 0.2493133 0.2497406 0.2493133 0.2469328 0.2509003 0.2515107 0.2510224 0.2503815 0.2554172 0.2574315 0.2586523 0.259049 0.2557529 0.253586 0.2552646 0.2586828 0.2545932 0.2561802 0.2551425 0.2566685 0.2604224 0.2630776 0.2657328 0.2668315 0.2677165 0.2719587 0.2751938 0.2735763 0.2727828 0.2731795 0.2744003 0.2738509 0.2729964 0.275438 0.2764146 0.2747971 0.2795275 0.2833425 0.2892938 0.2918269 0.2925594 0.2938107 0.2914301 0.2923152 0.2915827 0.2886834 0.2912775 0.2887444 0.2886834 0.2852042 0.2846243 0.2827016 0.2837698 0.2829763 0.2852957 0.2863639 0.2851431 0.2870353 0.2874626 0.2855094 0.2854789 0.2879815 0.2877678 0.2859672 0.2839834 0.2840444 0.2826711 0.2782457 0.2803821 0.2795581 0.2786425 0.2793444 0.2765672 0.2729354 0.2725691 0.2729354 0.2688458 0.2667094 0.2624061 0.2590795 0.2624977 0.2603613 0.2576146 0.2548679 0.2562107 0.2597204 0.2596899 0.264512 0.2654276 0.2657938 0.2649393 0.2669841 0.2691204 0.2721724 0.2725081 0.2722945 0.2730574 0.2785509 0.2766282 0.2750412 0.2743087 0.2732406 0.2756516 0.2780932 0.2815113 0.2805347 0.2821522 0.2803821 0.2825185 0.281725 0.2792834 0.283312 0.2790087 0.2799243 0.283373 0.2858756 0.2827016 0.2825185 0.2838613 0.2846548 0.2860282 0.2870964 0.2907282 0.2950009 0.297473 0.2960996 0.29671 0.3015931 0.3047976 0.3080327 0.3083074 0.310871 0.3146554 0.3203626 0.3236892 0.3230788 0.3253677 0.3289691 0.3328755 0.3321126 0.3357749 0.3394067 0.3394372 0.3416651 0.3401392 0.339895 0.341421 0.3385216 0.338369 0.3396509 0.3371788 0.3346457 0.338308 0.3372703 0.3398035 0.3448697 0.3456937 0.3460599 0.3496307 0.3509736 0.3521943 0.3528963 0.3563145 0.3593359 0.3584508 0.3621132 0.3628761 0.3628761 0.365043 0.3635476 0.3662333 0.3692547 0.3690411 0.3707807 0.3723982 0.3742904 0.3769761 0.3816456 0.3839651 0.3827443 0.3856437 0.3849112 0.3853995 0.3836904 0.3849417 0.3850027 0.3843618 0.3805469 0.3766099 0.3746872 0.3729171 0.3714826 0.374443 0.3731917 0.3726119 0.3768541 0.3761826 0.3778612 0.3775255 0.3768541 0.3797839 0.3807911 0.3880852 0.3919612 0.3908014 0.3925411 0.3906488 0.3914424 0.3921748 0.3910456 0.3924495 0.391717 0.3934872 0.3911677 0.3915644 0.395593 0.3933346 0.3911677 0.388482 0.3889703 0.3842703 0.3792956 0.3780138 0.3754502 0.377556 0.3804859 0.3830495 0.3845144 0.3828053 0.3808521 0.38073 0.3803028 0.3769761 0.3739852 0.3718489 0.3723372 0.3684917 0.3670268 0.3615638 0.3599463 0.3566807 0.3557041 0.3536898 0.3512177 0.3452969 0.3409021 0.3347678 0.3282061 0.3254898 0.3249405 0.3253983 0.3269243 0.3242691 0.321797 0.3188976 0.317921 0.3181652 0.3187756 0.3196606 0.3178905 0.3200574 0.3177989 0.3197217 0.3200268 0.3181347 0.314045 0.3153269 0.3134652 0.3110236 0.3057438 0.3063541 0.3021425 0.3039126 0.3040652 0.3017152 0.2978087 0.2972288 0.2927425 0.2924983 0.2874016 0.2901483 0.2905146 0.2937496 0.295947 0.2990295 0.3047671 0.3025697 0.3031496
