0.4527254 0.4515657 0.4502838 0.4487579 0.446652 0.4446988 0.4431423 0.4427761 0.4422877 0.4412501 0.4403345 0.4394189 0.437954 0.434017 0.4298053 0.4263261 0.4241592 0.4212599 0.4185131 0.4167124 0.4156443 0.4158884 0.4172923 0.418391 0.4185741 0.4164683 0.4141183 0.4124397 0.412867 0.4156137 0.4205884 0.4255936 0.430141 0.434078 0.4350851 0.4347799 0.4343832 0.4345358 0.4331624 0.4298968 0.424678 0.4202527 0.4176891 0.4158884 0.4141793 0.4129891 0.4128059 0.4123176 0.4110053 0.4085332 0.4048099 0.4005982 0.3964781 0.3942196 0.3940975 0.3988586 0.4070378 0.4158274 0.4249222 0.4298968 0.4303851 0.4281267 0.4248611 0.4215955 0.4194592 0.417628 0.4189709 0.4205579 0.4227553 0.4244339 0.4279436 0.4331319 0.4367942 0.4372826 0.433254 0.4280962 0.4239761 0.4205274 0.4174449 0.4164988 0.4182384 0.4237319 0.4314228 0.4373741 0.4403345 0.4376183 0.4362144 0.4351157 0.4353293 0.435665 0.4359702 0.4346274 0.4323689 0.430141 0.4289507 0.4287066 0.4286761 0.4286456 0.4276689 0.4264481 0.4252884 0.4245865 0.4208631 0.4182079 0.4169261 0.418391 0.4211378 0.4250442 0.4291033 0.4331319 0.4353904 0.4360007 0.4349936 0.433315 0.4315449 0.4297442 0.4279741 0.4263261 0.4254105 0.4250137 0.4255325 0.4253189 0.4244033 0.4232436 0.4212904 0.4197034 0.4189404 0.4182995 0.4170482 0.415217 0.4149728 0.4169261 0.4195813 0.4207105 0.4215955 0.422267 0.4240371 0.4252274 0.4260514 0.4265702 0.4267533 0.4268449 0.4260209 0.4258378 0.4259903 0.4273332 0.4293475 0.431728 0.4342306 0.4352988 0.4363365 0.4361838 0.4355735 0.4345968 0.4338338 0.4331014 0.432552 0.432491 0.4323384 0.4329793 0.434139 0.435604 0.4370384 0.4382286 0.4400903 0.4413416 0.4426234 0.4428676 0.4428981 0.4422572 0.4417689 0.441952 0.4417689 0.4413722 0.4399683 0.4371299 0.4329488 0.4289812 0.4251053 0.4231215 0.4208021 0.4195507 0.4208936 0.4237319 0.4263871 0.4287981 0.4294085 0.4288287 0.4266618 0.4242508 0.4220228 0.4193982 0.4164378 0.4140573 0.4125008 0.4113715 0.4101202 0.4086248 0.4071293 0.4061527 0.4041384 0.4012086 0.3974547 0.3945858 0.3932125 0.3930294 0.3922053 0.3921443 0.3938534 0.3968748 0.3996826 0.3993164 0.3986144 0.3985229 0.3982787 0.3984008 0.3984008 0.3985229 0.3992248 0.4002625 0.4017579 0.4028566 0.403528 0.404169 0.4051456 0.405878 0.4070988 0.4078923 0.4090521 0.409754 0.4110969 0.4141488 0.4172007 0.419917 0.422206 0.4251663 0.4288592 0.4319722 0.4341085 0.4365196 0.4383813 0.4388696 0.4392968 0.4383202 0.4380455 0.4381981 0.4391747 0.4396631 0.4391747 0.4390832 0.439602 0.4381066 0.4343832 0.4282793 0.4216566 0.4162852 0.412104 0.4102423 0.4093267 0.4080144 0.4065495 0.4060612 0.40658 0.4088995 0.4117683 0.4131112 0.4133553 0.4120125 0.4109748 0.4103644 0.4099371 0.4090826 0.4083806 0.4079534 0.4074956 0.4052982 0.4027345 0.3991332 0.3966001 0.3941586 0.3910761 0.3875359 0.3837515 0.3820118 0.3820118 0.3836904 0.3832937 0.3836599 0.3833852 0.3840566 0.383843 0.3833547 0.3825001 0.381554 0.3827138 0.3836599 0.38543 0.3852164 0.3848501 0.384667 0.3866508 0.3891839
0.4501007 0.4493072 0.4489104 0.4477202 0.4460722 0.4438747 0.4415858 0.4403955 0.4395105 0.4385033 0.4375572 0.4370079 0.4362754 0.4328267 0.4295001 0.4263566 0.4242813 0.4213819 0.4181468 0.4153696 0.4137826 0.4133858 0.4150339 0.4167735 0.4174144 0.4161021 0.4142404 0.4132637 0.41363 0.4157969 0.4194897 0.4235183 0.4274858 0.4310871 0.4325215 0.4331014 0.4330098 0.4328877 0.4309345 0.427791 0.423854 0.4206494 0.4186352 0.4169261 0.4158884 0.4162241 0.4171092 0.4163157 0.413752 0.4088689 0.40188 0.3959592 0.3933346 0.3928768 0.3944943 0.3993469 0.407404 0.4163767 0.4257157 0.4306293 0.4303241 0.4271501 0.4227553 0.4182384 0.4157358 0.4150644 0.4186046 0.4212904 0.4235488 0.4240981 0.4266923 0.430904 0.4344442 0.4356345 0.4331319 0.4286761 0.4249527 0.4212904 0.4193371 0.419093 0.4215955 0.4267839 0.4334371 0.4361838 0.4360618 0.4339254 0.4330709 0.4323384 0.4320637 0.4322774 0.4325826 0.4313007 0.4291644 0.4276384 0.4265702 0.4267228 0.4267839 0.4265397 0.4248917 0.4233352 0.4214124 0.4201611 0.4170787 0.4150949 0.4147897 0.4170482 0.4200696 0.4244339 0.4287676 0.4328267 0.4346274 0.4349631 0.4338949 0.4326741 0.4314533 0.4298968 0.4277605 0.4257157 0.424678 0.4245254 0.42538 0.4254105 0.4240371 0.4221754 0.4200696 0.4186657 0.4184826 0.4179332 0.4168651 0.4157053 0.4162241 0.4187878 0.4210157 0.4217787 0.4226637 0.4233657 0.4248611 0.426143 0.4273942 0.4282183 0.4283709 0.4282488 0.4269364 0.4264481 0.4263871 0.4278215 0.4300189 0.43243 0.4337423 0.4335592 0.4335287 0.4331624 0.4321553 0.4301715 0.4283098 0.4276994 0.4284624 0.4304157 0.4310871 0.4321553 0.433254 0.4349936 0.436428 0.4377403 0.4393884 0.4404566 0.4414942 0.4419825 0.4421657 0.4417994 0.4416468 0.4416163 0.4414332 0.4411585 0.4395105 0.4359702 0.4309956 0.4263566 0.4218397 0.419917 0.4182689 0.418391 0.421443 0.4247696 0.4267839 0.4283403 0.4291644 0.4287981 0.4269364 0.4240981 0.421565 0.4188488 0.4159495 0.4138741 0.4125923 0.4116157 0.4101813 0.4080449 0.4063663 0.4053592 0.4027956 0.3992859 0.3959592 0.393243 0.3921138 0.3911066 0.3902521 0.3911982 0.3942501 0.3979735 0.4005982 0.4002625 0.3992553 0.3994079 0.3995605 0.39953 0.3989501 0.3983397 0.3989806 0.4004761 0.4020631 0.4026124 0.4027651 0.4031618 0.4040469 0.405054 0.4070378 0.4080755 0.4091741 0.4105475 0.4128975 0.4164683 0.4194287 0.4214735 0.4237014 0.4265702 0.4300189 0.4327351 0.4350546 0.4367637 0.4381981 0.4384728 0.4392358 0.4390222 0.4391442 0.4407923 0.4429592 0.4436916 0.4429897 0.4425319 0.442715 0.4409754 0.4358481 0.4291033 0.422267 0.4167124 0.4131722 0.4118598 0.4110358 0.4094183 0.4072209 0.406641 0.4069767 0.4085638 0.4101813 0.4108832 0.4112495 0.4103949 0.4101202 0.4100592 0.410456 0.4102728 0.4094183 0.4085027 0.4077397 0.4049319 0.4021852 0.3985534 0.3958982 0.3929988 0.3895501 0.386254 0.3835989 0.3827443 0.3828664 0.3844839 0.3833242 0.3834462 0.3833547 0.383843 0.3834768 0.3829885 0.3828053 0.3826528 0.3837515 0.384667 0.3860404 0.3857657 0.3855826 0.3852774 0.3871696 0.3896722
0.4490325 0.4485442 0.448239 0.4472624 0.4456754 0.443539 0.4412501 0.4391747 0.4376183 0.4366111 0.4363975 0.4362449 0.4356955 0.4329183 0.4306293 0.4280657 0.4251969 0.4214124 0.4180553 0.4162546 0.4156137 0.4155832 0.4172313 0.4187573 0.4190319 0.4174449 0.4151865 0.413752 0.4137215 0.4153696 0.4182384 0.4215955 0.4246475 0.4267839 0.4270585 0.4279436 0.4283403 0.4280962 0.4262955 0.4244949 0.4233046 0.4213819 0.4193982 0.4173839 0.4172618 0.4189709 0.4206189 0.4192456 0.4149728 0.4067326 0.398004 0.3919002 0.3905573 0.3915949 0.3943112 0.3997436 0.4079839 0.4172618 0.4257157 0.429378 0.4282793 0.4250748 0.4216566 0.4182384 0.4163462 0.4160715 0.4192456 0.4221144 0.4241287 0.4245559 0.4260819 0.4286456 0.4322468 0.4349936 0.4339559 0.4299884 0.4262345 0.4223585 0.4207715 0.4209852 0.423793 0.4279741 0.43243 0.4338949 0.4329183 0.4312702 0.4307209 0.4298968 0.4295611 0.4291949 0.4291339 0.4281572 0.4263566 0.4252579 0.4239761 0.4245559 0.4250137 0.4254105 0.4240066 0.4219923 0.4191845 0.4164378 0.414454 0.4138741 0.4146371 0.4173228 0.4205579 0.4252884 0.4291644 0.4327657 0.4339559 0.4344137 0.4339865 0.4328267 0.4316059 0.4301715 0.428554 0.4269059 0.4253189 0.4249527 0.4255631 0.4256546 0.4241897 0.4216566 0.4196423 0.4182689 0.4183605 0.4178722 0.4169871 0.4166514 0.4179637 0.4203137 0.4219618 0.4224806 0.4237624 0.4244033 0.4260819 0.4276079 0.4290423 0.4298053 0.4298663 0.4300189 0.4286456 0.4274858 0.426967 0.4275774 0.429317 0.4310871 0.4313618 0.4306293 0.4297442 0.4291339 0.4283403 0.4264787 0.4242508 0.423854 0.424678 0.4270891 0.4286456 0.4307514 0.4326131 0.4347189 0.4361838 0.4370994 0.4379235 0.4383813 0.4393274 0.4399072 0.4397852 0.4394189 0.4398157 0.4405481 0.4410975 0.4405176 0.4376488 0.433315 0.4281572 0.4238235 0.4204663 0.4186352 0.4180858 0.4189404 0.4221449 0.42538 0.4264481 0.4271196 0.4273332 0.4259598 0.4238235 0.4213209 0.4195507 0.4178112 0.4160105 0.4135079 0.412043 0.4108222 0.4092657 0.4070988 0.4057865 0.4044741 0.4012086 0.3968748 0.3940365 0.39248 0.3913508 0.3900079 0.3890008 0.3900995 0.3937313 0.3977904 0.4007508 0.4012086 0.4007203 0.4007508 0.400354 0.39953 0.3983397 0.3975767 0.3984618 0.4006592 0.4020631 0.4020936 0.4016664 0.4016664 0.4027956 0.4039248 0.4065495 0.4084722 0.4102423 0.4131112 0.416743 0.4200391 0.4224196 0.4243118 0.4266313 0.4291339 0.4314839 0.4336202 0.4358481 0.4376183 0.4395715 0.4404566 0.4413722 0.4419825 0.4430202 0.4454923 0.4475371 0.4469877 0.4453092 0.4435085 0.4421962 0.4390832 0.4334981 0.4271806 0.4212293 0.4166514 0.4144235 0.4137215 0.4133553 0.412104 0.4090826 0.407343 0.4073125 0.4087164 0.4096319 0.4102728 0.4109748 0.410456 0.4099066 0.4101508 0.4107917 0.4106086 0.4094793 0.4080449 0.4071904 0.4047793 0.4019105 0.3983092 0.3952267 0.3921748 0.3891839 0.3867118 0.3851248 0.3843924 0.3834768 0.3832631 0.3826833 0.3836599 0.3835989 0.3836904 0.3829579 0.3828969 0.3833547 0.3842703 0.3852469 0.3857657 0.3864982 0.3863456 0.3867424 0.386956 0.3895501 0.3927852
0.448239 0.4480559 0.4475065 0.4459806 0.44418 0.4422572 0.4406092 0.4385338 0.4367637 0.4359397 0.4362754 0.436367 0.4358176 0.4331624 0.4313007 0.4295917 0.4269059 0.4225416 0.4184826 0.4166514 0.4163767 0.417628 0.4196118 0.420741 0.4204358 0.4188488 0.4164683 0.4150339 0.4149118 0.4162546 0.4181163 0.4201001 0.4218397 0.4222365 0.4214735 0.421565 0.4219618 0.4218702 0.4212599 0.4213209 0.4223585 0.4211378 0.4193982 0.4178417 0.4190624 0.4216871 0.4238235 0.4212904 0.4148813 0.404291 0.3956845 0.3904657 0.3895196 0.3913203 0.3946164 0.4005982 0.4096014 0.4188183 0.4242508 0.4250748 0.4216871 0.4195202 0.4185436 0.4179027 0.417567 0.4182384 0.4203748 0.4226943 0.4244339 0.4250748 0.4256241 0.4267839 0.429439 0.4324605 0.43243 0.4293475 0.4258988 0.4220839 0.4213514 0.4222975 0.4257767 0.4292865 0.4320332 0.4315754 0.4297748 0.4280962 0.42773 0.4271806 0.4268754 0.4263871 0.4259903 0.4252274 0.423793 0.4229994 0.4218092 0.4221449 0.422206 0.4222365 0.4218092 0.42068 0.4178722 0.4146982 0.4135995 0.4141488 0.4154917 0.4186046 0.4217482 0.4263871 0.4295001 0.4323079 0.4332235 0.4338338 0.4334981 0.4322163 0.4305683 0.429378 0.4284319 0.4274858 0.4256852 0.4250748 0.4250137 0.425502 0.4247696 0.4221754 0.4204053 0.4190014 0.419093 0.4185436 0.4178417 0.4184521 0.4203443 0.4220228 0.4225111 0.4225416 0.423854 0.4248611 0.4266008 0.4281878 0.4292254 0.4299273 0.4305988 0.4310566 0.4297442 0.4284624 0.4279436 0.4284624 0.4298663 0.4307514 0.4299884 0.4281572 0.4267839 0.4259293 0.4251358 0.423793 0.4219313 0.421504 0.4221144 0.4240981 0.4261735 0.4291644 0.4315144 0.4339254 0.4354209 0.4363975 0.4365806 0.4367942 0.4375877 0.4382897 0.4383813 0.4383813 0.4392663 0.440365 0.4410975 0.4401208 0.4369163 0.4320027 0.4266313 0.4223891 0.4200696 0.4187573 0.419154 0.4204663 0.4232741 0.4255631 0.4255936 0.4258683 0.4252579 0.4228774 0.4201611 0.418391 0.4173839 0.4167735 0.4167735 0.4148813 0.412928 0.4108527 0.4085027 0.4065495 0.4051456 0.4028566 0.3989196 0.3944943 0.39248 0.3919002 0.3910456 0.3896722 0.3896722 0.3913813 0.3952878 0.3992859 0.4019715 0.4024599 0.4024599 0.4022157 0.4011781 0.39953 0.3981871 0.3973936 0.3982482 0.4012391 0.4024293 0.4027956 0.4023683 0.4020631 0.4030702 0.4039553 0.4063969 0.4088689 0.411341 0.4154306 0.4199475 0.4229079 0.4247696 0.4268144 0.4291033 0.4311176 0.432491 0.4343527 0.4362449 0.4387475 0.4417689 0.4436916 0.4444851 0.4452176 0.4459806 0.4483611 0.4496429 0.4477507 0.4446683 0.4422572 0.4397241 0.4360618 0.430904 0.426204 0.4216261 0.4186352 0.4177806 0.416804 0.4154612 0.4137826 0.4108832 0.4084722 0.4079228 0.4087164 0.4093267 0.4100592 0.4106391 0.4102423 0.4101202 0.4107306 0.4115241 0.4107306 0.4092962 0.4076787 0.4071293 0.4047488 0.4014527 0.3975157 0.3943722 0.3918086 0.3904047 0.3889397 0.3874443 0.3861015 0.3841177 0.3828053 0.3823476 0.3833242 0.3824696 0.3818592 0.3808521 0.3817372 0.3833852 0.3852774 0.3860709 0.3862846 0.3867424 0.3869255 0.3879021 0.3898248 0.3929683 0.3962339
0.4479949 0.4479643 0.4465604 0.4442715 0.4421657 0.4402429 0.439602 0.4381676 0.4369774 0.4361228 0.4371605 0.4373741 0.4366722 0.434017 0.4319722 0.4299579 0.4275469 0.4240981 0.4205274 0.4181774 0.417567 0.4196728 0.4226332 0.4237624 0.4227248 0.4209546 0.41833 0.4163157 0.4160105 0.4175059 0.4189404 0.4201916 0.420741 0.419856 0.4182995 0.4172007 0.4171702 0.4173839 0.4185436 0.4203137 0.4226027 0.4223891 0.4218702 0.4213209 0.4227858 0.4251358 0.4259903 0.4207715 0.4116767 0.4005371 0.3940365 0.3907709 0.39013 0.3920222 0.3957456 0.4022157 0.4109748 0.4187267 0.4191845 0.416041 0.4111884 0.4110969 0.4134774 0.4164378 0.4182384 0.419978 0.4214124 0.4225111 0.4235793 0.4242813 0.4242813 0.424678 0.425441 0.4266008 0.4263871 0.4251053 0.4231826 0.4206189 0.4210767 0.4225722 0.4263566 0.4291339 0.4309956 0.4291644 0.4266008 0.4243118 0.4233657 0.4228774 0.4229079 0.4227858 0.4227553 0.4229079 0.4218702 0.4211988 0.4197034 0.4190624 0.4189709 0.4188183 0.419154 0.4186352 0.4169566 0.4146982 0.4146676 0.4158274 0.4172313 0.4205884 0.4236709 0.4271501 0.4295611 0.431789 0.432552 0.4331014 0.4330098 0.4316059 0.4296527 0.4285235 0.4275469 0.426967 0.4253189 0.4248306 0.4245559 0.4252579 0.4251053 0.4231826 0.4221144 0.42068 0.4201001 0.419215 0.419215 0.4210462 0.4232131 0.4232131 0.4225722 0.422328 0.4233962 0.4244644 0.4261124 0.4276079 0.4282488 0.4296832 0.4313007 0.4321553 0.430965 0.4291644 0.4285235 0.4288897 0.43008 0.4299579 0.4288287 0.4267839 0.4247696 0.4233962 0.4225722 0.4222975 0.4219923 0.4216871 0.4220533 0.4237014 0.4258072 0.428615 0.4310566 0.4331014 0.4343527 0.4351462 0.4350851 0.4349936 0.4358481 0.4371299 0.4379845 0.4389916 0.4401208 0.4411585 0.4412501 0.4389306 0.4352072 0.4300189 0.4248001 0.4209852 0.4192761 0.4186352 0.4197949 0.4221449 0.4245865 0.4255325 0.4240371 0.4226943 0.4208936 0.4175365 0.4146371 0.4132027 0.4135384 0.4144845 0.4161021 0.4157358 0.4146371 0.412043 0.4093267 0.4074345 0.4051456 0.4018495 0.3967222 0.3922664 0.3903436 0.3902521 0.3896417 0.3894281 0.3910151 0.3935177 0.3975462 0.4009034 0.402643 0.4029787 0.4028566 0.4024599 0.4010254 0.3996215 0.3989501 0.3987975 0.3994384 0.4021547 0.4031313 0.4035586 0.4031618 0.4030397 0.4041079 0.4049625 0.4068241 0.4091436 0.4118904 0.4159495 0.4204969 0.4238845 0.4265092 0.429378 0.4314839 0.4329793 0.4338949 0.4352072 0.4368248 0.4394799 0.4428981 0.4454618 0.4469267 0.4485748 0.4495514 0.450589 0.4505585 0.4479338 0.4444241 0.4414332 0.4375572 0.4329488 0.4280046 0.424617 0.4220839 0.4209852 0.4206189 0.419215 0.4174144 0.4153391 0.4128059 0.4099066 0.4090521 0.4092352 0.4096625 0.4106696 0.4112495 0.4106696 0.4108527 0.4112495 0.4116767 0.4107611 0.4099066 0.4085638 0.407465 0.4044131 0.4004761 0.3960508 0.3930599 0.3911372 0.3913203 0.3908625 0.3896112 0.3878105 0.3851248 0.3832326 0.3823476 0.3820729 0.3804859 0.3796924 0.379143 0.380669 0.3826528 0.3847891 0.3857962 0.3864677 0.3873527 0.3879326 0.3893975 0.3922969 0.3958372 0.3991638
0.4472319 0.4469267 0.4449734 0.4427455 0.4409449 0.4393884 0.4392663 0.4386559 0.438076 0.4374962 0.4391442 0.4387475 0.4368858 0.4339254 0.4311481 0.4294085 0.4274858 0.425441 0.4229689 0.4208631 0.4201306 0.4221144 0.4251053 0.426143 0.4247696 0.4228163 0.4200696 0.4172618 0.4163462 0.4178722 0.4196423 0.4211378 0.4204969 0.4189098 0.4169871 0.4153696 0.415217 0.4158579 0.4179027 0.4201611 0.4230605 0.4240371 0.4249832 0.4254715 0.4260819 0.4271196 0.4262955 0.4187573 0.4084111 0.399469 0.3951962 0.3929073 0.3920527 0.3933651 0.3969664 0.4034365 0.4106086 0.4148508 0.4105475 0.4056949 0.4022157 0.403406 0.407404 0.4118904 0.4157969 0.4189404 0.4218092 0.4233962 0.423854 0.4238235 0.4226027 0.4217482 0.4204663 0.4200391 0.4195813 0.4193371 0.4189709 0.4188488 0.4208021 0.4233046 0.4273942 0.4289507 0.4293475 0.4268754 0.423854 0.4212293 0.4197644 0.4193982 0.4194287 0.4197949 0.4200391 0.4206189 0.4200391 0.4191235 0.4175365 0.4163157 0.4158274 0.4155222 0.4163157 0.4164378 0.4161631 0.4155832 0.4164378 0.4179332 0.4193066 0.422328 0.4245254 0.4268144 0.4288592 0.430904 0.4319417 0.4323995 0.4323079 0.4308429 0.4289507 0.4276994 0.4269059 0.4267533 0.425502 0.4251358 0.4249527 0.4255631 0.4258072 0.4250442 0.423915 0.4219007 0.4210462 0.4204969 0.4210157 0.4224806 0.4235793 0.4226943 0.4215955 0.421504 0.422328 0.4237319 0.4255325 0.4268144 0.4276079 0.4291339 0.4311787 0.4325826 0.4321248 0.4307209 0.4300189 0.430202 0.430965 0.4304767 0.4290118 0.427028 0.4255936 0.4238235 0.4226637 0.4226332 0.4232131 0.4233962 0.4239761 0.4255936 0.4273027 0.4291033 0.430202 0.4309956 0.4315449 0.4325826 0.4331929 0.4333761 0.4345663 0.4366111 0.4384423 0.4398462 0.4405786 0.4408533 0.4399988 0.4366416 0.4325215 0.4279436 0.4237319 0.4210462 0.4203748 0.4200696 0.421504 0.4242202 0.4251969 0.4240371 0.4207715 0.4182079 0.4159495 0.4129891 0.4102423 0.4093878 0.411402 0.4138436 0.4165904 0.4167124 0.4156748 0.4128365 0.4093572 0.4061832 0.402704 0.3990112 0.3944943 0.3910761 0.3894281 0.3891839 0.3890008 0.3897333 0.3925716 0.3953794 0.3997131 0.4026735 0.4035586 0.4037722 0.403528 0.4026735 0.4013001 0.4001099 0.4004151 0.4008423 0.4016969 0.4039553 0.4045352 0.4048404 0.4049319 0.4052677 0.4063969 0.4070073 0.408106 0.409754 0.4125313 0.416041 0.4204358 0.423854 0.4267839 0.4300189 0.4323995 0.4339865 0.4349936 0.4357871 0.4370994 0.4396325 0.4430202 0.4459195 0.4477202 0.4490936 0.4496734 0.4499481 0.448941 0.4466215 0.4442105 0.4413722 0.4368248 0.4322774 0.427791 0.4256546 0.4247085 0.424678 0.4237624 0.4217482 0.4193066 0.4167735 0.4143014 0.4111884 0.4102423 0.4103949 0.4111579 0.4120735 0.4117378 0.4110358 0.4116462 0.4123176 0.4125313 0.4119514 0.4111884 0.409693 0.4078923 0.4045657 0.4010865 0.396356 0.393243 0.3914424 0.3923885 0.3922053 0.3904352 0.3880242 0.3852469 0.3829579 0.3812183 0.3801196 0.3784411 0.3780443 0.378258 0.379845 0.3818287 0.3834768 0.3849417 0.386254 0.3875969 0.3890313 0.3908319 0.3933956 0.3967833 0.4005371
0.445065 0.4442715 0.4421351 0.4406702 0.4396631 0.4385644 0.4390527 0.4389916 0.4395105 0.4395105 0.4413722 0.4405176 0.4384728 0.4342611 0.4306293 0.4289507 0.4277605 0.4270891 0.4260819 0.4245254 0.423854 0.4252884 0.4274553 0.4283403 0.4267228 0.4241287 0.4210157 0.4173839 0.4157358 0.4172313 0.4189709 0.4211378 0.4210767 0.4196118 0.4181163 0.4165293 0.4169261 0.4179943 0.4202527 0.4223891 0.4251358 0.4267839 0.4281267 0.4285845 0.4278215 0.4269975 0.4241287 0.4150034 0.404993 0.3985534 0.3956845 0.3939449 0.3931209 0.3943417 0.3975767 0.4031923 0.4076787 0.4078618 0.4012696 0.3967527 0.3958677 0.3980345 0.4025209 0.4080449 0.4133248 0.4175059 0.4211072 0.4232741 0.4233962 0.4224196 0.4207105 0.4194592 0.4173534 0.4157358 0.4148508 0.4147287 0.4156748 0.4177501 0.4205274 0.4229384 0.4261735 0.4280657 0.4283098 0.4257767 0.4225722 0.4197339 0.4180248 0.417628 0.4173228 0.4178722 0.4184826 0.4194897 0.4194592 0.418391 0.4169261 0.4154001 0.414454 0.4134774 0.4135995 0.4133858 0.4139657 0.4149118 0.4164073 0.4184826 0.4198254 0.4223891 0.4236099 0.425441 0.4275469 0.430202 0.4315754 0.4319417 0.4313312 0.4302326 0.4289812 0.4279131 0.4272417 0.4269364 0.426204 0.426143 0.4259598 0.4260819 0.4259293 0.425502 0.4245254 0.4226943 0.4219313 0.4219923 0.4229079 0.4235183 0.4234572 0.4221754 0.4210767 0.4212904 0.4222365 0.4239455 0.425502 0.4266923 0.4276689 0.4295611 0.4318196 0.4335592 0.4335592 0.4327657 0.4323995 0.432491 0.4326436 0.4312397 0.4295611 0.4280657 0.4269975 0.4253189 0.4243118 0.424617 0.4253189 0.4259598 0.4267839 0.428554 0.4295917 0.4301105 0.4299579 0.4294085 0.4290118 0.4300494 0.4312092 0.4323689 0.4337423 0.435726 0.4377708 0.4396936 0.4409449 0.4399683 0.4375572 0.4338949 0.4299884 0.4264787 0.4231215 0.4212904 0.4209241 0.4210462 0.4219618 0.4246475 0.423915 0.4210767 0.4173534 0.4141183 0.4116157 0.4091436 0.407465 0.4078618 0.4110053 0.4143625 0.4170176 0.4166209 0.4150034 0.4119819 0.4085332 0.4046573 0.4009644 0.3975462 0.3940365 0.3919612 0.3904963 0.3895501 0.3893975 0.3905268 0.3938228 0.3968748 0.4012391 0.4039553 0.4040163 0.4041079 0.4034975 0.4024599 0.4013001 0.4004456 0.4012391 0.4022462 0.4037417 0.4054508 0.4060917 0.4061222 0.4065495 0.4072209 0.4085027 0.408991 0.4098456 0.4114936 0.4146066 0.4176891 0.4208021 0.423793 0.4266008 0.4297137 0.4321553 0.434017 0.4355124 0.4362144 0.4374046 0.4393579 0.4424708 0.445828 0.4480254 0.4491241 0.4490936 0.4491241 0.4483001 0.4463773 0.4445156 0.4422877 0.4381981 0.4340475 0.4302936 0.4287981 0.4281267 0.4281267 0.4265702 0.423915 0.4208326 0.4178417 0.4155832 0.4123787 0.4114326 0.4115852 0.4119514 0.4125923 0.4119819 0.4118293 0.4126534 0.4141793 0.4138741 0.4124397 0.4110969 0.4094183 0.4075871 0.4045962 0.4016969 0.3979125 0.3947995 0.3926021 0.3930294 0.3927242 0.3907709 0.3881463 0.3857047 0.3831106 0.380669 0.3788683 0.3780443 0.3776781 0.3782274 0.3797839 0.3817067 0.3830495 0.3852469 0.3870781 0.388543 0.3900079 0.3919612 0.3945248 0.3973631 0.4007203
0.4421657 0.4411891 0.4395105 0.4390527 0.4387169 0.4381066 0.4389916 0.439602 0.4409449 0.4415858 0.4430812 0.4417689 0.4397852 0.4356955 0.4320332 0.4300494 0.4282793 0.4278826 0.427791 0.4271196 0.427028 0.4286456 0.4296832 0.4298663 0.4273027 0.4237319 0.4198254 0.416041 0.4141488 0.4148813 0.4164988 0.4190014 0.4198254 0.4187573 0.4176891 0.4173228 0.4196423 0.4216566 0.4244644 0.426265 0.4278826 0.4280962 0.42773 0.4270585 0.4254715 0.4231826 0.4186657 0.4101508 0.4020326 0.3975462 0.395532 0.394769 0.39483 0.3963865 0.399469 0.4031313 0.4036807 0.401056 0.3965696 0.3943722 0.3956235 0.3980651 0.4013917 0.4067021 0.4116767 0.4154917 0.4188183 0.4210462 0.4211683 0.4195507 0.4180858 0.417567 0.416041 0.414393 0.4133248 0.4135079 0.4149423 0.4175975 0.4204663 0.4231215 0.4257767 0.4276384 0.4277605 0.4252579 0.4220533 0.419093 0.4173839 0.4170482 0.4166819 0.4174754 0.4179637 0.4188183 0.4186046 0.4175365 0.4163157 0.4148813 0.4134774 0.4123787 0.4119819 0.4114326 0.4123787 0.4137826 0.4150949 0.4169261 0.4184215 0.4205274 0.4214124 0.4232741 0.4257157 0.4289202 0.4308735 0.4314228 0.4305378 0.4299273 0.4294696 0.4287981 0.4283403 0.4279436 0.427791 0.4281878 0.4279741 0.4272722 0.4263261 0.4250442 0.4243118 0.4233046 0.4227553 0.4224806 0.4231521 0.4231215 0.4226943 0.421565 0.4205274 0.4210767 0.4227858 0.4249527 0.4260514 0.4267839 0.4276994 0.4294696 0.4317585 0.434017 0.4351157 0.4351157 0.4350851 0.434902 0.4345663 0.4325826 0.4308124 0.4293475 0.4284014 0.4270891 0.4267839 0.4268144 0.4273637 0.4288287 0.4299273 0.4310566 0.4309956 0.4305683 0.4303546 0.4292559 0.4281878 0.4289812 0.4300494 0.4320942 0.4337728 0.4353598 0.4368553 0.4383507 0.4395105 0.4374046 0.4345968 0.4313007 0.4282183 0.4255936 0.4227553 0.4211988 0.4212599 0.4218702 0.4219313 0.4237624 0.4217482 0.4186962 0.4153696 0.4118598 0.4094793 0.4076787 0.407404 0.4092657 0.4132943 0.4162852 0.4177196 0.4160715 0.4132943 0.4103949 0.4070073 0.4033144 0.4001404 0.3977293 0.395532 0.3943722 0.3934566 0.3928157 0.3925411 0.3932125 0.3960203 0.3988586 0.4026735 0.404993 0.4049319 0.4044741 0.4037112 0.4023683 0.4012086 0.4005066 0.4015443 0.4031313 0.4048099 0.4061222 0.4071293 0.4073125 0.4085638 0.4093878 0.4105475 0.4109443 0.4118598 0.4139352 0.4169261 0.4194287 0.4219618 0.4248917 0.4275774 0.4302936 0.4323689 0.434078 0.4355124 0.4367027 0.4381371 0.4399072 0.4425319 0.4460416 0.4475981 0.4480864 0.4478118 0.4478118 0.4469267 0.4457975 0.4444851 0.4427455 0.4392358 0.4349631 0.4313923 0.4303241 0.4300494 0.4298968 0.4283403 0.4256546 0.4223585 0.419215 0.4169261 0.4141488 0.4131417 0.4132332 0.4131112 0.4134774 0.412867 0.4132027 0.4139962 0.4155222 0.4148508 0.4125313 0.4104254 0.4087164 0.4069767 0.4043826 0.4020631 0.3994384 0.3965391 0.3945553 0.394067 0.3930599 0.3911066 0.3882988 0.3858878 0.3836294 0.3813404 0.3790209 0.3785326 0.378319 0.3790209 0.3802417 0.3821644 0.3832021 0.3857657 0.3878716 0.389306 0.3906183 0.3921138 0.3944638 0.3967833 0.3996521
0.4402124 0.4389611 0.4373436 0.437191 0.4374657 0.4377098 0.4392663 0.4405176 0.4422267 0.4432338 0.4447293 0.4432338 0.4407923 0.4370689 0.4341085 0.4318806 0.4292559 0.428554 0.428554 0.4290118 0.4298053 0.4313618 0.4303546 0.4288287 0.4255936 0.4216871 0.417567 0.4141793 0.4124397 0.4124703 0.4140267 0.4169871 0.418391 0.4178417 0.4168956 0.4177196 0.4211988 0.4238235 0.4256852 0.4263871 0.4274858 0.4264481 0.4248306 0.4224806 0.4202527 0.4175365 0.4128365 0.4060917 0.400293 0.3971495 0.395654 0.3954709 0.3964781 0.3985534 0.4012696 0.4033144 0.4016053 0.3984313 0.3957456 0.3951657 0.3966917 0.3987975 0.4012391 0.405878 0.4100897 0.4134469 0.4169566 0.4189709 0.4188488 0.4171397 0.4164988 0.4163462 0.4149423 0.4131722 0.4124703 0.4139047 0.4159495 0.4185131 0.4208936 0.42303 0.4252274 0.4267533 0.4266618 0.4242813 0.4214735 0.4188183 0.4172618 0.4170787 0.4169261 0.4178722 0.4181774 0.4186657 0.4179027 0.4168956 0.41598 0.4145761 0.4131417 0.4121956 0.4117683 0.4110358 0.4115547 0.4121956 0.4126228 0.413691 0.4151865 0.4175975 0.419154 0.4213514 0.423915 0.4271806 0.4292559 0.4303851 0.4296832 0.4297137 0.4299579 0.4299579 0.4298358 0.429317 0.4295306 0.4295611 0.4286456 0.427028 0.4253189 0.423915 0.4235488 0.423091 0.4224196 0.4218092 0.4221754 0.4223891 0.4225722 0.422267 0.4218092 0.4225111 0.4247696 0.4269364 0.4282488 0.4294085 0.4308124 0.4323689 0.4339254 0.4352988 0.4369163 0.4377403 0.4376488 0.4368858 0.4355124 0.4336507 0.4319111 0.4308735 0.4295306 0.428493 0.4287371 0.4287371 0.4288897 0.4300494 0.4308429 0.4311787 0.4307209 0.4301715 0.4306903 0.43008 0.4288287 0.4295917 0.4305378 0.4326741 0.4339254 0.4348105 0.435665 0.4359702 0.4362754 0.4342611 0.4318806 0.4297442 0.4274248 0.4253189 0.4232131 0.4221754 0.4219618 0.4228163 0.4222365 0.4227858 0.4207105 0.4177196 0.4140267 0.4107001 0.4085027 0.4083196 0.4093572 0.4116462 0.4156748 0.41833 0.4180858 0.4150034 0.4111579 0.408228 0.4054508 0.4024599 0.4001709 0.3992859 0.3982482 0.3973021 0.3967222 0.3962034 0.3957456 0.3961118 0.3981566 0.400293 0.4031313 0.4052677 0.4054202 0.4045352 0.4037722 0.4025819 0.40188 0.4013612 0.4023378 0.40423 0.4062138 0.4070988 0.4078618 0.4079839 0.4096319 0.4107001 0.4106696 0.4110053 0.4120735 0.4147287 0.4177196 0.4198865 0.4226943 0.4257462 0.4280352 0.4303241 0.4326436 0.4343221 0.4356345 0.4372826 0.4390832 0.4408838 0.4429592 0.4464994 0.4480254 0.4483916 0.4482085 0.4479643 0.4463163 0.4455228 0.4451871 0.4440579 0.441067 0.4368553 0.4330098 0.4316365 0.431789 0.4307514 0.4290118 0.426265 0.4231521 0.4201611 0.4179943 0.4163157 0.4158884 0.4159189 0.4149728 0.4148813 0.4143625 0.4147897 0.415217 0.4162852 0.4146066 0.4116462 0.4096319 0.408106 0.4070378 0.4044131 0.4019105 0.3997742 0.3977293 0.3965391 0.3953488 0.3933346 0.3914118 0.3877495 0.3849417 0.3825001 0.3815846 0.3799365 0.3796008 0.3795092 0.3805469 0.3814014 0.3828969 0.3843618 0.3868949 0.3887566 0.39013 0.3918086 0.3934261 0.3951047 0.3966612 0.3991332
0.4386559 0.4370689 0.435604 0.4354819 0.4365501 0.4379235 0.4404261 0.4419825 0.4436611 0.4443325 0.4453397 0.4436306 0.4410364 0.4383507 0.4362754 0.4336812 0.4305988 0.4293475 0.4288592 0.4293475 0.430202 0.4312702 0.4291339 0.4269364 0.4240981 0.4203137 0.4160715 0.4127144 0.4107917 0.4106086 0.4125313 0.4155527 0.417628 0.4179637 0.417628 0.4188793 0.4217176 0.4236404 0.4245254 0.423915 0.4240676 0.4226332 0.4203443 0.4174144 0.4150034 0.4122871 0.4086553 0.4040469 0.4001099 0.3973326 0.3955625 0.3958066 0.398004 0.4008118 0.4037722 0.4048099 0.4024293 0.3997436 0.3985534 0.3986144 0.3990722 0.3999573 0.4015443 0.4049319 0.4082891 0.4119819 0.4158579 0.4175975 0.4166819 0.4149728 0.4148813 0.4147897 0.4133858 0.4121345 0.4125923 0.4155832 0.4182384 0.4203443 0.4219618 0.4236709 0.4251969 0.4257462 0.4250748 0.4230605 0.4208631 0.4188488 0.4177196 0.4172923 0.4171092 0.4177501 0.4176891 0.4172923 0.4164683 0.4154306 0.4146676 0.4132332 0.4126534 0.4120125 0.4117378 0.4110969 0.4109443 0.4108527 0.411402 0.412165 0.4138131 0.4165293 0.4188793 0.4211072 0.4234267 0.4263566 0.4282793 0.4294696 0.4290118 0.429439 0.4303851 0.4307819 0.4311481 0.4311176 0.4312702 0.4306903 0.4291033 0.4266923 0.4246475 0.4236404 0.4234267 0.42303 0.4222975 0.4212904 0.4212293 0.421565 0.4222365 0.4225111 0.4225722 0.423793 0.4265702 0.4289812 0.4305378 0.4321553 0.4339559 0.4352683 0.4366416 0.4374962 0.4390832 0.4401514 0.4399072 0.4386864 0.436428 0.4345358 0.4329488 0.4319722 0.4307209 0.4298968 0.4301105 0.4301105 0.430141 0.4308429 0.4305683 0.4291949 0.4282793 0.4282488 0.4299579 0.4303241 0.4296832 0.4305072 0.4310871 0.4325826 0.4331624 0.4333455 0.4337728 0.4333761 0.4334371 0.4321248 0.4304157 0.4293475 0.427852 0.4266618 0.4255936 0.4248611 0.4240066 0.4247696 0.4242202 0.4233046 0.4204663 0.4166209 0.412867 0.4104865 0.4094183 0.4101508 0.4117683 0.4140267 0.4174754 0.4196118 0.4180248 0.4138131 0.4093878 0.406641 0.4035891 0.4005371 0.3982482 0.3982177 0.3984923 0.398004 0.3978514 0.3973936 0.3974242 0.3984008 0.3996826 0.4011781 0.402704 0.4045047 0.4045962 0.4040163 0.4037112 0.4030702 0.4024904 0.4021242 0.4029482 0.4050235 0.4072819 0.408228 0.4088995 0.4091436 0.4107306 0.4120125 0.4117073 0.4114936 0.4121956 0.4148813 0.417628 0.4198254 0.4228469 0.4264481 0.4292865 0.4314228 0.4336812 0.434841 0.435665 0.4375572 0.4397546 0.4416468 0.443417 0.4462858 0.4471098 0.4477202 0.4479949 0.4476897 0.4463773 0.4458585 0.4458585 0.445065 0.4427761 0.4392663 0.4355124 0.433254 0.4329488 0.4316059 0.4300189 0.4268449 0.4234267 0.4207715 0.4187878 0.4180248 0.4179332 0.4182384 0.4172923 0.4173228 0.416743 0.4168651 0.4166819 0.4163767 0.4142404 0.4121345 0.4110053 0.4095404 0.4078313 0.4052371 0.4029787 0.4010865 0.3994995 0.3977904 0.3953794 0.3926631 0.3908014 0.3872307 0.3848807 0.382256 0.3820118 0.3812794 0.3815846 0.3817677 0.3824086 0.3829885 0.3841177 0.386132 0.3885735 0.3903131 0.3919307 0.3934261 0.3943722 0.395593 0.3968443 0.3990722
0.4371605 0.435665 0.4348715 0.4350851 0.4366111 0.4385033 0.4415247 0.4436306 0.4452176 0.4455228 0.4452786 0.4425929 0.4395715 0.4371605 0.435726 0.4334676 0.4308429 0.429439 0.4288592 0.4289507 0.4292254 0.430141 0.4280046 0.426143 0.4237624 0.4196728 0.415217 0.4119514 0.4101508 0.4103949 0.4125313 0.4148813 0.4170787 0.4183605 0.4195813 0.4209546 0.422206 0.4226027 0.4215955 0.4204663 0.4207105 0.419917 0.4176585 0.4143014 0.412104 0.4098456 0.4071293 0.4037722 0.4006592 0.3976683 0.3958372 0.3964475 0.399469 0.4030702 0.4059391 0.4063663 0.4042605 0.4021547 0.4019715 0.4017579 0.4014222 0.4013001 0.4017884 0.4040469 0.4070683 0.4112189 0.4149118 0.4154306 0.4140573 0.4125313 0.4127144 0.4128365 0.4126534 0.4128365 0.4144845 0.4179027 0.4208326 0.4228163 0.4239455 0.4252274 0.4255325 0.4251053 0.4232436 0.4215955 0.4201001 0.4190624 0.4185131 0.4181774 0.4178417 0.4181468 0.4176585 0.4163157 0.4151865 0.4140878 0.4134774 0.4123787 0.4123176 0.4117378 0.4113715 0.4104865 0.410456 0.4108222 0.412104 0.4125313 0.4137826 0.4164378 0.4195202 0.4215345 0.423793 0.4265702 0.4275469 0.4281572 0.4274248 0.4282183 0.4296527 0.4308124 0.4316365 0.4321553 0.4319111 0.4310261 0.4291949 0.4264176 0.4244949 0.4234878 0.4235183 0.4234572 0.4229384 0.4221449 0.4216261 0.421443 0.421504 0.4216871 0.4221449 0.4239455 0.4269975 0.4297137 0.4315449 0.4341085 0.4366722 0.4383507 0.4401514 0.4413722 0.4419825 0.4421046 0.4413416 0.4396325 0.4362449 0.4335592 0.4313312 0.43008 0.4292254 0.4288897 0.4295306 0.4304767 0.4309345 0.4307819 0.4295917 0.4273332 0.4264176 0.4265702 0.428615 0.4300494 0.4302631 0.4311176 0.4318501 0.432552 0.4327351 0.432491 0.432552 0.4318806 0.4314839 0.4307514 0.4294085 0.428615 0.4275163 0.4274553 0.427852 0.427852 0.4268754 0.4271806 0.4263261 0.4246475 0.4205274 0.4159189 0.4124397 0.4108222 0.4106086 0.412104 0.4141793 0.4160105 0.4185436 0.4195813 0.4173534 0.4126228 0.4080144 0.4048404 0.4013917 0.3984923 0.3970579 0.3972716 0.3975157 0.3973631 0.3977599 0.3980956 0.3991943 0.4008118 0.4017579 0.4026735 0.4029482 0.4041079 0.4039858 0.4040469 0.4041384 0.4037417 0.4035891 0.4038638 0.4048404 0.4067326 0.4086553 0.4097235 0.4104865 0.4110969 0.412165 0.4127754 0.4123482 0.412043 0.4124397 0.4150034 0.4175975 0.4200085 0.4231826 0.4269364 0.430141 0.4326131 0.4347189 0.435604 0.4360923 0.437954 0.4399072 0.4412196 0.4419825 0.4438442 0.4444241 0.4457364 0.4465299 0.4469877 0.4469877 0.4473845 0.4474455 0.446652 0.4451871 0.4423183 0.4391137 0.4362754 0.4350546 0.4334066 0.431789 0.4280657 0.4244644 0.4219618 0.4201306 0.4201001 0.4204663 0.4208631 0.4198865 0.4198254 0.4194287 0.419917 0.4193982 0.417628 0.4151254 0.4130806 0.4117988 0.4103034 0.4084417 0.4061832 0.4041995 0.4024599 0.4013612 0.3992248 0.3962034 0.3925716 0.3901605 0.3876274 0.3854605 0.3831716 0.3833852 0.3832021 0.3838735 0.3841177 0.3844839 0.3848807 0.386132 0.3883599 0.3905878 0.3922358 0.3942806 0.3960813 0.3969053 0.3980651 0.399469 0.4013306
0.4366722 0.4355124 0.4352072 0.4359397 0.4381066 0.4402735 0.4428981 0.4446988 0.4459195 0.4455533 0.444302 0.4421351 0.4396936 0.4373741 0.435665 0.4338644 0.4313923 0.4297442 0.4287371 0.4280657 0.4273027 0.4265702 0.4252579 0.4238845 0.4228469 0.419856 0.4164988 0.4132027 0.4109138 0.4110664 0.4134164 0.4153391 0.4166209 0.41833 0.4204663 0.4221754 0.4228163 0.4221449 0.4202527 0.4187878 0.4185741 0.4177196 0.4158274 0.4133248 0.4116157 0.4096014 0.4070683 0.4040163 0.4009949 0.3985839 0.3975462 0.3985534 0.4016053 0.4051761 0.4083501 0.4083196 0.4067326 0.4048709 0.4051761 0.4053287 0.4041995 0.4034975 0.4028566 0.4045047 0.4073735 0.4114631 0.4146066 0.414393 0.4126839 0.41128 0.411402 0.4116462 0.4128059 0.4141793 0.4165904 0.4197949 0.4224501 0.4242202 0.4252884 0.4261124 0.4251663 0.4237014 0.4214735 0.4200391 0.419215 0.419093 0.4189098 0.4187573 0.4184826 0.4184521 0.4173839 0.4157358 0.4143319 0.4128059 0.4119514 0.4112189 0.4112495 0.4107917 0.4103644 0.4094793 0.4095709 0.410517 0.4121345 0.4130806 0.414515 0.4172007 0.4203137 0.4219313 0.4237319 0.426204 0.4269975 0.427028 0.4258072 0.4262955 0.4273942 0.4293475 0.4305683 0.4319722 0.4320332 0.4314533 0.4296222 0.4271501 0.4255631 0.4244949 0.4245254 0.4243728 0.4240981 0.4236404 0.4226027 0.4219923 0.4213209 0.4210462 0.4218092 0.4243423 0.4275469 0.4301105 0.431728 0.4344137 0.4371299 0.4384423 0.4401819 0.4411891 0.4411891 0.4402735 0.4388696 0.4375267 0.4352683 0.433254 0.4307209 0.4290728 0.4279741 0.42773 0.4281878 0.4299884 0.430904 0.4298053 0.4276689 0.4251358 0.4246475 0.425441 0.4274858 0.4291644 0.4298663 0.4312702 0.4323079 0.4327657 0.4323995 0.4319417 0.4316059 0.430965 0.430202 0.430141 0.4297748 0.4285845 0.4278215 0.4283098 0.4302936 0.4314228 0.4305683 0.4300189 0.4281572 0.4256241 0.4211683 0.4166209 0.4133858 0.4122871 0.4124092 0.414454 0.416804 0.4183605 0.4197034 0.4188488 0.4153391 0.4102423 0.4057254 0.4024904 0.3999268 0.3982482 0.3976988 0.3972716 0.3967222 0.3961423 0.396417 0.3972716 0.3983703 0.4000793 0.4012086 0.4025819 0.4028261 0.4038027 0.404169 0.4050235 0.405054 0.4045352 0.4052066 0.4063358 0.407465 0.4085638 0.4103949 0.4119514 0.4133553 0.4142404 0.4143319 0.4139047 0.4133858 0.4133553 0.4139962 0.4164683 0.4184826 0.4204969 0.423915 0.427791 0.4313312 0.4339865 0.4354209 0.4355124 0.4360007 0.4376488 0.4399072 0.4408228 0.4409144 0.4414637 0.4413722 0.4429897 0.444241 0.445889 0.4472929 0.4483306 0.4480864 0.4470488 0.4456449 0.4432644 0.4407618 0.4373741 0.4351157 0.4328877 0.4314839 0.4284014 0.4258378 0.4240371 0.4225111 0.422206 0.4223585 0.4227553 0.4217176 0.4222365 0.4225416 0.4229079 0.4219923 0.4194592 0.4167124 0.4140573 0.4126534 0.4113715 0.4096014 0.4077092 0.4059696 0.4041079 0.4028261 0.4004151 0.3968138 0.3925716 0.3890313 0.386956 0.3850027 0.3839346 0.3847586 0.3849417 0.3864677 0.3865287 0.3868339 0.3868949 0.3883904 0.3910456 0.393243 0.3950436 0.396295 0.3973021 0.3983703 0.4005066 0.4022157 0.4036196
0.4361228 0.4355124 0.4358176 0.4371605 0.4397241 0.4422267 0.4441189 0.4448819 0.4452481 0.4444241 0.4422877 0.4404871 0.4385949 0.4371605 0.4362449 0.4352072 0.4322774 0.4297137 0.4280657 0.4274248 0.4262955 0.4247391 0.4234267 0.4216871 0.4210462 0.4197339 0.4182384 0.4153391 0.4130806 0.4126228 0.4142404 0.4155527 0.4159189 0.4175365 0.4203443 0.422267 0.4225722 0.4210462 0.4194287 0.4182689 0.4175059 0.4161936 0.4149728 0.4140573 0.4136605 0.4124703 0.4094793 0.4062138 0.4034365 0.4016969 0.4013001 0.4021547 0.404291 0.4066716 0.4091741 0.4090216 0.4079534 0.4067021 0.4068547 0.4072819 0.4061832 0.4056339 0.4046573 0.4058475 0.4084111 0.4117988 0.4141183 0.4141488 0.4126534 0.4117988 0.4114326 0.4117378 0.4143014 0.4165904 0.4190319 0.4208631 0.4223585 0.4233046 0.4243728 0.4253494 0.4243728 0.4226637 0.4202832 0.4185741 0.4179943 0.4179943 0.417567 0.4174754 0.4173228 0.4170482 0.4162546 0.4150949 0.4138436 0.4124703 0.4114936 0.4110664 0.4110664 0.4106391 0.4094183 0.4083501 0.4084417 0.409815 0.4115852 0.4133858 0.4156748 0.4182995 0.4212293 0.4223891 0.4240066 0.4262955 0.4266618 0.426204 0.4252274 0.4256241 0.4265092 0.4283403 0.429317 0.4309345 0.4314228 0.4313923 0.43008 0.4282793 0.4273332 0.4266923 0.4262345 0.4255325 0.4245559 0.4241287 0.4231215 0.4223585 0.4217176 0.421565 0.4229384 0.4259903 0.4289812 0.4309345 0.4320332 0.4333455 0.4351157 0.4358176 0.4372215 0.438015 0.4375877 0.4360618 0.4344137 0.4334981 0.4326131 0.4316365 0.4293475 0.4279741 0.4267228 0.4264176 0.4263566 0.4283098 0.4296832 0.4281572 0.4256852 0.4237624 0.4241287 0.4256241 0.4276384 0.4288897 0.4296222 0.4315449 0.4327657 0.4327962 0.431789 0.4307209 0.4296527 0.4294085 0.428554 0.4291033 0.4295306 0.4289202 0.4282488 0.4286456 0.4303546 0.4316365 0.4308735 0.4308735 0.4290423 0.4260819 0.4219007 0.4179027 0.4158884 0.4157663 0.4170176 0.4185131 0.4200085 0.4207715 0.4205579 0.4182079 0.413752 0.4090521 0.4046268 0.4018495 0.4002625 0.3991332 0.3983703 0.397119 0.3965086 0.3957456 0.3953488 0.3956235 0.3961423 0.3975767 0.3991332 0.4012086 0.4016358 0.4032534 0.4041995 0.4056339 0.4063358 0.40658 0.4076482 0.4087164 0.4100897 0.4107917 0.4125313 0.4146371 0.4161631 0.4166209 0.4161936 0.4154917 0.415217 0.4155527 0.4163157 0.4186046 0.4200085 0.421565 0.4245559 0.4279436 0.4315449 0.4346579 0.4360313 0.4362144 0.4373741 0.4385949 0.4405786 0.4420131 0.4424098 0.4427761 0.4425929 0.4438442 0.4445767 0.4459195 0.4475065 0.4485137 0.4476897 0.4459806 0.4446072 0.4423183 0.4403345 0.437191 0.4349631 0.4324605 0.4309345 0.4279741 0.4263261 0.4256852 0.4247696 0.424617 0.4247696 0.4249527 0.4241287 0.4252884 0.4260209 0.426265 0.4247391 0.4216871 0.4189404 0.4156748 0.4136605 0.4121345 0.4102423 0.4087774 0.4073735 0.4053592 0.403467 0.4003235 0.3960813 0.3920222 0.3882073 0.3864066 0.3848501 0.3844229 0.3855826 0.386132 0.3881463 0.3886651 0.3889703 0.3894586 0.3908625 0.3930904 0.3949216 0.3967222 0.398004 0.3987975 0.4004151 0.4031313 0.4047183 0.4064274
0.4360313 0.4358176 0.4366111 0.4383507 0.4410364 0.4430507 0.443417 0.4430812 0.4422877 0.4416468 0.4398157 0.4391442 0.4378929 0.4370079 0.4365196 0.4356345 0.4323079 0.4292865 0.4267228 0.4252884 0.4231521 0.4215955 0.4212599 0.4213209 0.4219007 0.4213819 0.4206189 0.4173839 0.4157358 0.4153085 0.41598 0.4162546 0.416041 0.4173839 0.4202832 0.4227858 0.4230605 0.4210767 0.4193982 0.4184521 0.4172618 0.415217 0.4140573 0.4143319 0.4150644 0.4145761 0.4116767 0.4089605 0.4070378 0.4060612 0.4058475 0.405756 0.4063053 0.4071904 0.408228 0.4079839 0.4075871 0.408228 0.4087164 0.4088995 0.4078618 0.4077397 0.4072819 0.4078008 0.4095099 0.4118904 0.4133858 0.4138436 0.4133858 0.4132332 0.4132943 0.4135689 0.4162241 0.4181468 0.4191845 0.4183605 0.4174754 0.4173534 0.4185436 0.4207715 0.4216566 0.420741 0.419093 0.4178417 0.4175975 0.4177196 0.4169261 0.4166514 0.4162241 0.41598 0.4152475 0.4140573 0.4130196 0.4120735 0.4119209 0.412043 0.4118293 0.4111884 0.4096014 0.4085638 0.4085638 0.4098761 0.4115852 0.4140878 0.4169261 0.4193676 0.4211378 0.4219007 0.4228469 0.4241287 0.4239455 0.4234572 0.4233962 0.4244339 0.425441 0.4276384 0.4289202 0.4304157 0.4314533 0.4319722 0.4312092 0.4298358 0.4289507 0.4288897 0.428493 0.4275774 0.4264481 0.4258988 0.4248917 0.4236709 0.4226637 0.4223891 0.423915 0.4269975 0.429317 0.4305072 0.4316365 0.4316365 0.4322468 0.432491 0.4327657 0.4323689 0.4316059 0.430202 0.4293475 0.4294696 0.4295306 0.4296222 0.4280352 0.4275163 0.4267839 0.4265702 0.4261735 0.4274248 0.4280046 0.4265397 0.4247085 0.4238235 0.4243423 0.4258683 0.4280352 0.4298053 0.4310261 0.4328572 0.4334981 0.4327351 0.4311481 0.4297442 0.4284319 0.4280046 0.427791 0.4281572 0.4290118 0.4286456 0.4281267 0.4281572 0.4289812 0.430141 0.4298053 0.43008 0.428493 0.4258378 0.4221449 0.4192456 0.4182689 0.4186962 0.4203443 0.4214124 0.4215955 0.421443 0.4192761 0.4161631 0.4120125 0.4085332 0.4048404 0.4025514 0.4019105 0.401056 0.3996215 0.3975462 0.3973936 0.3967222 0.3961729 0.3956235 0.3952267 0.3954404 0.3962644 0.3985534 0.4001099 0.4029482 0.4044436 0.4059391 0.4070378 0.4081975 0.4096014 0.4102728 0.4113105 0.4125923 0.4147897 0.4171092 0.4180553 0.4181468 0.4174144 0.416743 0.4166209 0.4176891 0.4193982 0.4215955 0.4227858 0.4243423 0.4273637 0.4306293 0.4336202 0.4358787 0.4374352 0.4381676 0.439602 0.4402429 0.4414637 0.4433254 0.444241 0.4443631 0.4444241 0.4450345 0.4458585 0.4471098 0.448239 0.4476592 0.4457975 0.4430507 0.4411585 0.4381676 0.4360923 0.4326741 0.4320942 0.4304767 0.4293475 0.4268449 0.4258683 0.426143 0.4262345 0.4267228 0.4268449 0.426967 0.4269364 0.4288287 0.4295001 0.4289507 0.4271501 0.4241592 0.4211072 0.417628 0.4150034 0.4137826 0.4123482 0.411341 0.4102118 0.4079534 0.4046878 0.401056 0.3968443 0.3928768 0.3890618 0.3863456 0.3851248 0.384606 0.3858878 0.387017 0.3891534 0.3894891 0.3894891 0.3909235 0.3927852 0.3952267 0.3970274 0.3984008 0.3992859 0.4000183 0.401819 0.4046268 0.4062138 0.4083806
0.4360007 0.4359092 0.4370384 0.4392053 0.4417384 0.4430202 0.4417384 0.4406702 0.4397241 0.439541 0.4385033 0.438076 0.4371605 0.4363975 0.4367027 0.4367332 0.4337728 0.4305378 0.4270891 0.4236099 0.4199475 0.4181774 0.419154 0.4211378 0.4235488 0.4232741 0.4215345 0.4182079 0.4174754 0.4177196 0.4178417 0.417628 0.4172618 0.4184215 0.42068 0.4232131 0.4236404 0.4221144 0.4203748 0.4193982 0.4185741 0.4162852 0.4151865 0.4153696 0.4159189 0.4156137 0.4140573 0.4123787 0.4113715 0.4106696 0.4096319 0.4083196 0.4070683 0.4063358 0.4063053 0.4059391 0.4059696 0.4078618 0.4094793 0.4102118 0.4095709 0.409754 0.4097845 0.4099371 0.4110053 0.4125923 0.4130501 0.4132637 0.4134774 0.414515 0.4157663 0.4172007 0.4195202 0.4201916 0.4196118 0.4172618 0.4148813 0.4133858 0.4141793 0.4169566 0.4190624 0.4187573 0.4179332 0.4172313 0.4172007 0.4173228 0.4164073 0.4161631 0.4156137 0.4153391 0.414454 0.4130501 0.4124703 0.4123482 0.4133858 0.4139657 0.4136605 0.4124397 0.4107001 0.409693 0.4099371 0.4112495 0.4127449 0.4151559 0.4180858 0.4203443 0.4212904 0.4217176 0.4220533 0.421443 0.4205274 0.4205274 0.4221449 0.4245559 0.4259903 0.4281572 0.4297137 0.4310871 0.4321248 0.4326131 0.4319111 0.4307514 0.4299273 0.4303546 0.4297137 0.4288287 0.4278826 0.4270891 0.4257462 0.4240676 0.4231215 0.4233046 0.4250442 0.4279741 0.4297442 0.4299884 0.4305378 0.4295306 0.4293475 0.4296527 0.4285845 0.4267228 0.4251358 0.4240371 0.4240981 0.4255325 0.4268754 0.4281572 0.427852 0.4281878 0.4284319 0.4282793 0.4273027 0.4273332 0.4267533 0.4251358 0.423915 0.4235793 0.4244644 0.4265397 0.4290728 0.4310261 0.4323079 0.4335592 0.433315 0.431667 0.4299579 0.4287676 0.4278215 0.4275774 0.4273637 0.4273637 0.4279436 0.4275163 0.4270891 0.4268449 0.4270585 0.4275163 0.4272417 0.4276079 0.4267228 0.4248001 0.4217482 0.4193066 0.4184215 0.4191235 0.4213209 0.4225111 0.4218092 0.4205579 0.4168956 0.4134469 0.4103034 0.4080144 0.405878 0.4044436 0.4040163 0.4024293 0.4003235 0.3981261 0.3976988 0.3963255 0.3954709 0.3949826 0.39483 0.3951352 0.3957151 0.397943 0.3999573 0.4030092 0.4048404 0.4061832 0.4077397 0.40893 0.4099982 0.4106391 0.4118598 0.4142098 0.4167124 0.4183605 0.4184215 0.4179332 0.4176585 0.4180553 0.4185131 0.4202222 0.4224501 0.4245559 0.4259598 0.4279741 0.4304767 0.4329488 0.4350241 0.4365196 0.4383813 0.4402124 0.4421046 0.4427455 0.4430812 0.4447598 0.4453092 0.4456144 0.4463468 0.4468656 0.4478118 0.4485137 0.4484832 0.4463163 0.4440579 0.4412806 0.4389001 0.4355124 0.4328877 0.4295306 0.43008 0.4297442 0.4294085 0.4276384 0.4268449 0.4268144 0.4260209 0.426265 0.4266923 0.4279131 0.4291644 0.4311787 0.4313312 0.4300494 0.4281878 0.4258988 0.4234878 0.4205274 0.4180248 0.4171397 0.4164073 0.4157969 0.4144845 0.4110664 0.4064579 0.4023378 0.398004 0.3937008 0.3900385 0.3872001 0.3857657 0.3848807 0.386254 0.3879021 0.3897638 0.3897638 0.3898553 0.3917781 0.3938839 0.3959287 0.3977599 0.3988891 0.3990417 0.3998657 0.401819 0.4052066 0.4083501 0.4112495
0.4374352 0.4374352 0.4385033 0.4406092 0.4424708 0.4423793 0.4393884 0.437954 0.4370994 0.4372826 0.4368553 0.4367332 0.4361838 0.4363975 0.4375267 0.4383202 0.436428 0.4331929 0.4292254 0.4243423 0.4202832 0.4181774 0.4194592 0.4221144 0.425441 0.4257157 0.423854 0.420741 0.4202832 0.4201001 0.4197644 0.419215 0.4192456 0.4201611 0.4213514 0.4236404 0.424678 0.4239761 0.4229079 0.4221449 0.4217176 0.4189404 0.4170176 0.4161631 0.4157053 0.4151559 0.413752 0.4128059 0.4127449 0.4123787 0.410517 0.4084722 0.4062443 0.4046878 0.4043521 0.4035891 0.4036501 0.4068547 0.4097235 0.4112495 0.411402 0.4118598 0.4120735 0.4123176 0.4132027 0.4140573 0.4133858 0.4126839 0.4133248 0.4154917 0.4181163 0.4208326 0.4216261 0.4203443 0.418391 0.4164073 0.4143625 0.4121956 0.4126839 0.415217 0.4172923 0.4170176 0.4165293 0.4163157 0.4161021 0.4157969 0.4150339 0.4148508 0.4147287 0.4149423 0.4144235 0.4131417 0.4125618 0.412867 0.4147287 0.4150339 0.4140878 0.4130501 0.4114631 0.4109443 0.4114326 0.412928 0.4143319 0.4168345 0.4198254 0.4216566 0.4222365 0.4224501 0.4224501 0.4207715 0.4196118 0.4197034 0.4221144 0.4249527 0.4268449 0.4289507 0.4305683 0.4314839 0.432491 0.4327962 0.4319417 0.430904 0.4304462 0.4311176 0.43008 0.4295001 0.4287676 0.42773 0.4260514 0.4241592 0.4232741 0.4245254 0.4268144 0.429317 0.4303851 0.4295917 0.4296222 0.4282488 0.4276689 0.4274248 0.4258378 0.4233352 0.4218702 0.421504 0.4225416 0.424617 0.4261124 0.4277605 0.4282793 0.429317 0.4297442 0.4295001 0.427852 0.4263566 0.4242813 0.4226027 0.4219313 0.4221754 0.4232741 0.425502 0.4280046 0.4300189 0.431728 0.4320027 0.4308735 0.4287676 0.427852 0.4275774 0.4276079 0.4280046 0.4274248 0.4272417 0.4272417 0.4263871 0.426143 0.426204 0.4260209 0.42538 0.4252579 0.4251969 0.4253494 0.4241897 0.4218397 0.4194592 0.4185741 0.4189098 0.4209241 0.4217176 0.4205579 0.4192456 0.415217 0.4118293 0.4092047 0.4078923 0.4070073 0.4067936 0.4065189 0.4040774 0.4009644 0.3983397 0.3973021 0.3950742 0.3942806 0.3944943 0.3951047 0.3959287 0.3968748 0.3988281 0.4004151 0.4035586 0.4061527 0.4074956 0.4088689 0.4091131 0.4092352 0.4096319 0.4110969 0.414393 0.4170787 0.4177501 0.4166819 0.4155832 0.4164378 0.4188793 0.4201916 0.4224806 0.4245865 0.4272417 0.4295306 0.4325215 0.4345663 0.4359092 0.4372826 0.4387169 0.4408533 0.4428676 0.4445462 0.4452786 0.4451871 0.4461027 0.4462553 0.4465299 0.4476897 0.4481475 0.4493988 0.4502533 0.4487884 0.4445462 0.4422572 0.4404871 0.4384118 0.4350241 0.4323079 0.4290118 0.4296832 0.4302631 0.4312702 0.4304157 0.4293475 0.4283098 0.4258683 0.4251358 0.4259903 0.4284014 0.4307209 0.4327962 0.432491 0.4303851 0.4290423 0.4276689 0.4258683 0.4229994 0.4208326 0.4205274 0.4203137 0.4198254 0.4172923 0.4124397 0.4067326 0.4027651 0.3988586 0.39483 0.3910151 0.387719 0.3858573 0.3853385 0.38778 0.3903436 0.3915949 0.3907404 0.3908319 0.3923885 0.3940365 0.395532 0.3971495 0.3981261 0.3980345 0.3988281 0.4009949 0.4042605 0.4082891 0.41128
0.4381066 0.4386254 0.4397241 0.4412196 0.4416468 0.4401208 0.4378319 0.4370384 0.4362144 0.4362449 0.4362754 0.4362449 0.4367027 0.4381676 0.4399072 0.4406397 0.4399377 0.4374962 0.4335897 0.4277605 0.4233657 0.4208326 0.4211988 0.4236404 0.4272111 0.4279131 0.4256241 0.4230605 0.4224501 0.4219313 0.4214124 0.4208021 0.4212904 0.4224501 0.4233352 0.4245254 0.4257157 0.426204 0.4266923 0.4257157 0.4239455 0.4204663 0.4178722 0.4161936 0.4149118 0.4139657 0.4126534 0.4120125 0.4123787 0.4112495 0.4085943 0.4060307 0.4040163 0.4028871 0.4030397 0.4027956 0.4033754 0.4072514 0.4102118 0.4120125 0.4120125 0.4118598 0.4121345 0.4121956 0.4125618 0.4130196 0.4127144 0.4122566 0.4126839 0.4147592 0.4176585 0.4202832 0.4203137 0.4183605 0.416041 0.4148508 0.4134774 0.4116767 0.4131112 0.4156443 0.4169566 0.4167735 0.4162852 0.4161326 0.4157663 0.4148508 0.4144845 0.4141488 0.4141793 0.4143625 0.4140267 0.412867 0.4121956 0.4126839 0.4147287 0.4149118 0.4140267 0.4132943 0.4122261 0.4122261 0.4125923 0.413752 0.4152475 0.4181774 0.4217176 0.4233657 0.4238235 0.4237624 0.4231521 0.4211988 0.4200391 0.4201001 0.4226027 0.4253189 0.4275163 0.4294085 0.4305072 0.430965 0.4319111 0.4324605 0.431789 0.430904 0.4305988 0.4313007 0.4304157 0.43008 0.4287676 0.4273332 0.4255936 0.4243728 0.4242813 0.4257767 0.4279741 0.4303241 0.4312092 0.4300494 0.4295611 0.4286761 0.4282183 0.4271501 0.4256241 0.4231826 0.4222365 0.4221449 0.4233657 0.425441 0.4268144 0.4283403 0.429378 0.4303851 0.4300494 0.429378 0.4269364 0.4241287 0.4208936 0.4192761 0.4188488 0.419856 0.4213514 0.4235183 0.4256852 0.4274858 0.4291339 0.4284624 0.4275469 0.4261124 0.4264787 0.4274248 0.4279741 0.4281572 0.4276079 0.4280352 0.4280962 0.4276689 0.4273027 0.4268449 0.4261124 0.4246475 0.424678 0.4243423 0.4243118 0.4230605 0.4210462 0.4182995 0.4175365 0.4176891 0.4189098 0.4191845 0.4178417 0.416804 0.4137826 0.4108527 0.4079839 0.4078313 0.408106 0.4091436 0.4089605 0.4059086 0.4020631 0.3996215 0.3970884 0.3942806 0.3937008 0.3947384 0.3962339 0.398004 0.3998352 0.4016358 0.4031313 0.405878 0.408228 0.4091741 0.4097235 0.4093267 0.409754 0.410517 0.412165 0.4147287 0.4168956 0.416804 0.415217 0.4146066 0.4157969 0.4189404 0.4211072 0.4238845 0.4262345 0.4295306 0.4320637 0.4351767 0.4360007 0.4369774 0.4381371 0.4398157 0.4422572 0.4445156 0.4461637 0.4472319 0.4477202 0.448117 0.4487579 0.4495514 0.4506806 0.4503143 0.4504669 0.4500702 0.446652 0.4417689 0.4399072 0.4390222 0.4377403 0.4351767 0.4330404 0.4305683 0.431789 0.4326131 0.434078 0.4341085 0.4328267 0.4305683 0.4266313 0.4247696 0.4254105 0.4280046 0.4309345 0.4330404 0.4322774 0.430141 0.4295306 0.4289812 0.4278826 0.425441 0.4237014 0.4237624 0.4240676 0.4229689 0.4189404 0.4130806 0.4072514 0.4037722 0.400232 0.3959287 0.3921138 0.3890313 0.3873833 0.3877495 0.3899774 0.3917475 0.3921138 0.3912897 0.3915034 0.3928157 0.3937923 0.3953183 0.396295 0.3968443 0.3970579 0.3980956 0.4005982 0.4035891 0.4081365 0.4117378
0.4384118 0.4394189 0.4405176 0.4414332 0.4407618 0.4389001 0.4374962 0.4372826 0.4363365 0.4362754 0.4363365 0.436367 0.4375267 0.4399072 0.4421657 0.4427761 0.4428371 0.441128 0.4378319 0.4320637 0.4275774 0.4244644 0.423854 0.4260209 0.4288592 0.4300494 0.4278826 0.4254715 0.4245865 0.4232436 0.4226943 0.4223891 0.4233352 0.4251053 0.426204 0.4267228 0.4275774 0.4286456 0.4299884 0.4282793 0.424678 0.4211072 0.4185436 0.4170787 0.4154612 0.4138131 0.4129586 0.412043 0.411402 0.4084111 0.4048404 0.4024599 0.4013001 0.4011781 0.401941 0.4029177 0.4043826 0.4078313 0.4105475 0.4125008 0.412928 0.4122566 0.4123482 0.4123787 0.4123787 0.4125008 0.4124397 0.4118904 0.412043 0.4135995 0.4164073 0.4182995 0.4181163 0.4165598 0.4145761 0.4137826 0.4125618 0.4113105 0.4130196 0.4154001 0.4162852 0.4167735 0.4167735 0.4168651 0.4164683 0.415217 0.4146371 0.4137826 0.41363 0.4132943 0.4127754 0.4117378 0.4117378 0.4122566 0.4136605 0.4138436 0.4131417 0.4126228 0.4122566 0.412867 0.4131722 0.4140878 0.4163157 0.419917 0.423793 0.4254105 0.4258378 0.4249832 0.4235793 0.4218397 0.4214735 0.4219313 0.4236099 0.4258988 0.4285845 0.4305683 0.430965 0.4304462 0.4307209 0.4306903 0.4297442 0.4294696 0.4298053 0.4311176 0.4300494 0.4291644 0.427028 0.4254715 0.423915 0.4241287 0.4251663 0.4268449 0.4284319 0.4300494 0.4307514 0.430202 0.430141 0.4294085 0.4290728 0.4277605 0.4267533 0.4250748 0.4244033 0.424678 0.4257462 0.4272111 0.4284319 0.4296832 0.4311176 0.4312092 0.4295611 0.4282793 0.4254105 0.4218397 0.41833 0.4166209 0.4160105 0.4172313 0.4192761 0.4215955 0.423915 0.4256241 0.4271196 0.425502 0.424678 0.4245865 0.4260819 0.4280046 0.4283403 0.427791 0.427028 0.4282183 0.4291644 0.4287981 0.427791 0.4265092 0.4258378 0.4244949 0.4248001 0.4236404 0.4226332 0.4205579 0.4195813 0.4177806 0.4177196 0.4181468 0.4187267 0.4184826 0.4164378 0.4151559 0.4128365 0.4108222 0.4085638 0.4083196 0.4087164 0.4097845 0.4093267 0.4062138 0.4020021 0.3996826 0.3967833 0.3947079 0.39483 0.3966917 0.3978514 0.3997436 0.4020631 0.4040469 0.4064579 0.4088384 0.4107917 0.4113715 0.4107917 0.409754 0.4103034 0.4108222 0.4124092 0.4142098 0.4154917 0.4154001 0.414393 0.4144845 0.4156748 0.4187573 0.4214124 0.4245865 0.4275774 0.4310871 0.4329488 0.4353598 0.436428 0.4380455 0.4400293 0.4424708 0.4448514 0.4468962 0.4479949 0.4492462 0.450589 0.4507416 0.4517793 0.4524812 0.4531221 0.4523897 0.4522066 0.4504975 0.4461027 0.4416163 0.4404261 0.4393884 0.4379845 0.4360007 0.4347494 0.4333455 0.4347189 0.4356345 0.4370079 0.4367027 0.4347189 0.4320332 0.4276994 0.425441 0.4259598 0.4286761 0.4316059 0.4333761 0.4327046 0.4310566 0.4307819 0.4301715 0.4289812 0.4267839 0.4257462 0.4269975 0.4272722 0.4251358 0.4192761 0.4135079 0.4084722 0.4051456 0.4019715 0.3974852 0.3933651 0.3908014 0.3898553 0.390954 0.3919612 0.39248 0.3920222 0.3918696 0.3928462 0.3936703 0.3943112 0.3952267 0.3960508 0.3968748 0.3979735 0.3992859 0.4014222 0.4035891 0.4075566 0.4110664
0.4378624 0.438839 0.4400598 0.4410059 0.4402735 0.4385644 0.4376183 0.437954 0.4378014 0.4378929 0.438015 0.437954 0.4390222 0.4411585 0.4431423 0.4437527 0.4443325 0.4431423 0.4401514 0.4346274 0.4299884 0.4271501 0.4265702 0.4280657 0.4298358 0.4304462 0.4287676 0.4268144 0.4261124 0.4247085 0.4242813 0.4243423 0.425441 0.4276994 0.4289812 0.4292559 0.4297442 0.4305378 0.4312092 0.4286761 0.4244033 0.4213819 0.4199475 0.4186046 0.4171092 0.4149423 0.414454 0.412867 0.4103339 0.4063969 0.4026735 0.4000793 0.3996826 0.4008118 0.4021547 0.40423 0.4060917 0.4086553 0.4110358 0.4132332 0.4140878 0.4135384 0.4128365 0.4125313 0.4123176 0.4117073 0.41128 0.410578 0.41128 0.4131722 0.4154306 0.4165598 0.4170482 0.4163157 0.4147592 0.4138741 0.4129891 0.4129586 0.4147897 0.4171397 0.4177196 0.4180553 0.4179027 0.4173534 0.4166209 0.415217 0.4142709 0.4130196 0.4125313 0.4114326 0.4106086 0.4097845 0.4106086 0.4115241 0.4122566 0.4123482 0.4123787 0.4125313 0.4132332 0.4138131 0.4139352 0.4154001 0.4186962 0.4225111 0.4252884 0.4266618 0.4270585 0.426265 0.4247085 0.4232131 0.4229689 0.4235488 0.4247696 0.4265397 0.4298968 0.4318501 0.4316059 0.4306598 0.4302631 0.429439 0.4283709 0.4288897 0.4299579 0.4313923 0.4302326 0.4287371 0.4263871 0.4251358 0.4242813 0.4252274 0.426265 0.4276079 0.4284014 0.4287676 0.4291339 0.4294085 0.4303241 0.43008 0.4302631 0.429439 0.4293475 0.4286761 0.4279741 0.4283709 0.4291949 0.4303241 0.430904 0.4315449 0.4322163 0.4312397 0.428554 0.4264481 0.4238845 0.4204969 0.4172313 0.4154612 0.4146066 0.41598 0.4186046 0.4211072 0.4229079 0.423854 0.4240676 0.4232741 0.4239455 0.4251969 0.4272111 0.4287981 0.4289202 0.4281878 0.4274553 0.4287676 0.4297137 0.4293475 0.427852 0.4260209 0.4258683 0.4253189 0.4258072 0.4236099 0.4217482 0.4196118 0.4187573 0.4181774 0.4188488 0.4194897 0.4189404 0.4179027 0.4151254 0.4137826 0.4123787 0.4113105 0.4098456 0.4091436 0.4093572 0.4102118 0.4092047 0.4060307 0.4016053 0.3988891 0.3966306 0.396295 0.3973326 0.3997131 0.3999573 0.4012086 0.4034365 0.405817 0.4094793 0.411341 0.4122871 0.4117378 0.4107611 0.4095099 0.4102423 0.4110053 0.4125618 0.4132943 0.4139047 0.4142098 0.4142709 0.415217 0.4162546 0.418391 0.4208021 0.4236404 0.4278215 0.4319722 0.4338338 0.4354819 0.4367027 0.4385033 0.4408838 0.4438747 0.4464079 0.4487884 0.4498565 0.451413 0.4532137 0.4539157 0.4546481 0.4540682 0.4540377 0.4537936 0.4533358 0.4509247 0.4466215 0.4432949 0.4429592 0.4417689 0.4401208 0.4383507 0.4373741 0.4366722 0.4381066 0.4391442 0.439602 0.4386559 0.4357566 0.432491 0.4279741 0.4257462 0.4266008 0.43008 0.4330709 0.4344137 0.4342611 0.4334981 0.4330404 0.4319417 0.4302326 0.4285235 0.4280046 0.4295917 0.429378 0.4261735 0.4194592 0.413691 0.4094488 0.4067326 0.4033144 0.3989806 0.3953794 0.3937008 0.3937313 0.3951657 0.3946164 0.3934261 0.3916255 0.3920833 0.3933651 0.3944943 0.3953488 0.3962644 0.3969053 0.3979735 0.3996215 0.4009339 0.4027956 0.404993 0.4081365 0.4107917
0.438015 0.438778 0.4398462 0.4407923 0.4400903 0.4389001 0.4384423 0.4394189 0.4396936 0.4399072 0.4399988 0.4393274 0.439602 0.4407618 0.4421962 0.4428981 0.4438747 0.4435085 0.4414332 0.4368553 0.4322774 0.4301105 0.4294085 0.4307209 0.4306903 0.4299273 0.4283709 0.4275163 0.4272722 0.4265702 0.4263566 0.4264176 0.4273332 0.4297748 0.4314839 0.4314533 0.4314533 0.4310871 0.4305988 0.4281878 0.4248611 0.4221144 0.4213514 0.4211683 0.4203443 0.4178417 0.4159495 0.4135079 0.4103339 0.4059696 0.4024904 0.399591 0.3994995 0.4013001 0.4028566 0.4050235 0.4070073 0.4093572 0.4118904 0.4139657 0.4146676 0.414515 0.4142404 0.4139352 0.4135689 0.4124703 0.4116462 0.4112189 0.4123787 0.4146371 0.4162546 0.4166209 0.4173534 0.416743 0.4148813 0.4135384 0.4135079 0.4150034 0.4174449 0.419917 0.4197339 0.4197339 0.419154 0.4177806 0.4166209 0.4149118 0.4139657 0.4127144 0.4118598 0.4107001 0.409693 0.4091741 0.4100592 0.4108832 0.4110053 0.4110358 0.411402 0.4124397 0.4134164 0.4140573 0.4143319 0.4163767 0.4201306 0.4242202 0.4265397 0.4273637 0.4273637 0.4265092 0.4251053 0.4236099 0.4236099 0.4243728 0.4256241 0.4277605 0.4310871 0.4323079 0.4323995 0.4313923 0.4305072 0.429317 0.4282793 0.4291644 0.4304157 0.431667 0.4303851 0.4290728 0.427028 0.426265 0.4260514 0.4270891 0.4279741 0.4286761 0.4287371 0.4284319 0.4288287 0.4293475 0.4303851 0.4304462 0.4310566 0.4313312 0.431667 0.431789 0.4308429 0.4310566 0.4312702 0.431728 0.4318806 0.4321858 0.4321858 0.4303241 0.4274248 0.4242508 0.422206 0.4196728 0.4178417 0.4167124 0.4159495 0.4176891 0.4202832 0.4224196 0.4233352 0.4237624 0.4231521 0.4233657 0.4249527 0.4267839 0.428554 0.4295611 0.4294696 0.4289812 0.4286761 0.4299884 0.4303241 0.4295001 0.42773 0.4258378 0.4259293 0.4254715 0.4255936 0.4225416 0.4206494 0.4197034 0.4198254 0.419856 0.420741 0.421565 0.4202222 0.4182689 0.4153696 0.4140878 0.4133858 0.4128365 0.4120125 0.4111579 0.410578 0.4099066 0.4077397 0.4044741 0.4004761 0.3985534 0.3979125 0.3994995 0.4009339 0.4029787 0.4027345 0.4033754 0.4047183 0.40658 0.4103949 0.4107917 0.4109748 0.4097235 0.4085638 0.4079228 0.4082891 0.4091741 0.4102728 0.4109748 0.4118293 0.4131417 0.4143625 0.4158274 0.4170176 0.41833 0.4208021 0.4235793 0.4279741 0.4323079 0.4348715 0.4358787 0.4377708 0.4409449 0.4440273 0.447415 0.4492767 0.4516267 0.4529085 0.4548618 0.4563267 0.4564488 0.4562046 0.4543124 0.4535799 0.4536105 0.4530916 0.4507111 0.4472624 0.4459501 0.446591 0.4456754 0.4439358 0.4421351 0.4409144 0.4398462 0.441067 0.4415858 0.4409754 0.4392053 0.4353904 0.4316059 0.4276079 0.4264176 0.4283709 0.4325826 0.4356345 0.4365196 0.436367 0.4355429 0.4347189 0.433315 0.4315144 0.4303546 0.4303241 0.4312702 0.4296222 0.4257462 0.4194287 0.4142709 0.4103949 0.4078923 0.4039248 0.4004761 0.3973631 0.3964781 0.3976073 0.3986754 0.3962034 0.3935177 0.3915644 0.3923885 0.3933346 0.3945248 0.3957151 0.3968748 0.3984313 0.4003235 0.4025209 0.4034975 0.405054 0.4071904 0.4099066 0.412104
0.4388696 0.4391442 0.4398462 0.4404566 0.4397546 0.4391442 0.4394799 0.4409754 0.4415553 0.4417079 0.4415858 0.4405786 0.4401819 0.4397852 0.4401514 0.4407007 0.4416773 0.4415553 0.4403955 0.4369468 0.4325215 0.4295611 0.4279741 0.4288592 0.4282793 0.4271501 0.4261124 0.426967 0.427791 0.4281572 0.4282183 0.4283709 0.429378 0.4307819 0.431789 0.4305378 0.4301715 0.4286456 0.4269364 0.4243728 0.4221144 0.419917 0.4203748 0.4216871 0.4219313 0.4200085 0.4166819 0.4129891 0.409693 0.405817 0.4027345 0.4005066 0.4007203 0.4023683 0.4038027 0.405878 0.4078618 0.4106696 0.4131722 0.4149423 0.4153391 0.4155222 0.4154306 0.4153696 0.4150339 0.41363 0.4121956 0.4119209 0.4138436 0.4164988 0.417567 0.4173534 0.4180553 0.4169566 0.4145456 0.4131417 0.4144845 0.4175975 0.4205274 0.4232436 0.4224501 0.4218092 0.4208631 0.4191845 0.4172313 0.4148813 0.4135384 0.4126839 0.4119209 0.4108832 0.4098456 0.4094183 0.4092352 0.4094488 0.4093878 0.4098456 0.410578 0.4125008 0.4134469 0.4147897 0.41598 0.4186352 0.4218092 0.4254105 0.427028 0.4275163 0.4273942 0.426967 0.4259598 0.4242202 0.423915 0.424617 0.4261124 0.4285235 0.4315449 0.4320942 0.4317585 0.4306293 0.4297748 0.4287066 0.4282183 0.4291339 0.4306293 0.4321553 0.4313007 0.4301715 0.4288287 0.4284014 0.4283709 0.4286761 0.4289202 0.429317 0.4296832 0.4299273 0.4307209 0.4312397 0.4319111 0.4322774 0.4332235 0.4340475 0.4342001 0.4339865 0.43243 0.4322163 0.4320637 0.4320027 0.4313618 0.431728 0.430904 0.4288897 0.4261124 0.4223891 0.4209241 0.4193982 0.4187267 0.4181163 0.4182689 0.4208631 0.42303 0.4240371 0.4236709 0.4234267 0.4227553 0.4238845 0.4261124 0.4279741 0.4288592 0.4294696 0.4302326 0.4307819 0.430904 0.4318196 0.4316365 0.4305378 0.4288592 0.4272417 0.4275163 0.4266618 0.4254715 0.4228469 0.4212599 0.4216871 0.4226027 0.4229384 0.423091 0.4235183 0.4212904 0.419215 0.4172618 0.4166514 0.4162852 0.4153696 0.4147287 0.4143319 0.4134164 0.4112495 0.4077092 0.4037417 0.3997742 0.3984618 0.3996521 0.4028566 0.4043826 0.4062138 0.4054202 0.4056339 0.4067936 0.4083196 0.4110053 0.4098456 0.4088689 0.407343 0.4067326 0.4068852 0.407465 0.4084722 0.4092352 0.4100592 0.4113105 0.4128365 0.4142098 0.4157053 0.4172007 0.4182384 0.4210767 0.4240981 0.4284624 0.4323689 0.4355124 0.4366416 0.4389306 0.4431423 0.4465299 0.4502838 0.4520234 0.4542208 0.4558994 0.457578 0.4581884 0.4574864 0.4564182 0.4544955 0.4539157 0.4539767 0.4534273 0.4510468 0.4486968 0.4483916 0.4484527 0.4471098 0.4451261 0.4433864 0.4421962 0.4415553 0.4425929 0.4429286 0.4414332 0.4392053 0.4357871 0.4322163 0.4289507 0.4280657 0.43008 0.434017 0.4370079 0.4375877 0.4367637 0.4351767 0.434139 0.4329183 0.4312397 0.4313618 0.4315144 0.431789 0.4290423 0.4248611 0.4195813 0.4158274 0.4123176 0.4093572 0.4048404 0.401117 0.3991332 0.3987365 0.3999573 0.400293 0.3966001 0.3934566 0.3919002 0.3922358 0.3923885 0.3930599 0.3948911 0.3971495 0.4003235 0.4026124 0.4051151 0.4060307 0.4076787 0.4101813 0.4124092 0.4142404
0.4391137 0.4398462 0.4399377 0.4398157 0.4389611 0.4391442 0.4400903 0.4421657 0.4428981 0.4431423 0.4430202 0.4424098 0.441952 0.4403345 0.4393579 0.4388085 0.4380455 0.4359092 0.4331319 0.4301715 0.4272111 0.4252884 0.4243423 0.4250137 0.4244644 0.4238235 0.4245865 0.4271501 0.4288287 0.4296527 0.4302326 0.4306293 0.4317585 0.4320332 0.4316365 0.4295917 0.4281572 0.4262345 0.423915 0.421565 0.4201916 0.4190014 0.420741 0.4226943 0.4226637 0.4205579 0.4169566 0.4128975 0.4095709 0.4062138 0.4035891 0.4025819 0.403406 0.4049014 0.4065189 0.4081365 0.4099982 0.4127144 0.4150949 0.4164378 0.4160105 0.4161631 0.4161021 0.416041 0.4154917 0.4140267 0.4123787 0.4124703 0.4150034 0.4169261 0.4172923 0.4168956 0.4176585 0.4167735 0.4147592 0.4146371 0.4170787 0.4208936 0.423854 0.4260514 0.4244033 0.4233657 0.4220533 0.4198865 0.4174449 0.4147592 0.4133858 0.412867 0.4120125 0.4107917 0.4101813 0.4103644 0.4096625 0.4095709 0.4092352 0.409815 0.410578 0.4131722 0.4146982 0.4161326 0.417628 0.4200696 0.4228774 0.4260209 0.4269059 0.4273637 0.4274553 0.4271501 0.4262955 0.4242508 0.4235488 0.4244033 0.4269364 0.4296527 0.4315144 0.4311481 0.4306598 0.430141 0.4294696 0.4282793 0.4279741 0.428554 0.4304767 0.4330709 0.4334981 0.4326436 0.4319111 0.4318501 0.4316365 0.4303546 0.4296832 0.43008 0.4307209 0.4313618 0.4324605 0.4323079 0.4331624 0.4338644 0.4349631 0.4360618 0.4356955 0.4355124 0.4336202 0.4323384 0.4316365 0.4308429 0.4289202 0.4285845 0.4274858 0.4261124 0.423915 0.4210767 0.4203443 0.4197034 0.4196728 0.4199475 0.4204969 0.4231826 0.4245559 0.424617 0.4229994 0.4223891 0.4217176 0.4238235 0.4265092 0.428493 0.4291949 0.4296527 0.4304462 0.4313618 0.4321858 0.4332235 0.4328267 0.4314839 0.4301715 0.4287371 0.4290423 0.4282488 0.4263261 0.4243728 0.4233657 0.4243728 0.4249832 0.4255631 0.4252884 0.4250748 0.4224196 0.421443 0.4209241 0.4210462 0.4208021 0.4191845 0.4179943 0.4172618 0.4158274 0.4118293 0.4073735 0.4031618 0.3997131 0.3995605 0.4022462 0.4065189 0.4082586 0.409754 0.4085943 0.4074956 0.4080755 0.4090826 0.4096625 0.4088995 0.4088079 0.4075261 0.4070683 0.4070988 0.4080755 0.4094793 0.4097235 0.4109138 0.4126534 0.4142709 0.4150644 0.4159189 0.4171702 0.4188183 0.4220228 0.4253189 0.4289507 0.4320637 0.4349326 0.4369774 0.4402429 0.4451566 0.4488494 0.4526643 0.4548312 0.4565098 0.4580052 0.4589208 0.4589514 0.4579747 0.4566014 0.4554111 0.4553806 0.4556247 0.4547702 0.4522981 0.451352 0.4511689 0.4503143 0.448239 0.4453702 0.4434475 0.4422877 0.4423183 0.4430507 0.4430812 0.4407923 0.4385949 0.4359702 0.4335592 0.4316059 0.4306293 0.4316365 0.4344137 0.4370689 0.4376183 0.4362449 0.4347494 0.433254 0.4323689 0.4304767 0.4312092 0.4320942 0.4325826 0.4295306 0.4256852 0.421443 0.4187878 0.4157663 0.4116157 0.4068852 0.403467 0.4020021 0.4017274 0.4012086 0.3989196 0.3951352 0.3926631 0.3918086 0.3918696 0.3920833 0.3927547 0.3953183 0.397943 0.4020631 0.4050235 0.4078008 0.4090216 0.4111884 0.4139352 0.4162546 0.4180248
0.4392663 0.440304 0.4401819 0.4397241 0.4391442 0.4395105 0.4406397 0.4429286 0.4436306 0.4439358 0.4440884 0.4436916 0.4428981 0.4400293 0.4384423 0.438076 0.4369468 0.4335287 0.4293475 0.4261735 0.4242202 0.423091 0.421565 0.42068 0.4199475 0.4203137 0.4228774 0.4271501 0.4299273 0.4316365 0.4320332 0.4320332 0.4334371 0.4328572 0.4314533 0.4292254 0.4272417 0.4250442 0.4229079 0.4212904 0.4208326 0.4203137 0.422267 0.423854 0.4229384 0.4204663 0.4170176 0.4130501 0.409754 0.4070378 0.4053592 0.4052982 0.406641 0.4079534 0.4094183 0.410578 0.4122566 0.4150339 0.4169261 0.4181468 0.4173839 0.4173534 0.4171092 0.4166819 0.4157663 0.4141793 0.4126839 0.4134164 0.4161631 0.4170787 0.4169566 0.4166209 0.4169261 0.4164378 0.4150644 0.4159495 0.4189404 0.4235793 0.4264787 0.4276994 0.4258378 0.4241897 0.422267 0.4195813 0.4169261 0.4144845 0.4135384 0.4131722 0.412165 0.4109138 0.4108222 0.4118904 0.4109748 0.4111274 0.4112189 0.4114326 0.4117073 0.4139352 0.4160105 0.4179332 0.4203137 0.4226332 0.4250442 0.4274553 0.4275163 0.427852 0.427852 0.4272417 0.4262345 0.4243118 0.4236709 0.4251969 0.4287066 0.4313312 0.4320637 0.4305988 0.4299273 0.4303546 0.4294085 0.4282183 0.4281878 0.4291033 0.4314228 0.4342611 0.4350546 0.4347494 0.4345968 0.4342001 0.4336202 0.4316365 0.4307819 0.4305378 0.4308735 0.4310871 0.4318806 0.4315754 0.4329183 0.4342001 0.4355124 0.4368553 0.4360007 0.4350546 0.4329183 0.4310566 0.4294085 0.4279741 0.4259598 0.4252884 0.4240371 0.4226027 0.4211072 0.4198865 0.4203443 0.42068 0.4211378 0.422267 0.4235488 0.4252884 0.425502 0.4252274 0.4239761 0.4235183 0.4221144 0.4233046 0.4257157 0.4279436 0.4292559 0.4295306 0.4304157 0.4316975 0.4329793 0.434078 0.4334981 0.4319417 0.4310566 0.4305072 0.4305378 0.4298663 0.4278215 0.4262955 0.4257767 0.4266008 0.4267228 0.4271501 0.4269975 0.427028 0.4254715 0.4251663 0.4250442 0.4251053 0.4237319 0.4221144 0.4209241 0.4192456 0.4160105 0.4105475 0.4058475 0.4022157 0.4004456 0.4018495 0.4047183 0.4085332 0.4100897 0.4117378 0.4114631 0.4099066 0.4097845 0.4099982 0.4091436 0.4092962 0.4099066 0.4091741 0.4090521 0.4094183 0.4103339 0.4117073 0.4119514 0.4132637 0.4144235 0.4151559 0.4148508 0.4150644 0.4164683 0.4193676 0.4228774 0.4260819 0.4290728 0.431789 0.4347189 0.4373436 0.4409754 0.445828 0.4495514 0.4529085 0.4551364 0.4562961 0.4574559 0.4579747 0.458341 0.4578527 0.4569981 0.4566624 0.4573033 0.4571202 0.4563267 0.454404 0.4543124 0.4543124 0.4524812 0.4500397 0.4468046 0.4445156 0.4427455 0.4425014 0.4430507 0.4433559 0.4409449 0.4386559 0.4364585 0.4341696 0.4329793 0.432552 0.4327351 0.4340475 0.4362754 0.4368553 0.4357566 0.4343221 0.4321858 0.4316975 0.4300494 0.4314533 0.432491 0.4332845 0.4306903 0.4271806 0.4236099 0.4209852 0.4178417 0.4135384 0.4093878 0.4061832 0.4044436 0.4030702 0.4009034 0.3972105 0.3938839 0.3922053 0.3919002 0.3918391 0.3926631 0.3936703 0.3959592 0.398767 0.4031008 0.4065189 0.4095709 0.4114936 0.4142404 0.4165904 0.4186962 0.4206494
0.4397546 0.4408228 0.4408533 0.4404566 0.4403345 0.4404871 0.4410059 0.442715 0.4432949 0.4436001 0.4439053 0.4437527 0.4425014 0.4389001 0.437191 0.4374962 0.4373741 0.4342001 0.4296222 0.4260209 0.4245559 0.4239761 0.4219923 0.4195507 0.4184826 0.4197949 0.42303 0.4283403 0.4313312 0.432552 0.4316059 0.4311176 0.4318806 0.4316059 0.4301105 0.429317 0.4279436 0.4261124 0.4240676 0.4225111 0.4226332 0.4237014 0.4256241 0.4258378 0.4235793 0.4211378 0.4185436 0.4150644 0.4116462 0.4092047 0.4082891 0.4092047 0.4104865 0.4106696 0.4112495 0.4119514 0.41363 0.4163767 0.4179027 0.4191235 0.4190014 0.4190014 0.4185131 0.4174144 0.4161021 0.4146676 0.4135689 0.4147287 0.4174144 0.4175059 0.4173534 0.4171397 0.4163767 0.4157969 0.4151254 0.4166819 0.4197644 0.4248306 0.427791 0.4286456 0.426967 0.424617 0.4218702 0.4184826 0.4155527 0.4137215 0.4136605 0.4132027 0.4122871 0.4117683 0.4120735 0.4131417 0.4123482 0.4126534 0.4131722 0.41363 0.4146676 0.4168345 0.418391 0.4193676 0.4216261 0.4240981 0.4262345 0.4281572 0.4281878 0.4287371 0.4288592 0.4278826 0.4264787 0.4248306 0.4248611 0.4272417 0.4310261 0.4327657 0.4319722 0.430904 0.4309345 0.4320332 0.4309345 0.4298663 0.4298663 0.430904 0.433315 0.4359397 0.4369468 0.4368553 0.4365806 0.4353293 0.4344748 0.4329793 0.432552 0.4316059 0.4310261 0.4302936 0.4303546 0.4301715 0.4315449 0.4331014 0.4349936 0.4368553 0.4363059 0.4352377 0.433254 0.4307819 0.4285235 0.4270585 0.4252579 0.4238845 0.4225111 0.4208021 0.4197339 0.4193676 0.4204969 0.4221754 0.4228774 0.4239455 0.4248001 0.4252884 0.4243423 0.4240676 0.4236099 0.4236709 0.4224806 0.4232741 0.4258683 0.4282183 0.4295917 0.4298663 0.4306598 0.4321248 0.4334981 0.4343527 0.4333761 0.4316975 0.4311176 0.4316365 0.4312702 0.4307209 0.4289812 0.4276994 0.427028 0.4275469 0.4272722 0.4275774 0.4272722 0.4272722 0.4266618 0.4270891 0.4269975 0.4264481 0.4248306 0.4232131 0.4220839 0.4197339 0.4160715 0.4103644 0.4056034 0.4030092 0.4029177 0.4056339 0.4083806 0.4115547 0.4128365 0.4142404 0.4140878 0.4117988 0.4101202 0.4094793 0.4080449 0.4085638 0.409754 0.409754 0.4103644 0.4117683 0.4126534 0.4136605 0.4139047 0.4154917 0.4165598 0.416743 0.4154612 0.4154917 0.4166819 0.419856 0.4231826 0.4262345 0.4291033 0.4315754 0.4342916 0.4371605 0.4408228 0.4459195 0.4495819 0.4522676 0.4539767 0.4549838 0.4562351 0.456876 0.4580358 0.4583105 0.4583105 0.4586461 0.4598059 0.4591955 0.4583715 0.4569371 0.4564488 0.4557468 0.4533358 0.4504975 0.4472624 0.4452786 0.4435085 0.4435085 0.4440884 0.4449124 0.4425624 0.4398767 0.4374962 0.4347799 0.4335897 0.4338949 0.4337423 0.434017 0.435665 0.435726 0.4346884 0.4335592 0.4315449 0.431667 0.4306598 0.4322163 0.433254 0.4337423 0.4319111 0.4295611 0.4264787 0.423091 0.4196118 0.4155222 0.412104 0.4088689 0.406641 0.4034365 0.4000793 0.3960203 0.3936703 0.3925716 0.392419 0.3928157 0.3942806 0.3963865 0.3984923 0.4011475 0.4054813 0.4081365 0.4104865 0.412043 0.4146371 0.4170482 0.4190014 0.4208936
0.4406702 0.4417689 0.4421657 0.4417994 0.4415247 0.4413722 0.4415553 0.4425014 0.4429897 0.4430812 0.4429286 0.4424098 0.4408838 0.438015 0.4366722 0.4369468 0.4368248 0.4347189 0.4313007 0.4281572 0.4269059 0.4266923 0.4242202 0.4212904 0.4203137 0.422267 0.4254105 0.4301105 0.4313618 0.4316059 0.4300494 0.4297137 0.430202 0.4303851 0.429378 0.429378 0.428615 0.4276079 0.426204 0.4251358 0.4252884 0.427028 0.4287066 0.4280962 0.4251358 0.4219618 0.4195507 0.4168651 0.4142404 0.4122871 0.4119514 0.4131722 0.4142709 0.4137215 0.4131112 0.4131722 0.4147897 0.4174754 0.4191235 0.4205579 0.4207105 0.4206189 0.419978 0.4187573 0.4174449 0.416041 0.4155527 0.4162241 0.4179332 0.4178112 0.4175059 0.416743 0.4156137 0.4154917 0.4156748 0.4172618 0.4194592 0.4233046 0.4265702 0.4279741 0.4269059 0.4243423 0.4214735 0.4180858 0.4154917 0.4141793 0.4143625 0.4139657 0.4132027 0.4132332 0.4138131 0.4146371 0.4134774 0.4135689 0.4139962 0.4150339 0.4168345 0.4185436 0.4192761 0.419093 0.4212599 0.423915 0.4261735 0.4280046 0.4283098 0.4283403 0.4281878 0.4275469 0.4264176 0.4252274 0.4263871 0.4296222 0.4336812 0.4346884 0.4334066 0.4327657 0.4328572 0.4338644 0.432491 0.431667 0.4312702 0.43243 0.4350241 0.4375267 0.4381066 0.4376183 0.4369468 0.4356955 0.4347799 0.4339865 0.4336202 0.4321248 0.4314228 0.4305378 0.4300494 0.4301715 0.4313007 0.4333761 0.4353598 0.4369774 0.437191 0.4360313 0.4336812 0.43008 0.4269975 0.4253189 0.4245559 0.4228469 0.4213514 0.4195202 0.4189709 0.4196728 0.4214735 0.4235793 0.4236709 0.4240371 0.4238235 0.4234572 0.4224501 0.4226027 0.4227248 0.4234572 0.4235183 0.4244949 0.4268449 0.4282183 0.4296832 0.4305072 0.4312397 0.4323384 0.4327962 0.4328267 0.4321553 0.4313007 0.4313923 0.4329793 0.4328267 0.4321858 0.4299273 0.4286761 0.4274858 0.4272417 0.4266008 0.4263566 0.4257767 0.426143 0.4269364 0.4276994 0.4271806 0.4255325 0.4240676 0.4228469 0.4220839 0.4194897 0.4158274 0.4111884 0.4075871 0.405817 0.4067631 0.4100592 0.4124703 0.4150644 0.4158884 0.4168345 0.4158884 0.4134774 0.4104254 0.4088384 0.4077092 0.4080449 0.4090826 0.4099677 0.4110358 0.4136605 0.4149423 0.4156137 0.4160715 0.4172923 0.4181774 0.4184215 0.4173228 0.4172313 0.4180553 0.4208021 0.423915 0.4266923 0.4298663 0.4321553 0.4346274 0.4379845 0.4417994 0.4464689 0.4498871 0.4519929 0.4530916 0.4541903 0.455991 0.4571812 0.4587682 0.4597143 0.4605384 0.4609962 0.4616676 0.4610877 0.4609351 0.4599585 0.4590734 0.4570591 0.4538241 0.4503754 0.4472319 0.4457364 0.4441494 0.4446683 0.4449734 0.4451261 0.4428066 0.4404261 0.4389916 0.4366111 0.4349631 0.4353904 0.4353598 0.4352377 0.4362144 0.4353293 0.4343527 0.4333455 0.431728 0.431789 0.4319111 0.4338033 0.4338338 0.4329488 0.4306903 0.4288287 0.4265397 0.4237014 0.4214124 0.4176585 0.4140573 0.4103339 0.4083806 0.4048404 0.401056 0.3966917 0.3946469 0.394067 0.3935787 0.3945248 0.3960813 0.3981566 0.4000488 0.4024293 0.4062748 0.4080449 0.4098761 0.4106086 0.4126228 0.414454 0.4165293 0.4191845
0.4414332 0.4426234 0.442715 0.4415858 0.441128 0.4405481 0.4409144 0.4416163 0.441891 0.4415858 0.441128 0.4404871 0.4392358 0.4376793 0.4365806 0.4365501 0.4360313 0.4343527 0.4315144 0.4289202 0.4278826 0.4276689 0.4251358 0.4226332 0.4224501 0.4251053 0.4282793 0.4318501 0.4307209 0.4291644 0.427852 0.4283403 0.4287981 0.4290118 0.4281267 0.4285235 0.4287981 0.4287676 0.4280046 0.4273942 0.4278215 0.4295306 0.4302631 0.4290118 0.4259293 0.4226332 0.419917 0.4180248 0.416041 0.4154917 0.4162546 0.4172923 0.4181163 0.4170176 0.4156137 0.4150034 0.4164378 0.4186046 0.4198865 0.4212599 0.4216871 0.4216871 0.4209546 0.4194592 0.4177806 0.4165293 0.4167735 0.4172923 0.4179943 0.417628 0.4170176 0.4160715 0.4154612 0.4155832 0.4157969 0.4166209 0.4179332 0.4210462 0.4242202 0.4259903 0.4259903 0.423854 0.4216566 0.4186657 0.4165904 0.4154001 0.4155222 0.4153391 0.4150034 0.4154001 0.4155527 0.4157969 0.4141793 0.4138131 0.4140878 0.4156748 0.417628 0.4187573 0.4190014 0.4181774 0.4202222 0.4226637 0.4244949 0.4260209 0.4263566 0.4263261 0.4260514 0.4259598 0.4258683 0.4261735 0.4287371 0.4326741 0.4367027 0.4369163 0.435604 0.4351462 0.4347799 0.434902 0.4329488 0.4318806 0.4314839 0.4325826 0.4346579 0.4359702 0.4361228 0.4360923 0.4362144 0.4356345 0.4351157 0.4350241 0.4345968 0.4328267 0.4320027 0.4308429 0.430202 0.4307514 0.4318196 0.4342306 0.4363365 0.4376488 0.4379845 0.4361533 0.4332845 0.4284319 0.4245865 0.4232131 0.4232436 0.4214735 0.4202832 0.4179943 0.4180858 0.4200391 0.4222365 0.423793 0.4229689 0.4224806 0.4218092 0.4211683 0.4201611 0.4201001 0.4203137 0.4218702 0.4237014 0.4262345 0.4285845 0.4294696 0.4308124 0.4314839 0.4319111 0.4323079 0.431728 0.4311787 0.4306903 0.4305072 0.4307209 0.43243 0.4328267 0.4327351 0.4308124 0.4295001 0.4277605 0.4268449 0.4258683 0.425502 0.4251358 0.4257462 0.4268449 0.4271196 0.4267228 0.4251969 0.4237319 0.4225722 0.421504 0.4192456 0.4162241 0.4130501 0.4107917 0.4099066 0.4113105 0.4141793 0.4165904 0.4184826 0.4194897 0.4194897 0.4175365 0.4150034 0.4118904 0.4099982 0.4097235 0.4102118 0.4107001 0.4111884 0.4126839 0.4162546 0.4176585 0.4181774 0.4179637 0.4188488 0.4202222 0.4209241 0.4206494 0.419978 0.4202832 0.4226332 0.4248917 0.4271501 0.4300189 0.4323079 0.4344748 0.4382897 0.4421657 0.4461027 0.4494598 0.451291 0.4522371 0.4538546 0.4562351 0.4579442 0.4598669 0.4611182 0.4624306 0.4630715 0.4630104 0.4626747 0.4625526 0.461576 0.4598669 0.4573949 0.4538851 0.4498565 0.4470793 0.4463163 0.4453092 0.4459195 0.4457364 0.4450345 0.443539 0.4418605 0.4409449 0.438839 0.436367 0.4361838 0.4361838 0.436428 0.4367332 0.4352683 0.4342306 0.4335897 0.4321553 0.4323995 0.4331624 0.4352683 0.4344442 0.43243 0.4291339 0.4270585 0.4254105 0.4234878 0.4221449 0.4187878 0.4158579 0.412928 0.4109138 0.4068241 0.4022768 0.3972716 0.3953794 0.394769 0.3937313 0.3942501 0.3958372 0.398004 0.4003845 0.4031313 0.4067631 0.4077092 0.4087774 0.408991 0.4100592 0.4113715 0.4143014 0.4177501
0.4429592 0.4438137 0.4423793 0.4403345 0.4396631 0.4393884 0.4404871 0.4409144 0.4408228 0.4401208 0.4393274 0.4385338 0.4378624 0.4375877 0.4367332 0.4358787 0.4343221 0.4327046 0.4299884 0.4278215 0.4266618 0.4265092 0.4244949 0.4231521 0.4237624 0.4264787 0.4292254 0.4315144 0.430904 0.4293475 0.428615 0.4295306 0.4297442 0.4301105 0.4295611 0.4294085 0.4292254 0.4291033 0.4289202 0.4286456 0.4284319 0.4298358 0.4301715 0.4286761 0.4257462 0.4229689 0.4202832 0.419154 0.4179943 0.4189098 0.4201916 0.4207105 0.4210767 0.4200696 0.4184521 0.4170787 0.4178112 0.4195507 0.4202222 0.4211072 0.4219007 0.4219923 0.4212904 0.4193676 0.4171397 0.4161021 0.4172007 0.4179027 0.4176891 0.4167735 0.4153085 0.4146982 0.4154917 0.4164073 0.4161631 0.4159189 0.4161326 0.4183605 0.421565 0.4241592 0.4259598 0.4245865 0.4223891 0.4195507 0.4179332 0.416743 0.416804 0.4172007 0.4169566 0.4169261 0.4164378 0.4162241 0.415217 0.4142709 0.4139352 0.4154917 0.4173839 0.4176585 0.4180553 0.4177501 0.4201916 0.4223585 0.4231826 0.423854 0.4243423 0.4248917 0.4250137 0.425502 0.4263871 0.4285845 0.4323995 0.4363059 0.4391442 0.4388696 0.4381066 0.4381371 0.4374046 0.4361228 0.4334981 0.4322468 0.4321248 0.4330404 0.4339254 0.4337423 0.433315 0.4331014 0.4339559 0.4341085 0.434139 0.4353293 0.4353293 0.4338338 0.4328572 0.4319417 0.4315449 0.4330098 0.4341696 0.4355429 0.4370079 0.4376793 0.4383202 0.4365501 0.4327657 0.4276384 0.4240676 0.4224196 0.422267 0.4204053 0.4192456 0.4170176 0.4171397 0.4198254 0.4219313 0.4227248 0.4216261 0.4207105 0.4195507 0.4187573 0.4181774 0.4187573 0.4194287 0.4211988 0.4237624 0.4272111 0.4292254 0.4301105 0.4313923 0.4314533 0.4306903 0.4291644 0.4280657 0.4273332 0.4276384 0.4283098 0.4289812 0.4305072 0.4318501 0.432491 0.4314228 0.4297748 0.427852 0.4266313 0.4255325 0.4255936 0.4258988 0.4266618 0.4274553 0.4270891 0.4263566 0.4251053 0.4237624 0.422328 0.4214124 0.4199475 0.4180858 0.4166209 0.4147592 0.41363 0.4143319 0.4164988 0.4190014 0.4212599 0.4224806 0.4211988 0.4184521 0.4160105 0.4139047 0.4121345 0.4132332 0.413752 0.413691 0.4137826 0.4157969 0.4196423 0.4212293 0.421443 0.4205274 0.421443 0.4229384 0.423854 0.4234878 0.4222365 0.4219618 0.4237014 0.4256241 0.4276689 0.4300494 0.43243 0.4345358 0.438839 0.4428066 0.4462858 0.449704 0.4518403 0.4529085 0.4550449 0.4571202 0.4587682 0.4609351 0.4619117 0.4628273 0.4629189 0.4626442 0.4626747 0.4621254 0.4613929 0.4598059 0.4574559 0.4538546 0.4496124 0.4472929 0.4471709 0.4466215 0.4471098 0.4466215 0.4454923 0.4445767 0.443478 0.4430812 0.4410975 0.4378014 0.4367942 0.4366416 0.4364585 0.4360923 0.4347189 0.4342001 0.4343221 0.4330098 0.4336507 0.4351157 0.4374962 0.4359397 0.4331929 0.4300494 0.427791 0.4262345 0.4240981 0.4226027 0.4193982 0.4167124 0.4143014 0.4118598 0.4070683 0.4018495 0.3973021 0.3957456 0.3955625 0.3950131 0.3951962 0.3960813 0.3972411 0.3998047 0.4031008 0.40658 0.4073125 0.4079534 0.4081975 0.4093878 0.4108527 0.4140573 0.4177806
0.4432949 0.4435695 0.441952 0.4402429 0.4395105 0.4394189 0.4404261 0.4408228 0.4414027 0.4407923 0.439602 0.438015 0.4368248 0.4372826 0.4366722 0.4354209 0.4329793 0.430904 0.4282183 0.4264176 0.4258378 0.425441 0.4241287 0.4238845 0.4251358 0.4275774 0.4298663 0.4314228 0.4316365 0.4306598 0.4299273 0.4310871 0.4316059 0.4318501 0.4314839 0.4306598 0.4302326 0.4296222 0.4288592 0.4280657 0.4275774 0.4283709 0.4284319 0.4272722 0.4245559 0.4225722 0.4208326 0.4204358 0.4203137 0.4216261 0.4228163 0.4226637 0.4216261 0.4203137 0.419093 0.4179943 0.4182995 0.419917 0.4204969 0.4208021 0.4211683 0.4210157 0.4205274 0.4190319 0.4175365 0.4168956 0.4178417 0.4181163 0.4175365 0.4162241 0.4145761 0.414454 0.4158884 0.4167124 0.4163157 0.4163767 0.4166514 0.4182689 0.4214124 0.4246475 0.4269364 0.4258072 0.4234572 0.4208936 0.4195202 0.4188488 0.4186352 0.419154 0.4187878 0.418391 0.4172618 0.4165293 0.4158274 0.4147287 0.4143625 0.4159495 0.4178112 0.4172923 0.4179027 0.4181163 0.4203748 0.4223891 0.423091 0.4231521 0.4238235 0.4252579 0.426143 0.4275774 0.4289507 0.4321858 0.4366416 0.4396325 0.4407923 0.440365 0.4397546 0.4400598 0.4385338 0.436489 0.4345053 0.433315 0.4332845 0.4340475 0.434139 0.4332235 0.4325215 0.4323079 0.4334371 0.4339865 0.4342916 0.4358481 0.4363365 0.4365196 0.4359092 0.4350546 0.4349631 0.4361838 0.4370689 0.4372215 0.438076 0.4374962 0.4369468 0.4345358 0.4311787 0.4273942 0.4245865 0.4227858 0.4221754 0.419856 0.4181774 0.4168345 0.4168345 0.4193676 0.4208631 0.4212293 0.4209546 0.4196118 0.4179943 0.4172313 0.417567 0.4189098 0.4197339 0.4215955 0.4239761 0.427852 0.4296527 0.4304157 0.4312397 0.4304462 0.4281267 0.4249527 0.4228163 0.4229994 0.4246475 0.4260514 0.4266008 0.4275774 0.429439 0.4306598 0.4302326 0.4288897 0.4272111 0.4264176 0.425502 0.4258378 0.4267839 0.4275163 0.4284319 0.4280352 0.4271196 0.4259598 0.4247391 0.4232741 0.4223585 0.421443 0.4205274 0.4201916 0.419093 0.4186046 0.4184521 0.4193371 0.42068 0.4216261 0.422267 0.4205884 0.4184521 0.4174754 0.4169261 0.4159189 0.4174754 0.4174754 0.4172923 0.4181163 0.4200696 0.422328 0.4231521 0.4233352 0.423091 0.4244949 0.4258988 0.426265 0.4250442 0.4240371 0.4242202 0.4259293 0.4272722 0.4287981 0.4294696 0.4311787 0.4331929 0.4377403 0.4423183 0.4464384 0.4498565 0.4521455 0.4538546 0.4560215 0.4575475 0.4587682 0.4609046 0.4618507 0.4617592 0.4609656 0.4601721 0.4603858 0.4600195 0.4596533 0.4580358 0.4558994 0.452878 0.4496429 0.4484527 0.4487273 0.4482695 0.4491241 0.448941 0.4477812 0.4463773 0.4449734 0.4443936 0.4425014 0.4396631 0.4378319 0.4370079 0.4361838 0.4351462 0.4334676 0.433254 0.4342306 0.4342916 0.4360618 0.4375267 0.438839 0.4369163 0.434139 0.4315754 0.4294085 0.4271806 0.4243118 0.4220533 0.4191235 0.4170176 0.4143319 0.4110664 0.4055729 0.4012696 0.398706 0.3977293 0.3981261 0.397882 0.3974242 0.3969664 0.3970274 0.3992553 0.4020326 0.4048404 0.4060001 0.40658 0.407343 0.4091436 0.4115852 0.4150034 0.419154
0.4417689 0.4417689 0.4406397 0.4401819 0.4398462 0.4396936 0.4405481 0.4409449 0.4425319 0.4424098 0.4410059 0.4385338 0.4367027 0.437191 0.4367637 0.4354514 0.4322468 0.4299579 0.4274553 0.426143 0.4258378 0.4250748 0.4245254 0.4251053 0.4266618 0.4280657 0.4298053 0.4306903 0.4313618 0.4310871 0.4308124 0.4324605 0.4331319 0.4333455 0.4327962 0.4317585 0.4314228 0.4308735 0.4293475 0.4273637 0.4261124 0.4261124 0.4260819 0.4256546 0.4234572 0.4224196 0.421565 0.4218092 0.4224196 0.4237624 0.4244644 0.4233046 0.4210157 0.4193982 0.4187267 0.4185131 0.419154 0.4205884 0.4211683 0.421443 0.4210157 0.4204969 0.4200391 0.4192761 0.4187573 0.4185436 0.4189709 0.4190319 0.4184215 0.4167124 0.4151865 0.4153696 0.4170176 0.4171702 0.4164683 0.4170787 0.4175365 0.4187573 0.4224196 0.4260514 0.4281878 0.4273942 0.4251053 0.4226027 0.4210462 0.4204663 0.4204053 0.4211683 0.4207105 0.4195202 0.4178112 0.4162852 0.4161326 0.4157663 0.4161631 0.4174449 0.4188488 0.4180858 0.4186046 0.4194592 0.4210462 0.4226943 0.4236099 0.4237014 0.4249527 0.426967 0.4282183 0.4302936 0.4323689 0.435665 0.4394799 0.4414942 0.4420131 0.4413111 0.440365 0.4407007 0.4394799 0.4378319 0.4366111 0.4355735 0.4354819 0.4366416 0.4367332 0.4358481 0.4352988 0.434841 0.4359092 0.4369163 0.437191 0.4383813 0.4389306 0.439602 0.4389001 0.4378319 0.4376183 0.4389611 0.4397241 0.4390222 0.4392663 0.4381676 0.4366416 0.4336202 0.4303851 0.4272417 0.4250442 0.4232436 0.4224806 0.4201306 0.4180553 0.4169871 0.4163157 0.4179332 0.4194592 0.419978 0.4197339 0.4182079 0.416804 0.4169871 0.4179637 0.4194592 0.4205579 0.4226637 0.4251663 0.4286761 0.4304767 0.4315449 0.4316059 0.4299579 0.4269059 0.4234267 0.4215345 0.4216871 0.4234878 0.4250748 0.4256241 0.4263871 0.4279741 0.4290423 0.4287981 0.427791 0.4265397 0.4262955 0.4255631 0.4260819 0.4274248 0.4280046 0.4288287 0.4282488 0.4273027 0.4263566 0.4257157 0.4245559 0.423854 0.4233962 0.4231826 0.4229079 0.4225111 0.4221144 0.4218702 0.4222365 0.4232131 0.4229994 0.4224196 0.4205274 0.4194592 0.4193982 0.419856 0.4197949 0.421443 0.4215955 0.4211072 0.4224196 0.423854 0.4249527 0.4253494 0.4259903 0.4264176 0.4273027 0.4282488 0.4278215 0.4261735 0.4257462 0.4264787 0.4284014 0.4297748 0.430904 0.4306598 0.4323079 0.4343221 0.4387475 0.4437527 0.448178 0.451413 0.4534579 0.4548312 0.4564182 0.4577306 0.4586461 0.4608436 0.461637 0.4606909 0.4594091 0.4582799 0.4581578 0.458402 0.4586461 0.456815 0.4547702 0.4519319 0.4501923 0.4505585 0.4509553 0.4508942 0.4514741 0.4511689 0.449826 0.4483916 0.4472014 0.4460111 0.4438442 0.4408838 0.4385033 0.4370689 0.435726 0.434139 0.4323995 0.4321858 0.4343221 0.4358787 0.4381371 0.4389916 0.4383202 0.4362144 0.4331014 0.4315144 0.4291949 0.4269059 0.423793 0.4210767 0.4183605 0.4168956 0.414454 0.4111884 0.405878 0.4023683 0.4010254 0.400354 0.4009949 0.400354 0.3993469 0.3985229 0.397943 0.3998657 0.4016969 0.4032229 0.4044741 0.4053897 0.4071904 0.4096014 0.4127449 0.4169871 0.4218092
0.4371605 0.4365501 0.4362449 0.4373131 0.4383202 0.438778 0.4398157 0.4405786 0.4429592 0.4436611 0.442654 0.4400903 0.438076 0.4382592 0.4379845 0.4368858 0.433254 0.4306293 0.4280962 0.4268144 0.426265 0.4251969 0.4255631 0.4266008 0.4281267 0.4288897 0.4295917 0.4291949 0.429317 0.4298358 0.430965 0.4331624 0.4339559 0.4338949 0.4328572 0.431789 0.4316975 0.4310566 0.4293475 0.427028 0.4252579 0.4242813 0.4237014 0.4237319 0.4226027 0.4227248 0.4227553 0.4234267 0.4244644 0.425502 0.4252579 0.4236404 0.4211988 0.4193982 0.4190014 0.4194897 0.4207715 0.4220228 0.422267 0.4220533 0.4213819 0.42068 0.4202832 0.4203443 0.4204053 0.4206189 0.4204053 0.4204358 0.419856 0.4182384 0.4172618 0.4175365 0.4182995 0.4175975 0.4163767 0.4171397 0.4179027 0.4189098 0.4229384 0.4265092 0.4276384 0.4267839 0.4253494 0.4239455 0.4225722 0.4220228 0.4217176 0.4223891 0.4218092 0.4201001 0.4182079 0.4163767 0.4166819 0.4172313 0.4186046 0.4195507 0.42068 0.4203443 0.4210767 0.4225111 0.4229079 0.4232131 0.4240066 0.4242813 0.4252274 0.4276079 0.4297137 0.4320332 0.4349326 0.4378014 0.4410975 0.4424403 0.4425319 0.4420131 0.441128 0.4412806 0.4406702 0.4394189 0.4385644 0.4375877 0.4381371 0.4395715 0.439602 0.4390222 0.4390222 0.4390222 0.4398767 0.4412501 0.4413416 0.4424098 0.4431728 0.4434475 0.4414332 0.439602 0.4389306 0.4400903 0.4412806 0.4404261 0.4403955 0.4394799 0.4378929 0.4346579 0.4308429 0.4272722 0.4252884 0.423793 0.42303 0.4204663 0.4175975 0.4164073 0.4155527 0.4163767 0.4177806 0.4181774 0.4182384 0.4172618 0.4161631 0.4172618 0.4189709 0.4202527 0.4214124 0.4234878 0.4257462 0.4288287 0.4308429 0.4323995 0.4319111 0.4298968 0.4267228 0.4240066 0.4222975 0.4220839 0.4233962 0.4252579 0.4264481 0.4269975 0.4272417 0.4274858 0.4273942 0.4269059 0.4261124 0.426143 0.4258988 0.426204 0.4273942 0.4276994 0.4283098 0.4279131 0.4268754 0.4264176 0.4262955 0.4258378 0.4249832 0.424617 0.424678 0.4245865 0.4246475 0.4241897 0.4240676 0.4249222 0.4258988 0.4247696 0.4231521 0.4211378 0.4210462 0.4216566 0.4229079 0.4233352 0.4247085 0.4254715 0.42538 0.4268754 0.4274248 0.4273637 0.4275163 0.4289507 0.4300494 0.4300494 0.4302936 0.4292865 0.4278215 0.4282183 0.429317 0.4308124 0.4320332 0.4327046 0.4331929 0.4350546 0.4368858 0.4407923 0.4452176 0.4492462 0.4514741 0.4530306 0.4539767 0.4556247 0.4576695 0.4593786 0.4617897 0.4628578 0.4621254 0.4607215 0.4591955 0.4577611 0.4573338 0.456876 0.4548312 0.4523591 0.4492767 0.448239 0.4493072 0.4505585 0.4522066 0.4529696 0.4524812 0.4511384 0.4502838 0.4493072 0.447476 0.4448209 0.4416163 0.4385033 0.436489 0.4355429 0.4338644 0.43243 0.4320027 0.4348105 0.4372215 0.4389306 0.4386864 0.4366111 0.4343832 0.4308429 0.4285235 0.4258988 0.4241287 0.4224196 0.4197949 0.4174754 0.4158579 0.412928 0.4092657 0.4053287 0.4032229 0.4028566 0.4021242 0.4022768 0.4009339 0.4002625 0.4006898 0.401056 0.4021242 0.4031923 0.4038027 0.4048099 0.404993 0.4072209 0.4101508 0.4141183 0.4191845 0.4243728
0.4344137 0.4335592 0.4334066 0.434841 0.4368248 0.4385033 0.4403955 0.4414942 0.4435695 0.4445156 0.4439358 0.4412806 0.4391442 0.4390222 0.4383813 0.4371605 0.4337118 0.4305072 0.4276994 0.4263871 0.4256546 0.4244033 0.4256241 0.4272111 0.4289202 0.4291949 0.4292254 0.4283098 0.4282183 0.429378 0.4310261 0.4336202 0.4341696 0.4338033 0.4323384 0.4313312 0.4311787 0.4304157 0.4285845 0.426265 0.4241592 0.4225416 0.421443 0.4217482 0.4218702 0.4229689 0.4235488 0.4247391 0.4258683 0.4262955 0.4251358 0.4235488 0.4216566 0.4202222 0.4199475 0.4208631 0.4226332 0.4239761 0.4237624 0.4229689 0.4223585 0.4217482 0.4215955 0.4218397 0.4219007 0.4220839 0.421504 0.4213209 0.4204969 0.4192761 0.419093 0.4198254 0.4197339 0.4182995 0.416804 0.4166819 0.416743 0.4165904 0.419215 0.4209546 0.4210462 0.4201916 0.4198254 0.4210767 0.4215955 0.4225111 0.4225111 0.42303 0.4222975 0.4205579 0.4191235 0.4179637 0.4183605 0.4193371 0.4212293 0.4220839 0.4231215 0.4232741 0.423915 0.4247696 0.4242813 0.4235793 0.4233657 0.4236404 0.4247696 0.4273942 0.430141 0.4327657 0.4365196 0.4394799 0.4425929 0.4435695 0.443417 0.4426234 0.4423183 0.442715 0.4424403 0.4413111 0.4406702 0.4406397 0.4416773 0.4422267 0.4423488 0.4426234 0.4436306 0.4439663 0.4441494 0.4451871 0.4456144 0.4461942 0.4464689 0.4462858 0.4437527 0.4415553 0.4403955 0.4408838 0.4419825 0.4418299 0.441952 0.4411585 0.4393579 0.4359702 0.431667 0.4274553 0.4257157 0.4251358 0.423915 0.4212293 0.4180553 0.4170787 0.4165293 0.4162546 0.4166819 0.4167124 0.4165293 0.4162546 0.4159495 0.4175975 0.4198254 0.4212599 0.4231215 0.4250748 0.4276384 0.4297442 0.4313312 0.431667 0.4297748 0.4279131 0.4257157 0.4244949 0.4234572 0.4231521 0.4248001 0.4262955 0.4275774 0.4276079 0.4274553 0.4271501 0.4268754 0.4260209 0.4255631 0.4260514 0.4264481 0.4269975 0.4277605 0.4275163 0.4276689 0.4274248 0.4267228 0.4269364 0.4271806 0.4269059 0.4256241 0.424617 0.4237624 0.4237014 0.423793 0.4235488 0.4235793 0.4250137 0.4259293 0.4248306 0.4233962 0.4227248 0.4235488 0.4240066 0.4250137 0.4256852 0.4271501 0.4287066 0.4291033 0.4303546 0.430904 0.4303241 0.430202 0.4313312 0.432552 0.4327351 0.4325215 0.4309956 0.4300189 0.4313312 0.4327962 0.4337118 0.4337728 0.4340475 0.4359702 0.4383507 0.4401819 0.4438137 0.4477507 0.4510468 0.4525118 0.4535799 0.454465 0.4564488 0.4585241 0.4603553 0.4627358 0.4638039 0.4636819 0.4623085 0.4600195 0.4574864 0.4563267 0.4551975 0.452878 0.450528 0.448178 0.4475981 0.448178 0.4494598 0.4516877 0.4530306 0.4530001 0.4524812 0.4516877 0.4502533 0.4475065 0.4447598 0.4415858 0.4384728 0.4361838 0.4351462 0.4342001 0.4337728 0.4342611 0.4368858 0.4389611 0.4394189 0.4378929 0.4344748 0.431667 0.4281267 0.4254715 0.4231215 0.4218092 0.4208936 0.4188793 0.4176891 0.4161936 0.412867 0.4083501 0.4056949 0.4047183 0.4052982 0.4045047 0.4038027 0.4015138 0.4013001 0.4023073 0.403406 0.4044741 0.4056949 0.4063663 0.4067021 0.4062748 0.4081365 0.4113105 0.4152475 0.4206494 0.4256546
0.4334066 0.4326436 0.4325826 0.4339559 0.4363975 0.4389001 0.4414942 0.4430507 0.44418 0.4445767 0.4438442 0.441067 0.4391442 0.4382897 0.4369774 0.4351462 0.4319722 0.428615 0.4263261 0.4250748 0.4242508 0.4231826 0.4247085 0.4258378 0.4275163 0.4282183 0.4286456 0.427852 0.4276689 0.4292865 0.4313923 0.4343527 0.4347189 0.4338949 0.4322468 0.4311176 0.43008 0.4286456 0.4264787 0.4247696 0.4230605 0.4216871 0.4202832 0.4209546 0.4215955 0.4231215 0.4243118 0.4257157 0.4264787 0.4262955 0.4245559 0.4233657 0.4223891 0.4213514 0.421443 0.4227248 0.4245865 0.4256852 0.4252274 0.4243423 0.423854 0.4234572 0.4234878 0.4237624 0.423854 0.4237624 0.4229689 0.4222975 0.4209852 0.4198865 0.4201611 0.4213819 0.4207715 0.4190319 0.4174144 0.4161021 0.4149423 0.4137215 0.414515 0.4143319 0.4141183 0.4138741 0.4146371 0.4179027 0.4206189 0.4233352 0.4234572 0.4233962 0.4222975 0.4211378 0.4202527 0.4196728 0.4205579 0.4213514 0.4232741 0.4241897 0.4253189 0.4263871 0.427028 0.4271501 0.426143 0.4250748 0.4239455 0.4243728 0.4261735 0.4287981 0.4313923 0.434017 0.438839 0.4418299 0.4444851 0.445004 0.4446988 0.4439663 0.4438442 0.4440579 0.4436611 0.4427455 0.441952 0.4425929 0.4438137 0.4446072 0.4453702 0.4459501 0.4468046 0.4466825 0.4472014 0.4487884 0.4499786 0.4500397 0.4490631 0.4472624 0.4454618 0.44418 0.4432644 0.442715 0.4432644 0.4437222 0.4436611 0.4425624 0.4393579 0.4355124 0.4308124 0.426967 0.4252274 0.4250137 0.4235488 0.4218702 0.4194897 0.4188793 0.41833 0.4174449 0.4169871 0.4168956 0.4164378 0.4158274 0.4161021 0.4173839 0.4198254 0.4216261 0.424678 0.4269975 0.4294085 0.4305072 0.4313923 0.4312702 0.4290728 0.4270585 0.4244949 0.4233962 0.4226027 0.4229079 0.4252884 0.426265 0.4274858 0.4273637 0.4273332 0.4269975 0.4269059 0.4260209 0.4258988 0.4262345 0.4269059 0.4271196 0.4274553 0.4266618 0.426143 0.426143 0.4254715 0.4256241 0.4256241 0.4250442 0.4235183 0.4224806 0.4216871 0.4221754 0.4221449 0.4220533 0.4221754 0.4232131 0.4240066 0.4228469 0.4217482 0.4217176 0.4231215 0.4237319 0.4247085 0.4263261 0.4284319 0.4302936 0.4309956 0.4320942 0.432552 0.4320942 0.4322774 0.4332845 0.4343527 0.4347494 0.4350241 0.4342001 0.4342001 0.4355124 0.4367637 0.4370689 0.4368858 0.4367942 0.4388085 0.441067 0.442715 0.4460416 0.4495514 0.4519624 0.4531527 0.4543429 0.4558384 0.4582799 0.460813 0.4627358 0.4645974 0.4654825 0.464689 0.4626442 0.4598059 0.4566624 0.4549533 0.4534579 0.4507721 0.4488494 0.447415 0.4468351 0.4470793 0.4482695 0.4498871 0.4508637 0.4514436 0.4518098 0.4516267 0.4503449 0.4473845 0.4448819 0.4418605 0.4387169 0.4359092 0.4343832 0.4341085 0.4349936 0.4366722 0.4391442 0.4407313 0.4394494 0.4364585 0.4320637 0.4288897 0.4253189 0.4227248 0.4209546 0.4201001 0.4201611 0.4195507 0.4190624 0.4170176 0.4130196 0.4071293 0.4052677 0.4048404 0.4067021 0.4056034 0.4048404 0.402704 0.4026735 0.4036807 0.4050235 0.4060917 0.4073735 0.408106 0.4081975 0.4079534 0.4097845 0.4128059 0.4164988 0.4216261 0.4264787
