0.7021608 0.7001465 0.6996582 0.7012452 0.701703 0.701001 0.7029848 0.7002075 0.7035646 0.7093939 0.7067082 0.7072575 0.7076543 0.710401 0.7144601 0.7168711 0.7248672 0.7299334 0.7389672 0.7459257 0.7455289 0.7476653 0.7512055 0.754349 0.7585302 0.7603309 0.7680217 0.7744308 0.7698834 0.7662821 0.7693951 0.7686931 0.7625282 0.7562717 0.7556003 0.7499847 0.751236 0.7499542 0.7458341 0.7416834 0.7432705 0.7418056 0.7400659 0.7407373 0.7392114 0.7395471 0.7381432 0.7364341 0.7342672 0.7332601 0.7297809 0.72444 0.7273393 0.7254166 0.7259964 0.7286516 0.7281328 0.7260575 0.7256607 0.7214491 0.7258133 0.7282854 0.7296893 0.7327412 0.7279497 0.7263322 0.7266374 0.7282244 0.7209913 0.7136971 0.7097296 0.7084172 0.7067997 0.7005432 0.6971556 0.6959653 0.695416 0.6963621 0.6921504 0.687664 0.6894037 0.6878777 0.6871452 0.6861686 0.6923335 0.697827 0.6973387 0.6987426 0.7004212 0.6992004 0.6989868 0.6966978 0.700238 0.6999329 0.7049991 0.7100958 0.7094549 0.7051517 0.7052432 0.7049381 0.7081121 0.7066166 0.7083867 0.7112861 0.71269 0.7177257 0.7191601 0.7179393 0.7194653 0.7186108 0.7190685 0.7214186 0.7225783 0.7206861 0.7202283 0.7179393 0.7154062 0.7137582 0.7152231 0.713514 0.7137887 0.7156809 0.7172068 0.7181835 0.7199231 0.725264 0.727675 0.7324055 0.727614 0.727553 0.7271257 0.7311543 0.7290179 0.7271867 0.7241042 0.7231886 0.7172374 0.7156504 0.709577 0.7034426 0.70564 0.7030153 0.7004517 0.6991394 0.7031374 0.7082952 0.708753 0.7101569 0.7045107 0.702588 0.7047549 0.7030764 0.7012147 0.7004517 0.7024049 0.6984069 0.6993835 0.7024049 0.702588 0.7047549 0.7037478 0.7014588 0.6973997 0.6912348 0.6971861 0.7002075 0.6975218 0.6996887 0.7026185 0.7027407 0.7036868 0.7069523 0.7122322 0.7152536 0.722151 0.7269731 0.7289873 0.7330465 0.7337789 0.7350913 0.735427 0.7359763 0.7390588 0.7413477 0.7449185 0.7459257 0.7477568 0.7532198 0.7541964 0.7523347 0.7566685 0.7616127 0.75911 0.7595373 0.7590185 0.7604529 0.7543795 0.751938 0.7509919 0.7485198 0.7496796 0.7470244 0.744827 0.7426906 0.7446743 0.748001 0.7482756 0.7508698 0.7463834 0.7460477 0.7495269 0.7494659 0.748764 0.7455899 0.7464445 0.7505646 0.7482451 0.7467192 0.7494659 0.7537386 0.7547153 0.752762 0.7567601 0.7564244 0.7556309 0.7522126 0.752762 0.7528231 0.7560276 0.7607581 0.7584997 0.7603003 0.7621925 0.7617652 0.7611853 0.7595679 0.7579808 0.7546847 0.7517854 0.7479705 0.7470549 0.7468413 0.7483672 0.7445523 0.7491912 0.7480925 0.7481841 0.7486114 0.7531893 0.758286 0.7571263 0.7588659 0.7544711 0.7507783 0.7491302 0.749649 0.7496796 0.7447354 0.7438198 0.7465665 0.741775 0.7430263 0.7402796 0.7392724 0.7380517 0.7372581 0.7373192 0.7429958 0.736312 0.7328328 0.7259659 0.7201062 0.7181529 0.71504 0.7129036 0.7094549 0.7104315 0.7107978 0.7087225 0.7018556 0.6983764 0.6911433 0.6857413 0.6764634 0.6807361 0.6814686 0.6764634 0.6753036 0.6714582 0.6669719 0.6653238 0.6630043 0.6611732 0.6549167 0.6541232 0.6501251 0.6471037 0.6413355 0.6379784 0.6360251 0.6363609 0.6308674
0.7085394 0.7047244 0.7059452 0.7060367 0.7052127 0.7058231 0.7055789 0.7044192 0.7070439 0.7091497 0.7091802 0.7100348 0.711866 0.7114998 0.716627 0.7204114 0.7246231 0.7307575 0.7366172 0.7423244 0.7463834 0.7487029 0.7527315 0.7538607 0.7579198 0.7587743 0.7659159 0.7704938 0.7689983 0.769151 0.7673808 0.7648782 0.7640237 0.7587743 0.7542574 0.7507783 0.7518159 0.7500763 0.7485503 0.7465971 0.7433925 0.7446438 0.743423 0.7414088 0.7437283 0.7430874 0.7389062 0.7400354 0.7385094 0.7369835 0.7340231 0.7309101 0.7278886 0.729201 0.7301471 0.7318867 0.7300251 0.7295672 0.7251419 0.7229445 0.7245315 0.7266984 0.7278276 0.7293536 0.729964 0.7289263 0.7279497 0.7268205 0.7204114 0.7172679 0.7120796 0.7093023 0.7062504 0.7010316 0.6989257 0.6957822 0.696301 0.6929134 0.6903803 0.6900751 0.6881524 0.6874504 0.6894952 0.6918147 0.6934322 0.6970946 0.6968199 0.6975523 0.6984679 0.700879 0.699475 0.699475 0.7003601 0.7057316 0.7092108 0.7131783 0.7124153 0.709577 0.7061588 0.7060062 0.708692 0.7097906 0.7124153 0.7133614 0.7160471 0.7196789 0.7196484 0.7202283 0.7202283 0.7187634 0.7193432 0.7220594 0.7227004 0.7209607 0.7211133 0.7169322 0.71739 0.7144296 0.7142159 0.715925 0.7152841 0.7147958 0.715101 0.7173289 0.7201977 0.7223952 0.7234328 0.7279192 0.7272478 0.7256607 0.7263017 0.7270646 0.7269425 0.7223952 0.7225173 0.7200757 0.7177257 0.7132698 0.7102484 0.7040225 0.7045718 0.7021303 0.702466 0.7027712 0.7035646 0.7071965 0.7093633 0.7096075 0.7053348 0.7051212 0.7027407 0.7043276 0.7011842 0.700116 0.6986815 0.7000244 0.7006043 0.7037173 0.7037478 0.7014893 0.7035646 0.7000244 0.6979186 0.6976134 0.699353 0.7000855 0.6988342 0.6990783 0.7037783 0.7065555 0.7067692 0.7110724 0.7142159 0.7173595 0.7208081 0.7251114 0.7286211 0.7342978 0.7362815 0.7366477 0.7358848 0.7360984 0.7389367 0.7405237 0.7447049 0.7465971 0.7506257 0.7536166 0.7516328 0.7517854 0.7562717 0.760575 0.760514 0.7573705 0.7579808 0.7554783 0.7514802 0.7519075 0.7484282 0.748123 0.7467802 0.7468718 0.7443386 0.7451932 0.7435756 0.7429653 0.7451627 0.7466887 0.7458951 0.7478179 0.7475737 0.7476958 0.7484587 0.746475 0.7483672 0.7497101 0.7494048 0.7485503 0.7511445 0.7528231 0.755173 0.7569737 0.7594458 0.7608497 0.7601172 0.7601782 0.7616737 0.761338 0.7606055 0.7649698 0.7645425 0.765336 0.7647256 0.7657938 0.7627724 0.7653055 0.7642984 0.7640237 0.7603309 0.7563633 0.7532808 0.7525789 0.7531282 0.7536776 0.751877 0.7546237 0.7554172 0.7548068 0.757401 0.7609412 0.7636575 0.7617347 0.7565159 0.7526705 0.7512665 0.7499542 0.7500458 0.7475737 0.7474211 0.7462308 0.7461698 0.744827 0.7432705 0.7400049 0.7407373 0.7417139 0.7402796 0.7403406 0.7367393 0.7342672 0.7290179 0.7259964 0.720625 0.7199231 0.7146127 0.7117439 0.7106452 0.7090887 0.7100958 0.7055789 0.6984679 0.6948667 0.6873894 0.682964 0.6800036 0.6800952 0.6770738 0.6747848 0.6724043 0.6716108 0.6659037 0.6651102 0.660166 0.6579076 0.6520784 0.6506745 0.6484771 0.6444485 0.6437771 0.6391686 0.6368186 0.6338277
0.7129952 0.7114081 0.7122017 0.710462 0.7111945 0.711988 0.710462 0.7105842 0.7092413 0.7114387 0.7108283 0.7089361 0.7100653 0.7136361 0.7158945 0.7188549 0.7256302 0.7295367 0.7356711 0.7437893 0.7459257 0.7481536 0.7497711 0.7536166 0.7547458 0.7584386 0.7622841 0.7693646 0.7674419 0.7685711 0.7681133 0.7644815 0.7634438 0.7619789 0.7561191 0.7527925 0.7531587 0.7505646 0.7480315 0.7470549 0.7476653 0.7453458 0.7449796 0.7435146 0.7440029 0.7443386 0.7404932 0.7400964 0.7388757 0.7372581 0.7362205 0.7353049 0.7326802 0.7287127 0.7327718 0.7319172 0.7294146 0.7293231 0.7283465 0.7267289 0.7270341 0.7258744 0.7251725 0.7271562 0.7295672 0.7324971 0.7301471 0.7248672 0.7215101 0.7163218 0.7160776 0.7134835 0.7101569 0.7047244 0.7004517 0.6979796 0.6960569 0.6940426 0.693066 0.6912043 0.689129 0.690716 0.6898919 0.6941647 0.6929744 0.6963316 0.6956906 0.6961485 0.7007569 0.7000855 0.7036868 0.7044497 0.7048465 0.7068913 0.7106757 0.7149789 0.7152231 0.7122932 0.7098212 0.7092108 0.7093023 0.7132088 0.7154062 0.7157419 0.7182445 0.7198926 0.7209302 0.7210218 0.7199231 0.719099 0.722151 0.7234939 0.7210828 0.7240127 0.7197095 0.7183971 0.7171763 0.716566 0.715864 0.7154673 0.7163218 0.715864 0.7166575 0.7181835 0.7192211 0.718275 0.7217543 0.7228529 0.7227919 0.7202283 0.7224257 0.7242874 0.7236159 0.7204419 0.7175731 0.7158945 0.7132698 0.711866 0.7063724 0.7050296 0.7039919 0.6997803 0.7031069 0.7041445 0.7049991 0.7082341 0.7091802 0.7065861 0.7065861 0.7065555 0.7059757 0.7041445 0.7015809 0.699414 0.7014283 0.6994445 0.7014588 0.7031374 0.7012147 0.7014893 0.7017946 0.7012147 0.7007264 0.7019166 0.7013673 0.702466 0.7021913 0.6999634 0.7054874 0.7054569 0.7067692 0.711225 0.7143075 0.7172374 0.7221815 0.7278886 0.7288653 0.732253 0.7336873 0.7383263 0.7381737 0.7404627 0.7407984 0.7403711 0.7455899 0.749649 0.7492217 0.7512971 0.7513581 0.751175 0.7548984 0.7572178 0.7568211 0.7580113 0.7556309 0.7522737 0.7502899 0.7486114 0.7491607 0.7510224 0.7486724 0.7461088 0.7461393 0.7425075 0.742538 0.7415919 0.7429958 0.7468718 0.7481841 0.7472075 0.7483977 0.7461698 0.7502594 0.7508393 0.7510224 0.7460477 0.7473906 0.7478179 0.751114 0.7520906 0.7578282 0.7606055 0.7628334 0.7668009 0.7645425 0.7673808 0.7690288 0.767747 0.7666789 0.7684185 0.7678386 0.7667704 0.765275 0.76616 0.7680827 0.7677165 0.7669535 0.7697308 0.7665263 0.7626503 0.7602698 0.7587133 0.7575231 0.7575536 0.7596289 0.760514 0.7619483 0.7615516 0.7617652 0.7664958 0.7682049 0.7664958 0.7622535 0.7576451 0.7574925 0.7546542 0.751877 0.7491912 0.7499847 0.7472075 0.7479399 0.7467802 0.7473906 0.7445217 0.7436367 0.7447659 0.7396081 0.7359458 0.7375328 0.7345114 0.72914 0.7274614 0.7250503 0.7215406 0.7169627 0.7175731 0.7150705 0.711225 0.7114998 0.708814 0.7007569 0.6969725 0.6927302 0.6881524 0.6829945 0.6796985 0.6764329 0.6752121 0.6728316 0.6737472 0.6682537 0.6651712 0.6631264 0.6584874 0.6549167 0.6512238 0.6502777 0.6504303 0.6439907 0.6395959 0.638131 0.6344076
0.7146432 0.7139718 0.714338 0.7169627 0.7144296 0.7161997 0.715162 0.7137887 0.7137887 0.7115913 0.7089666 0.7078679 0.7109199 0.7135751 0.7147348 0.7209302 0.7241958 0.7295367 0.7352133 0.7392419 0.74089 0.7453153 0.7473295 0.7515107 0.752701 0.7581944 0.760636 0.7663432 0.7684795 0.7667399 0.7687237 0.7642373 0.7639931 0.7618873 0.7567295 0.7536776 0.7529756 0.7494964 0.7487335 0.748764 0.7481841 0.7454678 0.7461088 0.7471769 0.7460477 0.7476958 0.7425685 0.7393945 0.7391198 0.7405237 0.7381737 0.7377159 0.7357321 0.732253 0.7334127 0.7335653 0.7312153 0.7305439 0.7306964 0.7300556 0.7267594 0.7293536 0.727553 0.7282244 0.7304828 0.729964 0.7291095 0.7254166 0.722151 0.7205945 0.715925 0.7146127 0.7121101 0.7063724 0.7027407 0.7007264 0.6966367 0.6976744 0.6953244 0.6934017 0.6932186 0.691479 0.6916621 0.6949582 0.694775 0.6963316 0.6976744 0.6987121 0.7016419 0.7056705 0.7084172 0.7093023 0.7130562 0.7136971 0.7125069 0.7159861 0.7137887 0.713514 0.7120185 0.7138192 0.7138192 0.7140633 0.7168711 0.7193127 0.7195874 0.7219679 0.7232192 0.7232803 0.7212049 0.7188549 0.7204114 0.7219374 0.7218458 0.7234023 0.7212965 0.7185497 0.7194043 0.7180919 0.7160776 0.7184582 0.7165049 0.7153757 0.7164134 0.715864 0.7149179 0.7171763 0.7168711 0.7191601 0.7214491 0.7188244 0.71974 0.7204725 0.7199536 0.7165965 0.7133614 0.7133309 0.7107368 0.7095465 0.7052127 0.7042971 0.701764 0.7020997 0.7031069 0.7030153 0.7063114 0.7087225 0.7058231 0.7040225 0.704877 0.7053043 0.7053043 0.7058536 0.7039309 0.7033815 0.7009095 0.698651 0.6995056 0.7006348 0.6998108 0.7005432 0.7020387 0.7027102 0.7030764 0.7022828 0.7029238 0.7038088 0.7057926 0.7035646 0.7058231 0.7083257 0.7078374 0.7088751 0.7109199 0.7161081 0.7210523 0.7247757 0.7262406 0.729201 0.7324666 0.734725 0.7362205 0.7387536 0.7428127 0.7422938 0.7460172 0.7499542 0.7498932 0.7503204 0.7497711 0.7491302 0.7505035 0.7523652 0.7532808 0.7542574 0.7502289 0.7502594 0.748886 0.749588 0.748001 0.7505035 0.7466581 0.7463529 0.744064 0.7422938 0.7420497 0.7424464 0.7443691 0.744186 0.7475737 0.7483977 0.7500458 0.7495575 0.7517854 0.7500153 0.7512055 0.7483977 0.7487945 0.7509003 0.7501068 0.7544405 0.758988 0.7618873 0.7642068 0.7697613 0.7703412 0.7736068 0.773149 0.7744918 0.7749191 0.772386 0.7707074 0.7703107 0.7692425 0.7689983 0.7722029 0.7724165 0.7718977 0.7727522 0.7739425 0.7730269 0.7686016 0.7671061 0.7662211 0.7625282 0.7619789 0.7618873 0.7637185 0.765214 0.7684185 0.7686321 0.7709821 0.76851 0.7657633 0.762986 0.7607581 0.7571873 0.7536471 0.7520906 0.749588 0.7489776 0.748123 0.7469633 0.7474516 0.7468718 0.7450711 0.7439114 0.7381432 0.7349997 0.7362205 0.7331075 0.7315815 0.7300556 0.7289568 0.7239822 0.7186413 0.7183056 0.7148874 0.7114081 0.7092413 0.7071049 0.702588 0.6980101 0.6954465 0.6885186 0.6847952 0.6838796 0.6807361 0.6792101 0.6751205 0.673442 0.6690472 0.6669108 0.6620582 0.6616615 0.6579381 0.6550693 0.6548251 0.6536043 0.6487823 0.6455777 0.6419764 0.6387109
0.7186718 0.7169017 0.7201062 0.7227309 0.7209607 0.7168101 0.7158335 0.7188549 0.7143685 0.7128426 0.7091192 0.7082646 0.7128121 0.7126595 0.7150705 0.7191601 0.7231581 0.7270341 0.7338399 0.7365867 0.7388757 0.740188 0.7460477 0.7507172 0.7537692 0.7554172 0.7600256 0.7634743 0.7682659 0.7689068 0.7693036 0.7655802 0.7634133 0.7592321 0.7580113 0.7566685 0.7562107 0.7524873 0.7507477 0.7495269 0.7512971 0.7477263 0.7496185 0.7471159 0.7506867 0.7500458 0.748001 0.7412257 0.744186 0.7449185 0.7424464 0.7423854 0.7411646 0.7380822 0.736953 0.7349081 0.732375 0.7349387 0.7304523 0.7301776 0.7298114 0.7317951 0.7315815 0.730849 0.7308795 0.7297503 0.7274919 0.7247757 0.7252335 0.7231886 0.71974 0.7150095 0.7117744 0.7101263 0.7047855 0.7009095 0.6977965 0.6976134 0.6963621 0.6964841 0.6950803 0.693005 0.6941342 0.6934932 0.6979186 0.6996887 0.6995361 0.7035646 0.7033205 0.7075933 0.7111335 0.7161387 0.7156809 0.7172679 0.7147958 0.715803 0.7159556 0.7153451 0.7144296 0.7158945 0.7173289 0.7175426 0.7172068 0.721266 0.7219374 0.721388 0.7226698 0.7230971 0.7228835 0.7209607 0.71974 0.7206556 0.7200451 0.7201672 0.722914 0.7212965 0.7189465 0.7170542 0.7187634 0.7186108 0.7154978 0.7133309 0.7164134 0.7133309 0.7154062 0.7149789 0.7174816 0.7188854 0.7183361 0.7188244 0.715101 0.7139108 0.7136361 0.7136361 0.7139718 0.7102179 0.7095159 0.7043582 0.7028322 0.7047244 0.7040225 0.7039614 0.7051822 0.7063419 0.7059757 0.7089361 0.7076543 0.706403 0.7053043 0.7067082 0.7057011 0.7046634 0.7053653 0.7037478 0.6996582 0.6986205 0.6992614 0.7039309 0.7021913 0.6975828 0.7002991 0.7031374 0.7014893 0.7002686 0.7016724 0.7068608 0.7072575 0.7076238 0.7093633 0.7084478 0.707227 0.70329 0.7084783 0.7114998 0.715101 0.7197705 0.7226088 0.7285601 0.7310627 0.735549 0.7365257 0.7383263 0.7412867 0.7447659 0.747238 0.7493133 0.748886 0.7460783 0.7466581 0.7482451 0.7499237 0.7530672 0.752762 0.7499542 0.7474516 0.7474516 0.7482146 0.7464445 0.745712 0.7487029 0.7455289 0.7468107 0.7459562 0.7436062 0.7431789 0.740127 0.7424159 0.7445217 0.7460172 0.7485198 0.7487335 0.751114 0.7532808 0.7520295 0.7522737 0.7481841 0.7513276 0.7521821 0.7521211 0.7543795 0.759873 0.7615516 0.7655802 0.7707074 0.7741867 0.7782457 0.7788562 0.778673 0.7784289 0.779497 0.7753769 0.7740646 0.7746444 0.775499 0.7769334 0.7751023 0.7777269 0.7813587 0.7825184 0.7827016 0.7774827 0.7744308 0.7717451 0.7696087 0.7698224 0.7678996 0.7679607 0.7721419 0.7711042 0.7740036 0.7730269 0.7715009 0.7686016 0.7640847 0.7625893 0.7614906 0.7573705 0.7542574 0.751236 0.7487335 0.7499847 0.7462003 0.747299 0.7476043 0.7452847 0.7437283 0.7373192 0.7341757 0.7333211 0.7340231 0.735549 0.7355796 0.7296893 0.7252335 0.7220899 0.7162912 0.7169627 0.7118049 0.7122017 0.7115608 0.7058231 0.6995361 0.6949887 0.6894647 0.6870537 0.6831777 0.6825673 0.6791186 0.6760056 0.6737472 0.6707563 0.6669413 0.6646219 0.6613563 0.660807 0.6565342 0.6579381 0.6543978 0.6496063 0.6453336 0.6438991 0.6435329
0.7223952 0.7226698 0.7209607 0.7239822 0.7220899 0.7222731 0.7199536 0.7189465 0.7181835 0.7154368 0.7121406 0.710462 0.7127205 0.7161387 0.7190685 0.7215711 0.7262406 0.7275835 0.7309101 0.734786 0.7378991 0.7405847 0.7437893 0.7500153 0.7530062 0.7560276 0.7586218 0.7610328 0.7646341 0.7666484 0.7664042 0.7664958 0.7634438 0.7623757 0.7598425 0.7587743 0.7563938 0.7528841 0.7537081 0.7507477 0.7523957 0.7519075 0.751938 0.7552951 0.7554477 0.7545322 0.751877 0.7498016 0.7478484 0.7473906 0.7446438 0.7433315 0.7422633 0.7387536 0.736312 0.7349692 0.7344503 0.733016 0.7335653 0.7299029 0.730788 0.7300251 0.7326802 0.7305744 0.7314594 0.7300861 0.7278276 0.7252335 0.7245315 0.7208081 0.7187939 0.7169932 0.7122627 0.7115608 0.708692 0.7040835 0.7009705 0.7011842 0.6996582 0.6981627 0.6968199 0.6967893 0.6991699 0.6966367 0.6984679 0.7010621 0.7011842 0.7029848 0.7062504 0.7115608 0.7136056 0.7133919 0.7169322 0.7170848 0.7155588 0.7155588 0.7161387 0.7148569 0.7171763 0.718214 0.7189465 0.7185802 0.7167491 0.721388 0.721388 0.7216017 0.7232803 0.7247757 0.7269731 0.7248367 0.7231276 0.7232497 0.7246231 0.7244705 0.7224257 0.7218153 0.7210218 0.7195874 0.7177867 0.7185802 0.7187939 0.7175121 0.7163218 0.7162607 0.7181835 0.716566 0.7196484 0.7204725 0.7176341 0.7178172 0.7155588 0.715101 0.7134224 0.7108283 0.7114081 0.7071965 0.7052127 0.7044497 0.7041751 0.7054569 0.7042666 0.7053958 0.7039309 0.7042056 0.7049991 0.7033205 0.703351 0.7039309 0.7053043 0.7035036 0.704114 0.7021608 0.7045107 0.7038394 0.7024965 0.7035341 0.7014588 0.7035952 0.7023744 0.7010316 0.7046939 0.7043582 0.7046023 0.7046939 0.7043582 0.7089971 0.7097906 0.7085699 0.7107062 0.7095159 0.7062199 0.7063419 0.7098517 0.7125069 0.714277 0.7189159 0.7234023 0.726851 0.7321614 0.7378991 0.7379906 0.7389978 0.7427822 0.7454373 0.7469938 0.7481841 0.7458036 0.7479399 0.7479705 0.7490386 0.7521516 0.7522737 0.7496185 0.7503204 0.7499542 0.7494048 0.7464139 0.7463224 0.7462614 0.7464139 0.7465971 0.744125 0.745651 0.7436367 0.7413782 0.7405542 0.7429958 0.7456204 0.7484587 0.7487029 0.7501678 0.7530062 0.7527925 0.7564244 0.7561496 0.7562107 0.7552646 0.7573705 0.7569126 0.7587743 0.7633828 0.766984 0.7686321 0.7731185 0.7791003 0.7822438 0.7820607 0.7816334 0.7818165 0.7829458 0.7834646 0.7828847 0.7810535 0.7813282 0.7790698 0.7797717 0.7820302 0.7859977 0.7855399 0.7870964 0.7836477 0.780962 0.7782457 0.7755905 0.7760178 0.7719282 0.7712873 0.772447 0.775438 0.7743087 0.7756211 0.7736983 0.7710126 0.7674724 0.7649392 0.7606055 0.7572178 0.7557224 0.7525179 0.7523042 0.7494964 0.7460172 0.7469938 0.7443081 0.7427822 0.7399744 0.7386315 0.7366172 0.7341757 0.7336263 0.7358542 0.735549 0.7316425 0.7281634 0.7254776 0.7222121 0.7184582 0.7158945 0.7133003 0.7119575 0.7062199 0.699353 0.695538 0.6892511 0.6874809 0.686901 0.6847647 0.6842154 0.6792712 0.6771653 0.6717329 0.6702985 0.6681316 0.6641335 0.6616004 0.6613258 0.6588232 0.6583959 0.6555271 0.6514375 0.6481109 0.6486907
0.7243179 0.7248672 0.7241347 0.7246231 0.7251725 0.7274614 0.7241958 0.7222731 0.7181835 0.7165049 0.7133919 0.7152536 0.7167796 0.7203504 0.7211133 0.7256607 0.7266984 0.7266068 0.7324361 0.7361289 0.7371055 0.7404321 0.7440335 0.746536 0.7503815 0.7550815 0.7573705 0.7584386 0.762162 0.7657938 0.7641762 0.7662516 0.7663432 0.7625893 0.7611243 0.7611853 0.7580724 0.753464 0.7524263 0.7532198 0.7548068 0.755936 0.7579198 0.7607886 0.7580419 0.7569126 0.7568516 0.7516328 0.7498016 0.7459257 0.7480315 0.7469938 0.7435146 0.7397913 0.7380517 0.7392724 0.7378075 0.7345114 0.7326192 0.7312458 0.7319477 0.7316731 0.7333516 0.7304218 0.7299945 0.729201 0.7269425 0.7248977 0.7242264 0.7231886 0.7200757 0.7182445 0.7139413 0.711164 0.7105231 0.7047855 0.7022828 0.7023744 0.7029238 0.6990173 0.7021608 0.7021303 0.701764 0.7014893 0.7006958 0.7025575 0.7020082 0.7053043 0.7099432 0.7153146 0.7157724 0.71269 0.7170848 0.7147653 0.7162607 0.7143685 0.7162607 0.7174205 0.7178172 0.7195569 0.7198926 0.7157419 0.7179698 0.7200757 0.7243484 0.726027 0.726851 0.7283159 0.7286516 0.7279802 0.726027 0.7252945 0.7244705 0.7246536 0.7198926 0.7191601 0.7209607 0.7211438 0.7206861 0.7206861 0.7222426 0.7205945 0.7176036 0.7204114 0.7179393 0.7202893 0.7210523 0.7181835 0.7207166 0.7195264 0.7194043 0.7161997 0.7133003 0.7125984 0.7071354 0.7035036 0.7020387 0.7010926 0.7032595 0.70329 0.702527 0.7045107 0.7050601 0.7017335 0.7005432 0.7003906 0.7020387 0.7035952 0.7019472 0.703351 0.7012452 0.7015504 0.7012147 0.702527 0.7030458 0.7056705 0.7065555 0.7042666 0.7053653 0.7069523 0.7059147 0.707288 0.7047855 0.7041445 0.7059452 0.7086614 0.7086614 0.7124764 0.7096686 0.7094549 0.7069218 0.7071354 0.7077153 0.7100043 0.7153451 0.7157419 0.7220594 0.72679 0.7318867 0.738601 0.7411646 0.7424159 0.7461698 0.7487945 0.7485503 0.7486419 0.7483062 0.7456815 0.749588 0.7549594 0.751938 0.7509614 0.7494659 0.748123 0.7501068 0.7497101 0.7486419 0.7452237 0.7450406 0.7479399 0.7454984 0.743362 0.7460783 0.7436672 0.7407678 0.7397302 0.7442776 0.7481536 0.7485808 0.7530672 0.7540438 0.7537692 0.7556003 0.7569737 0.7599646 0.759812 0.7595068 0.7617958 0.7627113 0.7643594 0.7645425 0.7683575 0.7704938 0.7756211 0.7817554 0.7849295 0.7835866 0.7835256 0.7859672 0.7870659 0.7862723 0.7866386 0.786486 0.7867607 0.7854483 0.786608 0.7902094 0.7886834 0.7902094 0.7888055 0.7887139 0.790484 0.786547 0.7843801 0.7791003 0.7756821 0.775499 0.7745834 0.7750717 0.7757126 0.774675 0.7755295 0.7707685 0.7675945 0.7627113 0.7594458 0.7603309 0.7578588 0.7548984 0.7514802 0.7489776 0.7478484 0.7479094 0.7425685 0.7414393 0.7380211 0.737014 0.7371666 0.7352439 0.7369224 0.7366172 0.7363731 0.734664 0.7295062 0.7303913 0.7277971 0.7242874 0.7203199 0.7163218 0.7108283 0.7062199 0.6995361 0.6934627 0.6895868 0.6892816 0.6909907 0.6900141 0.686077 0.6821705 0.6807666 0.6746933 0.6731673 0.6736861 0.6713971 0.6682842 0.6645608 0.6623634 0.659403 0.6590063 0.6582738 0.6534517 0.6496673
0.7274919 0.7297198 0.7277971 0.728438 0.7293536 0.7258133 0.725264 0.7220594 0.7201977 0.7183056 0.7171153 0.7168711 0.7208692 0.7208081 0.7231276 0.7261186 0.7277666 0.7312458 0.7325276 0.7350302 0.7376549 0.740249 0.7448575 0.7498627 0.7516023 0.7558445 0.7576756 0.7620704 0.7628334 0.7634438 0.7650308 0.7650308 0.7663127 0.7631081 0.7598425 0.7620094 0.760514 0.7588964 0.7545932 0.7561496 0.7584386 0.7617652 0.7648782 0.765214 0.7631081 0.7633218 0.7625588 0.7606665 0.7536166 0.749588 0.7477874 0.7479094 0.7450406 0.7429958 0.7388757 0.736251 0.7368308 0.7348471 0.7334432 0.7338399 0.7315205 0.7332906 0.7339315 0.7340536 0.7339315 0.7326192 0.7322224 0.7314289 0.728438 0.7271867 0.7233413 0.7189159 0.7180309 0.7141549 0.7129647 0.7105842 0.7055179 0.7073796 0.7059757 0.7064335 0.7049381 0.7045718 0.7057011 0.7053653 0.7055789 0.704877 0.7047855 0.7065555 0.7114081 0.7151926 0.7164744 0.716566 0.7167491 0.7157419 0.7159861 0.71504 0.7180919 0.7188244 0.7204725 0.7187328 0.7212049 0.7184582 0.7206861 0.7223647 0.7237075 0.7278886 0.7320698 0.7326497 0.7301776 0.7301471 0.7298419 0.7271867 0.7246231 0.7199536 0.7189465 0.716627 0.7173595 0.7162912 0.7183361 0.7200757 0.7213575 0.7214796 0.7178478 0.7185192 0.7189465 0.7188854 0.7195264 0.719801 0.7200451 0.7207471 0.7202283 0.7208081 0.7160166 0.7136666 0.7062809 0.7046634 0.7005737 0.7004517 0.7012147 0.6997497 0.7013673 0.7032595 0.7035646 0.7037478 0.7028017 0.7031679 0.7003296 0.6983764 0.6985595 0.7000244 0.6987121 0.699475 0.6992614 0.7009705 0.7034426 0.7043276 0.7071049 0.708051 0.7084783 0.70799 0.7101874 0.7078679 0.7091802 0.7089361 0.7110724 0.7086309 0.7092718 0.7110724 0.7089666 0.7086309 0.7079595 0.7058536 0.7066472 0.711988 0.7141549 0.7195569 0.7221205 0.7288042 0.7369224 0.7418971 0.7424769 0.7428737 0.7459257 0.7492828 0.7494964 0.748062 0.7492828 0.7490386 0.7523957 0.7533419 0.7536776 0.7542269 0.7524263 0.7492828 0.7493133 0.7494659 0.748764 0.7469938 0.7461088 0.7470854 0.7465971 0.7467802 0.7439114 0.741775 0.7380211 0.7411646 0.7460783 0.7492828 0.7506257 0.7515413 0.7533724 0.7548373 0.755875 0.7592626 0.7620704 0.7621009 0.7632912 0.7637795 0.7648782 0.7650918 0.767686 0.7697918 0.7735763 0.7789172 0.7828847 0.7885002 0.788897 0.7929256 0.7938717 0.7947568 0.792834 0.793597 0.7917659 0.7929561 0.7936581 0.7933223 0.795886 0.7950619 0.7939327 0.7933528 0.7956113 0.7936276 0.79201 0.7877678 0.7835256 0.7814503 0.7800464 0.7760484 0.7751023 0.7760484 0.7771165 0.773912 0.7727217 0.7673503 0.7634133 0.7617652 0.7609717 0.7596289 0.7585302 0.7568211 0.7519075 0.7483062 0.7473906 0.7452847 0.7431179 0.7401575 0.7394555 0.7390588 0.737075 0.7368919 0.735549 0.7384179 0.7351828 0.734664 0.7339315 0.7308185 0.727614 0.7234023 0.7176952 0.7129341 0.7061283 0.7022828 0.6957211 0.6910822 0.6917231 0.6956601 0.6937984 0.6912043 0.6870537 0.6849783 0.6806446 0.6780809 0.675853 0.6708784 0.6679485 0.6657816 0.6669413 0.6658121 0.6647134 0.6614173 0.6568394 0.6539096
0.7289568 0.7314594 0.7284075 0.7322224 0.7289873 0.7272173 0.7254166 0.7234634 0.7224562 0.722975 0.7186108 0.7183056 0.7233108 0.7251725 0.7272783 0.7287737 0.7298419 0.7309101 0.7338704 0.7360069 0.740127 0.7418666 0.7455594 0.7487029 0.751175 0.7542574 0.7567601 0.7636575 0.7629555 0.7652445 0.7657938 0.769151 0.7663127 0.7623757 0.7628945 0.7600561 0.7624062 0.7598425 0.7600561 0.7593237 0.7624672 0.7639931 0.7690899 0.7729964 0.7691815 0.7672893 0.7678081 0.7673503 0.7596594 0.7535555 0.7516023 0.7466581 0.7469633 0.7462614 0.7396081 0.7356101 0.7348776 0.7334127 0.7342672 0.7324361 0.7324666 0.7340536 0.7382653 0.7409815 0.7379601 0.7392724 0.7368919 0.7357932 0.7301776 0.7287737 0.7251114 0.7227309 0.7202588 0.7208692 0.7179393 0.7130562 0.7093939 0.7083257 0.7100958 0.7091192 0.7088751 0.7078069 0.7039309 0.7038088 0.7068303 0.70799 0.7068913 0.7061893 0.7117134 0.7162912 0.7176341 0.7198315 0.7181224 0.7172068 0.7177257 0.7144601 0.7168406 0.7193738 0.7200757 0.7188549 0.7219984 0.7239516 0.7216627 0.7220289 0.7248672 0.7303913 0.7325886 0.7367088 0.7343588 0.7324666 0.7308185 0.7263627 0.7214186 0.7188244 0.7174205 0.716627 0.7177257 0.7141854 0.7185802 0.7207166 0.7177257 0.7185192 0.7176952 0.7179698 0.718275 0.7171763 0.7166575 0.7201367 0.7186413 0.7222426 0.7230666 0.7256913 0.7169017 0.7124153 0.7058536 0.7013062 0.7027102 0.7003906 0.7012147 0.6977049 0.6989563 0.7006043 0.7026185 0.708051 0.7031069 0.7039614 0.6983458 0.6939816 0.6955075 0.6989257 0.6964536 0.6976134 0.6990173 0.7015504 0.7037173 0.7043276 0.70564 0.706403 0.70799 0.7123237 0.7123848 0.7124153 0.7113471 0.7140328 0.7122322 0.7129647 0.7113776 0.7102179 0.7084172 0.7066777 0.7066472 0.7049991 0.7058231 0.7114998 0.7154368 0.7209607 0.7266068 0.7310016 0.7398523 0.7453763 0.7447049 0.7482146 0.7450101 0.7470244 0.7506257 0.7515107 0.7492828 0.7483672 0.7526399 0.7557834 0.7581639 0.7585302 0.7565464 0.7547153 0.7485503 0.7464139 0.748886 0.748764 0.7475126 0.7502899 0.7482146 0.7474821 0.7409815 0.7341452 0.7371666 0.7403406 0.7447965 0.751175 0.7523347 0.7523652 0.7546542 0.7509308 0.7567906 0.7601172 0.7639626 0.7635964 0.766862 0.7686016 0.76851 0.7687542 0.7709821 0.7722945 0.7742477 0.779375 0.7847769 0.791186 0.7955808 0.7989684 0.7994263 0.800647 0.7974119 0.7977477 0.7968321 0.7979003 0.79906 0.803058 0.8007081 0.7999756 0.8031496 0.8015321 0.8014711 0.8004944 0.7961606 0.792773 0.788836 0.787371 0.7830983 0.7784594 0.7776353 0.7781847 0.7781847 0.7779101 0.7738814 0.7698529 0.7680217 0.7641762 0.7651834 0.7660379 0.7634743 0.7589269 0.756699 0.7526399 0.7484893 0.744186 0.7418666 0.7422328 0.739425 0.7373802 0.7372887 0.7356711 0.7389062 0.7399133 0.736312 0.7346334 0.7344809 0.7367088 0.7322835 0.7264237 0.7181224 0.7108283 0.7050601 0.7003906 0.697003 0.6932796 0.6957211 0.6983458 0.696301 0.6969725 0.6888848 0.6847342 0.6848868 0.685131 0.6774706 0.6731978 0.669505 0.6696881 0.6670024 0.6682231 0.6683147 0.6667277 0.6607764 0.6574803
0.7295062 0.7304523 0.7298724 0.7299334 0.7281023 0.7288653 0.7287127 0.7270646 0.7259049 0.7255387 0.7234328 0.7255997 0.7266068 0.7299029 0.7294452 0.7310627 0.7336263 0.7341452 0.7382042 0.7397913 0.7413172 0.7435451 0.7476653 0.7483977 0.7509919 0.7559055 0.7584692 0.7600867 0.7626198 0.7637185 0.7655191 0.7668925 0.763749 0.7620094 0.7624062 0.763749 0.762986 0.7631386 0.7640237 0.7635049 0.7666789 0.7680827 0.7708295 0.7721724 0.7726302 0.7717756 0.7703412 0.7696087 0.7642679 0.7589269 0.7577062 0.755875 0.7524873 0.7498016 0.7451627 0.7395471 0.7376854 0.7384789 0.7361594 0.7381127 0.7393945 0.7401575 0.7411951 0.7400354 0.7385094 0.7375328 0.7390588 0.7357016 0.7329549 0.7304828 0.72679 0.7239211 0.7232803 0.7210828 0.7199536 0.7201062 0.7161081 0.7145212 0.7130257 0.7126595 0.7103094 0.7087225 0.7058231 0.7047855 0.7047549 0.707166 0.7078679 0.7082952 0.711103 0.7118965 0.7155588 0.718275 0.7186108 0.7172984 0.7175121 0.7161387 0.715925 0.7179698 0.718214 0.7186108 0.7233413 0.7234939 0.7255997 0.7243789 0.7289873 0.7310932 0.7345724 0.7353659 0.7342062 0.7309711 0.7310627 0.7281634 0.7211744 0.7207471 0.7172374 0.718275 0.7162607 0.713514 0.715803 0.7178478 0.7168711 0.7174205 0.7150705 0.7133919 0.7145822 0.7148569 0.7155588 0.7175426 0.7169017 0.7200757 0.7202893 0.7183056 0.7169322 0.7127205 0.706403 0.7053653 0.7023439 0.699475 0.699475 0.700177 0.7012757 0.7033815 0.7040835 0.7057316 0.7039614 0.7042666 0.7003906 0.6966978 0.6976134 0.6966673 0.6973997 0.6981017 0.6962705 0.6984069 0.7022523 0.7022523 0.7029848 0.7042971 0.7065555 0.7089971 0.7097906 0.7085699 0.7103705 0.7147958 0.713514 0.7122322 0.7106147 0.7083562 0.707929 0.7051822 0.7066777 0.7077764 0.7078069 0.7115913 0.7133309 0.7216322 0.7275835 0.7330465 0.7384789 0.7432094 0.7435451 0.7433925 0.744125 0.7451016 0.748764 0.7510834 0.7525789 0.7530977 0.7550815 0.7545322 0.7577062 0.7568211 0.7556003 0.7545016 0.7495575 0.746536 0.7463529 0.7470244 0.7489471 0.7474516 0.747299 0.7459562 0.7437893 0.7405237 0.7421718 0.7428737 0.7471464 0.7508698 0.7529451 0.7557224 0.7554477 0.7552341 0.7578893 0.7603919 0.76381 0.7643289 0.766099 0.7711958 0.7714704 0.7716535 0.7724165 0.7752548 0.7782457 0.783373 0.7895989 0.7939022 0.7987243 0.8001892 0.8030275 0.8040957 0.8034243 0.802936 0.8062931 0.8073003 0.8088872 0.8103827 0.8080327 0.8080632 0.8096197 0.8097418 0.8069035 0.8046756 0.8002807 0.7954587 0.7932003 0.7897516 0.7874626 0.7843801 0.7816944 0.7789477 0.7795886 0.7780932 0.7725386 0.7696393 0.7708905 0.7701276 0.7679912 0.7671672 0.7650308 0.7624062 0.7594458 0.7547458 0.750351 0.7447659 0.7442471 0.7439419 0.7430874 0.7432705 0.7419581 0.7384179 0.7389062 0.7381432 0.7360679 0.7353964 0.734725 0.7348471 0.7321309 0.7272783 0.721266 0.7138497 0.7080815 0.7070134 0.7034121 0.7008179 0.6989257 0.698651 0.6982238 0.6981322 0.6941952 0.6902277 0.6836355 0.6834219 0.6770738 0.6752731 0.6728926 0.6729537 0.6702679 0.6693829 0.6660258 0.6638284 0.6630043 0.6595861
0.729964 0.7340841 0.7305744 0.7295367 0.7288653 0.7306049 0.7293841 0.7302082 0.7305439 0.7282549 0.7274614 0.7315205 0.7294146 0.7310627 0.7319783 0.7313984 0.7367393 0.736312 0.7407068 0.7431179 0.7454984 0.7505035 0.7494964 0.750351 0.7513581 0.7537386 0.7553561 0.7588049 0.7625893 0.7615516 0.7623757 0.762986 0.7660074 0.7662211 0.7667704 0.7657328 0.7656717 0.7650918 0.7673198 0.7681744 0.7677776 0.7703107 0.7736983 0.7759873 0.7736983 0.7741256 0.7737594 0.7729048 0.7690288 0.7662516 0.7640237 0.7604834 0.7572483 0.7537997 0.7499237 0.7447049 0.7429958 0.7409815 0.7423549 0.7403406 0.7394555 0.7428737 0.7425075 0.7392114 0.7385399 0.7374107 0.7406152 0.7384789 0.7364341 0.7313374 0.7299334 0.7294757 0.7286516 0.7255692 0.7249893 0.7250198 0.7192516 0.7170848 0.7154062 0.7118965 0.7103705 0.7084783 0.7081426 0.7081426 0.7063114 0.7042666 0.7089971 0.7106147 0.7123542 0.7092718 0.711866 0.7118965 0.7170848 0.7188549 0.7168406 0.7130867 0.7164744 0.7155893 0.718977 0.719862 0.7239516 0.7270951 0.7276445 0.7274614 0.7297503 0.728438 0.7339315 0.736953 0.7362815 0.7321309 0.7289263 0.7279802 0.7223341 0.7190685 0.7155893 0.7155893 0.7147043 0.7136056 0.7122932 0.7152231 0.7163829 0.7151926 0.7143991 0.7106147 0.7123237 0.7118049 0.7128426 0.7125374 0.7131478 0.7149789 0.7163829 0.7160166 0.7143991 0.7090887 0.7062809 0.706464 0.7030153 0.7026796 0.7001465 0.7004517 0.70329 0.7045107 0.7044497 0.7055179 0.7042971 0.7047855 0.7036562 0.7021303 0.6972471 0.6945004 0.6960569 0.6941342 0.6974303 0.6979796 0.6998718 0.7003296 0.7020387 0.6998108 0.703351 0.7062809 0.7085088 0.70799 0.7106147 0.7136056 0.7137582 0.7112861 0.7086614 0.7100653 0.7095159 0.7057011 0.704877 0.7053043 0.7064945 0.7099738 0.7145822 0.7182445 0.726851 0.7334432 0.7371361 0.7380517 0.7415308 0.7428127 0.7427517 0.7449185 0.7477568 0.7537692 0.7556614 0.7557529 0.7552951 0.7556309 0.7578893 0.7559971 0.7536776 0.7541049 0.7519075 0.7472685 0.7498016 0.749588 0.7494048 0.7495269 0.7499237 0.7489776 0.7450711 0.7402185 0.7432705 0.7489471 0.7469633 0.7498016 0.753464 0.7545016 0.7581334 0.7562107 0.7580724 0.7618263 0.7650308 0.7650613 0.7690288 0.7735763 0.7729964 0.777025 0.7771471 0.7782457 0.7834951 0.7847159 0.7940853 0.7986938 0.803699 0.8074834 0.80846 0.8097418 0.8103217 0.8110541 0.8147165 0.8182567 0.8151132 0.8156015 0.814808 0.8181957 0.8190197 0.8167918 0.8150217 0.8087347 0.8043094 0.7995178 0.7976256 0.7968626 0.7908198 0.7864249 0.7825184 0.7803821 0.7796801 0.7769334 0.7716535 0.7696393 0.7734237 0.7729048 0.7715315 0.7690288 0.7662516 0.7663737 0.7602087 0.755814 0.7507172 0.7475737 0.7470854 0.7427211 0.7454984 0.744949 0.742599 0.7430874 0.7400049 0.736251 0.7358542 0.7338399 0.730849 0.730727 0.7302387 0.7282549 0.7203504 0.7147043 0.7133309 0.7128731 0.7092718 0.7062809 0.700879 0.6991394 0.6995361 0.6997192 0.6938289 0.6908075 0.6849478 0.6806751 0.6785082 0.6756394 0.6761887 0.6735641 0.6723433 0.6674601 0.6675823 0.6636453 0.661692 0.6593115
0.7293536 0.7286516 0.7301471 0.731612 0.7320393 0.7309711 0.7297503 0.7287127 0.7315815 0.733016 0.7331685 0.7366782 0.7352133 0.733901 0.735488 0.7357321 0.7383263 0.7424159 0.7432705 0.7444912 0.7471769 0.7486419 0.7520295 0.7506867 0.7532808 0.7561496 0.7560581 0.759751 0.7595984 0.7627724 0.7612159 0.7609412 0.7646036 0.7639626 0.7654276 0.7678996 0.7679912 0.768449 0.769212 0.7700971 0.771562 0.7756821 0.7779406 0.7773607 0.7762925 0.7766587 0.777849 0.7769334 0.7760178 0.7723555 0.7685406 0.7660685 0.7621009 0.758988 0.7546847 0.7513276 0.7477874 0.7466887 0.7447049 0.7427517 0.7420192 0.7431484 0.7412562 0.7383263 0.7384179 0.738723 0.7398218 0.7400354 0.7371666 0.7353659 0.7312153 0.7299029 0.7285601 0.7268205 0.727614 0.7257523 0.7255387 0.7233413 0.7171458 0.716566 0.7115913 0.7114692 0.7085088 0.7069523 0.7058536 0.7065861 0.7066472 0.7108588 0.7114998 0.708692 0.7111335 0.711103 0.7163829 0.7171458 0.716688 0.7165049 0.7160166 0.7194348 0.719801 0.7233108 0.7260575 0.7288042 0.7294757 0.7312153 0.7315815 0.7306964 0.7344809 0.7338399 0.7348471 0.730788 0.7291095 0.7294146 0.7237075 0.7204114 0.7160471 0.7147043 0.7107978 0.7093939 0.7120185 0.7147043 0.7129952 0.7131478 0.7136666 0.7115913 0.7114387 0.709577 0.7113471 0.7093328 0.7128121 0.7135445 0.7137887 0.7144601 0.7088751 0.7062504 0.7067692 0.7071354 0.7052737 0.7020692 0.7023744 0.7029848 0.7024049 0.7058842 0.7067387 0.7041751 0.7054874 0.7035036 0.7013673 0.6999634 0.6998718 0.6975523 0.6945004 0.6952634 0.6943783 0.6962705 0.695477 0.6950192 0.6988037 0.6972777 0.6989868 0.7043582 0.7057621 0.7061588 0.7060978 0.7069523 0.7096075 0.7100653 0.7094549 0.7101569 0.7066777 0.7057011 0.7075627 0.7049991 0.7081731 0.7091192 0.7147348 0.7217848 0.7251419 0.7310627 0.7335653 0.735488 0.740951 0.7418361 0.7424464 0.7451932 0.7498322 0.7538607 0.7570042 0.7578588 0.7560276 0.7570042 0.7555698 0.7570042 0.7561496 0.7567906 0.7524568 0.751938 0.7509919 0.7493743 0.7521211 0.7517244 0.7511445 0.7489471 0.7472075 0.7436978 0.7430568 0.7476653 0.7478484 0.7505035 0.7547763 0.7593237 0.7586828 0.7611243 0.7632912 0.7668315 0.7686321 0.7721114 0.7744003 0.7757126 0.7776659 0.7797717 0.7824269 0.7868217 0.7892022 0.7916743 0.7962217 0.8012574 0.8051028 0.8073308 0.8091009 0.8140451 0.8167307 0.8204846 0.824971 0.8267106 0.824971 0.8240249 0.8244522 0.8247573 0.824147 0.8249405 0.8220717 0.8142892 0.8092535 0.8062321 0.8014405 0.7964659 0.7919795 0.7870659 0.7845632 0.7807788 0.7789782 0.7751633 0.7745834 0.7741867 0.7733016 0.7733321 0.7733321 0.7691815 0.7698224 0.7674114 0.7609412 0.7602087 0.7569126 0.7507477 0.7487029 0.7464139 0.7447049 0.7438809 0.7419887 0.7427211 0.7406763 0.7373192 0.734664 0.7319783 0.7304218 0.7306354 0.7276445 0.7270341 0.721266 0.7194653 0.7176036 0.7164134 0.7138192 0.708692 0.7054569 0.7035646 0.7031984 0.6978576 0.6939511 0.6913264 0.6870231 0.6819569 0.6801867 0.679729 0.6788744 0.6757004 0.6731063 0.6701154 0.6669108 0.664866 0.6603186 0.6561985
0.7299945 0.7287432 0.7295062 0.7324666 0.7300251 0.7318867 0.72914 0.729201 0.7305744 0.7319172 0.737838 0.7409205 0.739364 0.7365257 0.7397607 0.7408594 0.7440029 0.746536 0.7452237 0.7495575 0.7492828 0.7509919 0.7527925 0.7524568 0.7519075 0.7537692 0.7577672 0.7595984 0.7595373 0.764512 0.7607581 0.7584997 0.7634743 0.7642373 0.7671977 0.7671367 0.7675029 0.7718672 0.7730575 0.7722945 0.7751328 0.7784899 0.7814808 0.7824574 0.7823353 0.7798633 0.7832204 0.7855093 0.7804431 0.7745529 0.7726607 0.76851 0.7659159 0.7658548 0.7615516 0.7594458 0.7535861 0.7509003 0.7500458 0.7481841 0.7437283 0.7413782 0.7405542 0.7398828 0.7376854 0.7376549 0.7418971 0.7423854 0.737075 0.7353964 0.7351828 0.7350913 0.7311543 0.730849 0.7296588 0.7316731 0.7279192 0.7259049 0.721388 0.7189159 0.7137582 0.7125374 0.7075627 0.7051212 0.7057926 0.7059147 0.7064945 0.7102484 0.7090887 0.7093328 0.7098517 0.7122017 0.7152231 0.7163523 0.7167796 0.71739 0.7187939 0.7191601 0.7245926 0.7267594 0.7299029 0.7302082 0.7304218 0.7328938 0.7348166 0.7344198 0.7350608 0.7358848 0.7336568 0.7338094 0.7324666 0.7297809 0.7240432 0.7222426 0.7172679 0.711927 0.7109199 0.7084783 0.7096381 0.7124764 0.7123237 0.7129036 0.7129952 0.7084478 0.7106147 0.7112556 0.7094244 0.707288 0.7089971 0.7092108 0.7095159 0.7131783 0.7070744 0.7044497 0.7046939 0.7026185 0.7030764 0.7047549 0.7023439 0.7041445 0.7038394 0.7053958 0.7069829 0.704114 0.7049075 0.704114 0.6997803 0.6998413 0.6995361 0.6974913 0.6949582 0.6934627 0.6916316 0.6930355 0.6943478 0.693066 0.6968199 0.6949582 0.6975523 0.7026796 0.7027407 0.7020997 0.7042971 0.7057316 0.7082341 0.7094244 0.7075322 0.7092108 0.7075016 0.7081426 0.7071049 0.7036868 0.7077764 0.7087835 0.714277 0.7223952 0.7254166 0.73149 0.7313679 0.7350913 0.7382653 0.7410426 0.7436062 0.7466581 0.7512665 0.75441 0.7564854 0.7591406 0.7575536 0.7587133 0.7576451 0.7573705 0.7570958 0.7577977 0.7567906 0.7531587 0.7529756 0.7514802 0.7540133 0.753525 0.7529146 0.7513581 0.7490081 0.743301 0.7458036 0.7469328 0.7507783 0.7531282 0.7600867 0.7641457 0.7623451 0.7667704 0.7654581 0.7691205 0.7737288 0.7744918 0.7788562 0.7814808 0.7821828 0.7805347 0.78496 0.7910639 0.7944515 0.7952756 0.7990905 0.8031801 0.8039431 0.806873 0.8110541 0.8177684 0.8223463 0.8326619 0.8340048 0.83843 0.835134 0.8337911 0.8318379 0.83196 0.8305255 0.8334249 0.8255814 0.8231093 0.8137398 0.8097113 0.8031496 0.7979308 0.7948483 0.7926815 0.7876457 0.7799243 0.778734 0.7764146 0.7769334 0.7756821 0.7746444 0.7735457 0.7731795 0.7705548 0.769273 0.7662516 0.7646036 0.7628334 0.7585607 0.7569126 0.7500458 0.7465665 0.7443997 0.7418056 0.739425 0.738601 0.74089 0.7406763 0.7366782 0.7316425 0.7321614 0.7311543 0.7271867 0.7236159 0.721266 0.7201672 0.717451 0.7184887 0.7153757 0.7136666 0.7110114 0.707929 0.704114 0.699353 0.6947445 0.6911738 0.6879387 0.6847036 0.6828725 0.6811634 0.6775621 0.6782335 0.6738387 0.6715193 0.6670634 0.6661173 0.6603186 0.6575108
0.7282549 0.7269731 0.7283159 0.727675 0.7282244 0.7283159 0.7297503 0.7328938 0.7330465 0.7360984 0.7376243 0.7404932 0.7411646 0.742538 0.7451016 0.7453763 0.7451321 0.7462614 0.7482756 0.7463529 0.7470854 0.7492523 0.7510529 0.7516938 0.7529146 0.7586218 0.7586218 0.7588964 0.7613075 0.7642679 0.7633523 0.7610328 0.7655497 0.7664042 0.7668315 0.7670146 0.7702497 0.7738204 0.7766892 0.7785814 0.780962 0.7834951 0.786547 0.7848685 0.7865775 0.7853873 0.7855399 0.7867302 0.7845327 0.7807178 0.7774522 0.7751938 0.7700055 0.7688152 0.7662211 0.7615821 0.7581944 0.757462 0.7532198 0.7526399 0.7477263 0.7456204 0.7418056 0.7417445 0.7380517 0.7404627 0.7404932 0.739364 0.7379601 0.7375328 0.7372887 0.7351218 0.7335653 0.7313374 0.7327107 0.7316425 0.7305133 0.7244095 0.7228224 0.7190075 0.7141549 0.7133919 0.7107368 0.70799 0.7059757 0.7089361 0.7100043 0.7123848 0.7098822 0.711927 0.7100043 0.7115913 0.7145822 0.7175121 0.7209913 0.7206556 0.7227004 0.7239211 0.7262406 0.7304218 0.7301166 0.7292926 0.7328633 0.7351523 0.7349997 0.7383568 0.738723 0.7363425 0.7343893 0.7335348 0.7313679 0.729201 0.7250808 0.7221815 0.7149789 0.7105842 0.7115608 0.712629 0.711927 0.7125984 0.7125679 0.7140328 0.7102179 0.7100958 0.7126595 0.7128426 0.7116829 0.7099127 0.7082341 0.7094549 0.7094244 0.707929 0.7072575 0.7062199 0.7046939 0.7035036 0.7036257 0.7051822 0.7041445 0.7032595 0.7020997 0.7023439 0.7062504 0.7040835 0.7042971 0.7023134 0.7008485 0.6954465 0.6943783 0.694775 0.6942868 0.6912043 0.6927913 0.6923335 0.6943478 0.6949887 0.6939206 0.694775 0.699475 0.7007874 0.7009095 0.7028322 0.7031984 0.7022218 0.7049381 0.7084478 0.7079595 0.7089971 0.7074101 0.7058536 0.7039309 0.703351 0.707288 0.7094549 0.7132393 0.7180919 0.724501 0.7270646 0.7298724 0.7329854 0.7340231 0.7353659 0.741012 0.7460172 0.7484893 0.7534334 0.7596899 0.759049 0.7613685 0.7598425 0.7607581 0.7598425 0.7597204 0.7590795 0.7592931 0.7552646 0.755936 0.7548068 0.7557224 0.756638 0.7552035 0.7508088 0.7493438 0.7472685 0.7509919 0.7522126 0.753525 0.7588964 0.7621315 0.7652445 0.7655497 0.7690288 0.7704023 0.7754074 0.7759568 0.7798022 0.7827016 0.7852652 0.7868217 0.7891717 0.7922541 0.7930171 0.7966185 0.7998535 0.8031496 0.8058048 0.8067204 0.8109015 0.817036 0.8220412 0.8292132 0.8352866 0.839132 0.8432826 0.8442898 0.8426418 0.8438015 0.8404749 0.8399255 0.8346457 0.8289996 0.8232619 0.8190197 0.8139535 0.8080327 0.8034548 0.7981749 0.7934139 0.7864555 0.784075 0.7809925 0.7784899 0.7765672 0.7740341 0.7715925 0.7719892 0.7689983 0.7676555 0.7696393 0.7670146 0.7635354 0.7617652 0.757401 0.7537997 0.753464 0.7483367 0.7450711 0.7432705 0.7412867 0.7392114 0.7412867 0.7376854 0.7366172 0.7319172 0.7317341 0.7296588 0.7274309 0.7267594 0.7215711 0.7193432 0.71739 0.7189465 0.7156504 0.715925 0.7151926 0.7120796 0.7048465 0.7009705 0.6985289 0.6944088 0.6879997 0.6842764 0.6850088 0.6815907 0.6796069 0.6760666 0.6738387 0.6726485 0.6687115 0.6641946 0.6594335 0.656931
0.7258133 0.7264543 0.7233108 0.7255997 0.7259049 0.7266068 0.7310932 0.7321919 0.734725 0.7385094 0.7412562 0.746536 0.7469938 0.7482756 0.7465665 0.7486724 0.7469328 0.7472075 0.7460783 0.7427517 0.7457731 0.7475126 0.7491912 0.7510834 0.7552341 0.761399 0.7588964 0.7612159 0.7623146 0.7633828 0.7625282 0.7635049 0.767747 0.7682964 0.7678996 0.7710737 0.775499 0.7774217 0.7771165 0.7829152 0.7843191 0.7902094 0.7908198 0.7906672 0.792773 0.791247 0.7906061 0.7884087 0.787371 0.7846548 0.7807788 0.7776048 0.7726302 0.7725996 0.7696393 0.7655191 0.7621925 0.7599341 0.7600867 0.7580419 0.751236 0.7454984 0.744186 0.7400964 0.7403406 0.738662 0.7384484 0.7400049 0.7395776 0.7368308 0.7376854 0.7371971 0.7341757 0.7349997 0.7345419 0.7329854 0.7281023 0.7243789 0.7219679 0.7194653 0.7138802 0.7125679 0.7107673 0.7083867 0.7091192 0.7068913 0.7099432 0.7136666 0.7136971 0.7140023 0.7125984 0.7119575 0.7169932 0.7209913 0.7217543 0.7225783 0.7248977 0.729964 0.7277666 0.7314594 0.7326497 0.7303607 0.7324361 0.7333822 0.7343283 0.7386315 0.7398523 0.7393945 0.7340841 0.7321614 0.7285296 0.724501 0.7247452 0.7199841 0.7134835 0.7096381 0.7118354 0.7108893 0.7144296 0.7137582 0.7143685 0.7144296 0.7144296 0.7116829 0.7145212 0.7142159 0.7104926 0.7064945 0.7070134 0.7060367 0.7071965 0.707929 0.70564 0.7020387 0.704816 0.7033815 0.7039614 0.7036868 0.704053 0.7023134 0.7021608 0.7032595 0.7055789 0.706464 0.7044497 0.7008179 0.700177 0.6936458 0.6929439 0.6901361 0.6902277 0.688305 0.6886101 0.6912959 0.693066 0.692364 0.689953 0.6918452 0.697064 0.7026491 0.7009095 0.7029238 0.7029543 0.702588 0.7052127 0.7068608 0.7069829 0.7060367 0.7036562 0.7023134 0.7020997 0.7014283 0.7067692 0.7078984 0.7134835 0.7163523 0.7202588 0.7221815 0.7268815 0.7282549 0.7310932 0.7328023 0.7392724 0.7415308 0.7477568 0.7552951 0.7593542 0.7625588 0.7628334 0.760575 0.7622841 0.7620399 0.7602698 0.7615516 0.7616737 0.7573094 0.7563022 0.758988 0.7565464 0.7567295 0.7543185 0.753525 0.7512971 0.7529451 0.7525789 0.7562107 0.7585607 0.7593237 0.7628334 0.7675639 0.7688152 0.7679912 0.7740646 0.7799549 0.7780932 0.7804736 0.7868522 0.7890191 0.7929256 0.7947568 0.797473 0.7974119 0.8010437 0.8028139 0.8029665 0.8056217 0.8089483 0.8177989 0.8221937 0.8296099 0.8341573 0.8397119 0.8473723 0.8535067 0.8547885 0.8538119 0.85311 0.8514314 0.8448697 0.8379418 0.8344625 0.8285112 0.8237502 0.8142282 0.8100775 0.8057132 0.7979308 0.7935665 0.7907587 0.784075 0.7805957 0.7785204 0.7777269 0.7740951 0.7717146 0.7704023 0.7688763 0.7668009 0.7696698 0.7678691 0.7643899 0.7600867 0.7580419 0.7539828 0.7513276 0.7487029 0.7474211 0.7414088 0.7416224 0.7416224 0.7380211 0.7368613 0.7384179 0.7350608 0.733138 0.7262406 0.7251114 0.7271867 0.7217848 0.719099 0.7185497 0.7173595 0.7176036 0.71739 0.7165049 0.7141549 0.7103705 0.7049686 0.6996582 0.6945309 0.6886407 0.6849478 0.682842 0.6845816 0.6822011 0.6768296 0.6731673 0.6710309 0.6668193 0.6612952 0.6583959 0.6565342
0.7230971 0.7212965 0.7200757 0.719099 0.7227919 0.7268815 0.7300251 0.7331685 0.7341452 0.7387841 0.7416224 0.7474821 0.748764 0.7463529 0.7468413 0.7458036 0.746475 0.7463834 0.7423854 0.7433315 0.7452237 0.7447965 0.7469328 0.7523957 0.7548068 0.7598425 0.7620094 0.7654581 0.7654581 0.7632607 0.7619483 0.7618568 0.7659769 0.7682354 0.7714399 0.7737899 0.7764146 0.777849 0.7785509 0.7842581 0.7884697 0.7931697 0.7975951 0.800647 0.7972288 0.7961606 0.7945431 0.7900873 0.7870353 0.786486 0.784075 0.7816334 0.7774217 0.7728743 0.7710432 0.7699749 0.7674419 0.7624977 0.762162 0.7615821 0.7581334 0.7532198 0.7467802 0.7440335 0.741775 0.7410426 0.7412867 0.7389978 0.7377769 0.7364646 0.734664 0.7362205 0.7351218 0.7356101 0.7342062 0.7314289 0.7256913 0.7212049 0.7170848 0.7159861 0.712751 0.7116218 0.711164 0.7085088 0.7113166 0.7110724 0.7136666 0.7129647 0.7146127 0.7147043 0.7139413 0.7147958 0.7155588 0.7181835 0.7230666 0.7239516 0.7290484 0.7316425 0.7311543 0.7327718 0.7308185 0.7334127 0.7348166 0.7357321 0.7373192 0.7366477 0.7371055 0.7364036 0.7361594 0.732314 0.7288958 0.7243484 0.722914 0.7175121 0.7147958 0.7132088 0.7122627 0.7126595 0.7145212 0.7139718 0.7156809 0.717451 0.7177562 0.7171458 0.7135751 0.7138192 0.7134835 0.7118049 0.7080205 0.7062199 0.7031984 0.7011231 0.7031374 0.7039919 0.701703 0.7019777 0.7036257 0.7037173 0.7060367 0.7059757 0.7067082 0.7029238 0.7042666 0.7042666 0.7030458 0.6989257 0.6979796 0.6919673 0.689068 0.6862907 0.6863822 0.6871147 0.6897393 0.6876945 0.6882744 0.688366 0.6886407 0.6940426 0.6962705 0.7006653 0.6993225 0.7015198 0.7002075 0.700177 0.7022218 0.7036257 0.7030153 0.7043582 0.7036868 0.702466 0.7020997 0.7055789 0.7090276 0.7103094 0.7122322 0.7136971 0.7171458 0.7177257 0.7214491 0.7252335 0.7262712 0.7282549 0.7345419 0.7412257 0.7492523 0.7538607 0.759812 0.7646036 0.7643289 0.763688 0.7594458 0.7617652 0.7609412 0.7623757 0.764573 0.7641762 0.7606055 0.7606971 0.7576451 0.7580419 0.7544711 0.7537386 0.7547763 0.7549594 0.7544405 0.7586218 0.7633218 0.766862 0.7685711 0.7696087 0.771623 0.770799 0.775499 0.7830068 0.7831899 0.7842276 0.7884697 0.7917354 0.7942684 0.7963437 0.8010132 0.8002197 0.802936 0.8043704 0.8058353 0.8102607 0.8128853 0.8196911 0.8260392 0.8315327 0.8388574 0.8454496 0.8523775 0.8581457 0.8651041 0.8692547 0.8652872 0.855643 0.8502716 0.8437405 0.8378807 0.8342489 0.828084 0.8216444 0.8146859 0.8069645 0.8019899 0.7986938 0.7937191 0.7870353 0.7849295 0.7816944 0.7764756 0.7761094 0.7710432 0.7682049 0.7679302 0.769212 0.767625 0.7659769 0.7665873 0.7635049 0.7603614 0.7585607 0.7546237 0.751175 0.7473295 0.7430568 0.741012 0.7423549 0.7400964 0.7399133 0.7393029 0.7380517 0.733138 0.7281939 0.7272173 0.7262406 0.72444 0.7210218 0.7208692 0.7200146 0.7209302 0.7191296 0.7176341 0.7163829 0.7117439 0.7041445 0.7008485 0.6968809 0.6877251 0.6860465 0.6837881 0.6829335 0.6835744 0.6802478 0.6742049 0.6723738 0.6676128 0.6612037 0.6597998 0.6582433
0.7219374 0.7189465 0.7179393 0.7156199 0.7185497 0.721266 0.7288042 0.732253 0.7350913 0.736953 0.7415308 0.7515718 0.7492217 0.7469328 0.745651 0.7485198 0.7439114 0.7428127 0.7396997 0.7383873 0.7414393 0.7444912 0.7480315 0.7513276 0.7549899 0.7596289 0.7636269 0.7676555 0.7649698 0.7619483 0.7635354 0.7634743 0.7662821 0.7671977 0.7689983 0.7730575 0.7758042 0.7779711 0.7786425 0.7830983 0.7881035 0.7940853 0.8001587 0.8123665 0.803821 0.7987548 0.7943295 0.7968016 0.7890801 0.7834035 0.7819691 0.7842886 0.7777269 0.7766892 0.7752548 0.77321 0.766862 0.7635354 0.7653971 0.7658243 0.7593848 0.755875 0.7513276 0.7429348 0.7442776 0.7422328 0.7409205 0.7368919 0.7389062 0.7362205 0.7338094 0.7348776 0.7338094 0.733016 0.731612 0.7285601 0.7242569 0.7186718 0.7165049 0.7133919 0.7146738 0.7114387 0.710401 0.7098517 0.713514 0.7148874 0.713514 0.7159556 0.7148263 0.7160471 0.7161692 0.7116218 0.7152841 0.7202588 0.7230971 0.7284685 0.7309406 0.7326497 0.7328328 0.7357016 0.7316425 0.7304523 0.7321004 0.7378991 0.7353964 0.7340841 0.7362205 0.7354575 0.7327718 0.7298114 0.7246536 0.7231276 0.7224562 0.7175731 0.715925 0.7112861 0.7130867 0.712751 0.7157724 0.7130562 0.7144601 0.7187023 0.7167186 0.7184887 0.717451 0.7145212 0.7125679 0.7117134 0.7060673 0.7008485 0.6991088 0.6976439 0.7019166 0.7017946 0.702466 0.7028933 0.7037783 0.7091497 0.7074406 0.7110419 0.7086614 0.703229 0.7028627 0.7026185 0.7028933 0.6999024 0.6959959 0.6927608 0.6885491 0.6864738 0.6879387 0.6878166 0.6868095 0.6865348 0.6845816 0.6845205 0.6906549 0.693127 0.6962705 0.6997192 0.6977965 0.6991699 0.7003296 0.7034426 0.7015504 0.7014283 0.6995361 0.7003906 0.7035952 0.7044497 0.7027407 0.7071965 0.7086614 0.7128731 0.7109504 0.7128426 0.712629 0.7142159 0.7198315 0.7196179 0.7216627 0.7261491 0.7321309 0.7398828 0.7481841 0.7530977 0.7574315 0.7641152 0.7612159 0.7632607 0.7584997 0.7592931 0.7604834 0.7635964 0.7672893 0.7698529 0.7630165 0.7602392 0.7577367 0.7572178 0.7588964 0.7573094 0.7574315 0.7526399 0.7587438 0.7634438 0.7651224 0.7700665 0.7715009 0.7711958 0.7716535 0.7729658 0.7807788 0.7863639 0.7876763 0.7923457 0.7901788 0.7952451 0.7960691 0.8012269 0.8042178 0.8051944 0.8070561 0.8040652 0.8082464 0.813984 0.817921 0.817158 0.8267106 0.8364768 0.8420314 0.849234 0.8553684 0.864982 0.8730086 0.8853079 0.8694988 0.8628762 0.8548495 0.8505463 0.8408716 0.8380333 0.8290301 0.8238113 0.8188061 0.8107184 0.8054081 0.8009827 0.7962522 0.7922236 0.7876763 0.7807788 0.7808094 0.7759568 0.7742172 0.7705548 0.7699139 0.7699749 0.7672282 0.7660074 0.7673808 0.7662821 0.7610022 0.7611853 0.7570652 0.7523957 0.7494354 0.7411646 0.7432094 0.7450711 0.7409815 0.7408289 0.7380211 0.7375023 0.7321614 0.7265458 0.7271257 0.7278276 0.723799 0.7212354 0.7214796 0.719801 0.722151 0.7251725 0.7186718 0.715803 0.7116829 0.7052127 0.6995361 0.6968199 0.688305 0.6803699 0.6811329 0.6823232 0.6815907 0.682964 0.6787218 0.6714888 0.6649271 0.659403 0.6590063 0.6556796
0.7188854 0.7183666 0.7161997 0.7184582 0.7180004 0.7222731 0.7238601 0.7297503 0.7320698 0.7345114 0.74266 0.744064 0.7436672 0.7428432 0.7462919 0.7449796 0.7421718 0.7385399 0.7399744 0.7402796 0.7384179 0.7411951 0.7444607 0.7495269 0.7553561 0.7576146 0.7608191 0.7632912 0.7613685 0.7606055 0.7632302 0.7642984 0.7680522 0.7675334 0.7709821 0.7709821 0.7742477 0.7748581 0.7780321 0.7805347 0.7858451 0.792071 0.79906 0.8017152 0.8002197 0.7972288 0.7941769 0.793536 0.7881646 0.782671 0.7796801 0.7777879 0.7772996 0.7780626 0.7744308 0.7716841 0.7682049 0.7664042 0.7666789 0.7646341 0.7617652 0.7571263 0.7529756 0.7501068 0.7447659 0.742599 0.7437588 0.7405542 0.7393029 0.7368003 0.7370445 0.7360069 0.7336568 0.7331991 0.7305439 0.7290789 0.7240127 0.7185497 0.7168406 0.7156504 0.7154368 0.7125984 0.7123237 0.7130257 0.7129341 0.7156199 0.7159861 0.7173289 0.7168101 0.715101 0.7157419 0.7163523 0.7147958 0.7204725 0.7239822 0.724501 0.727614 0.7288042 0.7288347 0.7295367 0.7305744 0.7303302 0.7328328 0.7378075 0.7373497 0.7363731 0.7332296 0.7324666 0.7301166 0.7285296 0.7236465 0.7206556 0.7196179 0.7184277 0.7194653 0.7143991 0.7154062 0.7161997 0.7153757 0.71739 0.7180004 0.7190075 0.7163523 0.7152536 0.715803 0.7132698 0.7148569 0.7109809 0.7059147 0.7022828 0.7019472 0.700238 0.6990478 0.7023744 0.703351 0.7034426 0.7028322 0.7042666 0.708753 0.7084172 0.7061283 0.7046634 0.7034426 0.6996887 0.6991088 0.6973387 0.6935238 0.6905939 0.6882744 0.6858939 0.686901 0.6877556 0.6858329 0.6858939 0.683727 0.6838796 0.6889153 0.6913264 0.6959959 0.6980407 0.6955075 0.6982238 0.6992614 0.6994445 0.7007569 0.6999939 0.7004212 0.6981322 0.6988647 0.7005737 0.7042056 0.7038088 0.7069829 0.7102179 0.7126595 0.7120796 0.7108893 0.7147043 0.7170237 0.7200451 0.7220289 0.7263627 0.732253 0.7408289 0.7459562 0.7516328 0.7555393 0.758286 0.7578588 0.759873 0.7581639 0.760636 0.7596594 0.7632302 0.7655802 0.7673503 0.7648477 0.7628334 0.7622841 0.7639016 0.7620399 0.7615516 0.7602087 0.7572178 0.7606665 0.76381 0.7686016 0.77086 0.7737594 0.7735763 0.7780016 0.7805652 0.7824574 0.7852347 0.7877983 0.7893853 0.7915217 0.7955808 0.7980528 0.8025087 0.8062321 0.8072698 0.8084905 0.8087347 0.812458 0.8145334 0.8210035 0.8244216 0.8309833 0.8362632 0.8439846 0.8501495 0.8572301 0.8636086 0.8694073 0.8718794 0.8683391 0.8640969 0.858817 0.8495392 0.8447171 0.8372398 0.832784 0.8261307 0.819508 0.8163035 0.8104132 0.8027529 0.7997925 0.7946042 0.7900873 0.7856314 0.7828847 0.779375 0.7767808 0.7755905 0.7733932 0.7678996 0.7659159 0.7635964 0.7631081 0.7641457 0.7639016 0.7594458 0.7577977 0.754349 0.7498932 0.7463529 0.7443081 0.7419581 0.7410426 0.7400659 0.7405542 0.7362205 0.7313984 0.7277055 0.7263017 0.7232497 0.7221205 0.7210828 0.7218153 0.7216322 0.7201062 0.7207166 0.7162607 0.7123237 0.708051 0.7034731 0.6989868 0.6960264 0.6887627 0.6857108 0.6836355 0.6820179 0.6823232 0.6841543 0.6796069 0.6752426 0.6685589 0.6653238 0.6605628 0.6605933
0.7150095 0.714277 0.7171458 0.7183666 0.717451 0.7201367 0.7245926 0.726088 0.7320698 0.7341452 0.7368919 0.7403711 0.7404932 0.7406458 0.7408289 0.7415003 0.7376854 0.736251 0.7358542 0.7395776 0.7403101 0.7389672 0.7454984 0.7470244 0.7526705 0.7593848 0.7614601 0.7599951 0.7591406 0.7606665 0.7621009 0.7674724 0.7678691 0.7695782 0.7700665 0.7719282 0.7729658 0.7737288 0.777086 0.7823964 0.7838919 0.7894464 0.7947568 0.795947 0.7960386 0.7951535 0.7937801 0.792834 0.7887444 0.7824269 0.7793139 0.7761399 0.7771165 0.7777269 0.7734237 0.7721724 0.769273 0.7705854 0.7681744 0.7627113 0.760636 0.7587743 0.7552341 0.7540438 0.7514496 0.7456815 0.744949 0.7447049 0.7434536 0.7417139 0.7404016 0.7391503 0.734786 0.7342367 0.7317341 0.72914 0.7231886 0.7212354 0.7216017 0.7169322 0.7195569 0.7174816 0.7164744 0.7139108 0.7124764 0.7146432 0.7157724 0.720625 0.7195264 0.7167491 0.7158945 0.7172068 0.7160166 0.7157419 0.7202283 0.7249893 0.7262406 0.7256302 0.7281634 0.7290789 0.7317951 0.7334737 0.7349692 0.7372887 0.7340231 0.7342062 0.7321919 0.7301471 0.7277666 0.7277971 0.7222121 0.7208692 0.7208997 0.7240432 0.7214796 0.7181835 0.7167186 0.7148569 0.7162302 0.7180919 0.7197095 0.7181835 0.7158945 0.7155588 0.7162607 0.7130562 0.7146432 0.7125069 0.7076543 0.7031679 0.7008485 0.7009705 0.6986815 0.6983153 0.7017946 0.7028322 0.7015504 0.7039919 0.70329 0.706525 0.7044497 0.7037173 0.6988952 0.6983153 0.6985289 0.6965757 0.6919978 0.6880913 0.6884575 0.6894952 0.6890069 0.689068 0.6858329 0.681316 0.6839101 0.6857108 0.6865653 0.6897699 0.6921199 0.6950192 0.6935543 0.6948972 0.6964841 0.6974608 0.6983764 0.6938595 0.6955686 0.6991394 0.6990478 0.6988647 0.7014283 0.7040225 0.7070134 0.7098212 0.7104926 0.7106452 0.7098517 0.7112556 0.7147348 0.7204725 0.7229445 0.7272478 0.7319172 0.738601 0.7443081 0.7478789 0.7490692 0.7552951 0.7560581 0.7550815 0.7567295 0.7597815 0.7603919 0.7624977 0.7646646 0.7671672 0.7646341 0.766099 0.7653971 0.7675639 0.7658854 0.7656107 0.7639931 0.7591711 0.7628639 0.7671367 0.7696698 0.7727827 0.7740341 0.7789477 0.7806568 0.7845022 0.7862723 0.7871574 0.7877983 0.7890496 0.7935665 0.7943905 0.7985107 0.8031801 0.8066288 0.8094366 0.8090703 0.8119697 0.8132516 0.816273 0.8237502 0.8311054 0.8357139 0.8403223 0.8425807 0.8486846 0.8565281 0.864158 0.8646768 0.8672404 0.8656839 0.8646768 0.8591528 0.8497528 0.8444729 0.8399255 0.8322957 0.8237502 0.8208814 0.8169138 0.8103522 0.8058353 0.8025697 0.795886 0.7921016 0.7889276 0.7834951 0.7815113 0.7787035 0.7773302 0.7733626 0.7689373 0.7667399 0.7643899 0.7667399 0.7631996 0.763047 0.7616432 0.7592626 0.755173 0.751114 0.7456204 0.7427211 0.7425075 0.7408289 0.7412867 0.7393335 0.7365867 0.7346029 0.7294452 0.7270341 0.7244705 0.7245926 0.7220289 0.71974 0.7186413 0.7178783 0.7139718 0.7128121 0.7100653 0.7078069 0.7020387 0.6968809 0.6938289 0.6923946 0.6877556 0.6846731 0.6813771 0.6846426 0.6846426 0.6800952 0.6778368 0.6737777 0.6677349 0.6644082 0.664042
0.7139718 0.7124459 0.7141244 0.716688 0.719038 0.7206861 0.7235549 0.7242874 0.7287737 0.7317951 0.7338094 0.7365257 0.7383568 0.7356711 0.7375633 0.7389062 0.7373497 0.7367088 0.7347555 0.735488 0.7366172 0.7416834 0.744064 0.7458646 0.7523957 0.7543185 0.7586828 0.7621315 0.7607276 0.759049 0.7631081 0.7643594 0.7658548 0.7658548 0.7686626 0.7693036 0.7702497 0.7727522 0.7760178 0.7794665 0.7835256 0.7895379 0.7931087 0.7949094 0.7933223 0.7946347 0.7922541 0.7875541 0.7853873 0.7822743 0.7763841 0.776201 0.7734237 0.7757736 0.7729964 0.771623 0.769273 0.7678691 0.7657938 0.7603614 0.760636 0.7572789 0.7574315 0.7569432 0.7540133 0.7499237 0.746536 0.7452847 0.7435146 0.7405237 0.7392114 0.7388452 0.7371055 0.7365867 0.7324361 0.7300861 0.7253861 0.7246536 0.7239211 0.7198926 0.721266 0.719862 0.7197705 0.7176341 0.7142159 0.7152536 0.7171458 0.7210218 0.7169627 0.7181835 0.7177562 0.7160471 0.7148263 0.7173289 0.7201062 0.7239211 0.7254471 0.7259049 0.7267289 0.7306049 0.7336568 0.732253 0.7319783 0.7314289 0.7311848 0.7316731 0.7292621 0.7258438 0.7271867 0.7258438 0.7232497 0.7230971 0.7218153 0.7243484 0.7230361 0.7212049 0.7180614 0.7184582 0.7176952 0.7170848 0.719862 0.7178478 0.7163829 0.7178478 0.7169932 0.7159556 0.7136056 0.711866 0.7097906 0.7039309 0.7006348 0.6990478 0.700238 0.7006958 0.7005432 0.6988037 0.7008179 0.6992614 0.699475 0.6999634 0.7017946 0.6979491 0.6972166 0.6957822 0.69389 0.6911128 0.6905939 0.6855887 0.685253 0.6859854 0.6865653 0.6879082 0.6842764 0.6835134 0.6824452 0.6826894 0.6849173 0.6866874 0.6879997 0.6877861 0.6885796 0.6902582 0.693066 0.6934627 0.6937069 0.6929134 0.694653 0.6947445 0.6981322 0.6967893 0.7006653 0.7046634 0.7059452 0.7086004 0.708814 0.709577 0.70799 0.7100043 0.7155893 0.7169017 0.7209913 0.7242874 0.7312458 0.7345419 0.7391503 0.7433315 0.7450711 0.7523347 0.7548068 0.7565464 0.7602087 0.7607886 0.7607276 0.7609107 0.7623146 0.7657633 0.7672893 0.7650308 0.7682354 0.7695477 0.7690288 0.7678081 0.7647561 0.7644204 0.7639321 0.7666789 0.7694867 0.7744308 0.7768723 0.781023 0.7828542 0.7833425 0.7850821 0.7896906 0.7909418 0.7912165 0.7919795 0.7980528 0.8015321 0.8063542 0.8101996 0.8126106 0.8118781 0.8129158 0.8152353 0.8213392 0.8275041 0.832021 0.8371482 0.8424892 0.8442593 0.8494171 0.8551548 0.8586034 0.8621742 0.8615028 0.8610145 0.8606787 0.8581457 0.8510651 0.8464872 0.8390099 0.8311359 0.8254898 0.823445 0.8192639 0.8147165 0.8082159 0.8050418 0.7968626 0.7941464 0.7926815 0.7864555 0.7841665 0.7804736 0.7768418 0.7716841 0.7713789 0.7688152 0.7696698 0.7686016 0.7679912 0.7638711 0.7608497 0.7600561 0.7557529 0.7537997 0.7515107 0.7452237 0.744186 0.7396386 0.7368308 0.736251 0.7350913 0.7331991 0.7340841 0.7296588 0.7288958 0.7271867 0.7271562 0.7235244 0.7169627 0.7162912 0.7153451 0.7109199 0.7097296 0.7046634 0.7030764 0.6983153 0.6955991 0.694714 0.6905023 0.6888543 0.6878777 0.6862907 0.6834829 0.6806751 0.6794238 0.6775316 0.6723127 0.6684978 0.6667888
0.708814 0.7121406 0.7135445 0.7132393 0.7175426 0.7177867 0.7229445 0.7247452 0.7254471 0.7242264 0.7306049 0.7317036 0.7314289 0.7338704 0.7340536 0.7371055 0.7381432 0.7352133 0.7330465 0.7324666 0.7358542 0.7400659 0.7439724 0.7447354 0.7479094 0.7530367 0.7574925 0.7613685 0.7608191 0.759049 0.7607581 0.7623757 0.7657328 0.7664958 0.7657328 0.7685406 0.7701886 0.7705548 0.7776964 0.7813587 0.7832814 0.7871879 0.7883782 0.7923457 0.7902094 0.7900262 0.7884087 0.7843496 0.7836171 0.7801685 0.7751023 0.7733321 0.773149 0.7727522 0.7738509 0.7727827 0.7707685 0.7678081 0.7630776 0.7593237 0.7601782 0.7560581 0.7582555 0.7583776 0.7554477 0.7520295 0.7494048 0.7432094 0.7423854 0.7420802 0.742599 0.7411036 0.7391503 0.7374412 0.733138 0.7287432 0.7268815 0.7272173 0.7270036 0.7245926 0.7215406 0.7217237 0.7223036 0.7185192 0.7162607 0.7162607 0.7201062 0.7223341 0.7207471 0.715925 0.7170237 0.7149789 0.716627 0.7159861 0.7195874 0.7201062 0.7238906 0.7259049 0.7267289 0.7321004 0.7321919 0.7327107 0.7305133 0.7318562 0.7296283 0.7248367 0.7230361 0.7218153 0.7235244 0.7229445 0.7234634 0.723738 0.7240737 0.7219068 0.7207776 0.7224562 0.7189465 0.7183666 0.7184887 0.7187634 0.7207166 0.7178172 0.7171763 0.7153757 0.7172984 0.7169017 0.7141549 0.7146432 0.7092413 0.7045718 0.7016419 0.7006043 0.7020387 0.703351 0.7003296 0.6976134 0.6981322 0.6971251 0.6965757 0.6978881 0.6987426 0.695416 0.6971861 0.6944394 0.6920894 0.6882134 0.6892205 0.6847342 0.686016 0.6856498 0.684368 0.6840017 0.6824452 0.6809803 0.6805835 0.6836355 0.6840017 0.6838796 0.6819264 0.6802173 0.6846121 0.6859854 0.688366 0.6873894 0.6890069 0.6914485 0.6912348 0.6933101 0.6934627 0.6960874 0.6979186 0.701764 0.7020997 0.7046023 0.7078679 0.7082341 0.7095465 0.7089361 0.7141549 0.7174205 0.7195264 0.7235244 0.7265763 0.729964 0.7371361 0.7376854 0.7415003 0.7464445 0.7509614 0.7573399 0.7590185 0.7634743 0.7616127 0.7625282 0.7628334 0.7640847 0.765214 0.7655191 0.7708905 0.774675 0.7717451 0.7675639 0.7664347 0.7647867 0.7675945 0.7705243 0.7722334 0.7714094 0.7760484 0.7792529 0.7842581 0.7859977 0.7870964 0.7899042 0.7908808 0.7909113 0.7955198 0.8006775 0.8041567 0.8085515 0.8099249 0.8120613 0.8143502 0.8128548 0.8192028 0.8271989 0.8305255 0.836782 0.8395593 0.8456937 0.8449307 0.8480132 0.8544223 0.8564366 0.858817 0.8596411 0.8606177 0.8590612 0.8565891 0.854758 0.8483489 0.8387963 0.8333333 0.828847 0.8249405 0.8168833 0.8145028 0.8118171 0.8075749 0.8000976 0.7976561 0.7961301 0.7876763 0.7823659 0.7822438 0.7761399 0.7758042 0.7717756 0.7714399 0.7729658 0.769273 0.7684795 0.766923 0.7632302 0.760575 0.7577062 0.7576756 0.7574315 0.7477568 0.7430568 0.740127 0.7369224 0.7361594 0.7346029 0.7357932 0.7364341 0.7350913 0.7330465 0.7304218 0.7291095 0.7213575 0.716688 0.7156199 0.7145212 0.7107978 0.7097296 0.7070134 0.6999024 0.699353 0.700116 0.6966978 0.692242 0.6919062 0.69154 0.6863822 0.6826894 0.6830556 0.6801867 0.6772264 0.678203 0.6724654 0.6674296
0.7073491 0.7081731 0.711164 0.7107062 0.7131172 0.7144296 0.7193738 0.7220594 0.7212965 0.7221205 0.7264237 0.7281634 0.7286211 0.7284075 0.7324666 0.7353049 0.7359458 0.7347555 0.7364341 0.7339926 0.737838 0.7415003 0.7415919 0.7447965 0.7486419 0.7548679 0.7569432 0.7573705 0.7598425 0.7594153 0.7616737 0.7642068 0.7653971 0.7663432 0.7647867 0.7673503 0.7690594 0.7734542 0.7754074 0.7792224 0.7810841 0.7849295 0.7858146 0.7877983 0.7854483 0.7843496 0.7837392 0.7811146 0.7772996 0.7771471 0.7732711 0.7711958 0.7712568 0.7722029 0.7698834 0.7705548 0.7695477 0.7678386 0.7623451 0.7607276 0.7588354 0.7575841 0.7574925 0.7552341 0.7541964 0.7543185 0.7501984 0.7458951 0.7447354 0.7446438 0.7433925 0.742538 0.7412257 0.737075 0.7340231 0.7294146 0.7304523 0.7279802 0.728377 0.7274309 0.7235549 0.7231886 0.7220289 0.7216627 0.7204725 0.7193432 0.7209302 0.7201672 0.7203809 0.7190685 0.7168101 0.7184277 0.7187939 0.7181835 0.7188244 0.7207166 0.7230666 0.7254471 0.724501 0.7274919 0.7310016 0.7290484 0.7296893 0.7282244 0.7270036 0.7241347 0.7237685 0.722914 0.722975 0.7237075 0.724501 0.7217543 0.7227919 0.7223647 0.7211438 0.7214491 0.7208081 0.7196484 0.719038 0.7186108 0.7198315 0.7192516 0.7171153 0.7170542 0.7151926 0.7160776 0.7154978 0.7144296 0.7102789 0.7058231 0.7013367 0.6999634 0.6992614 0.6996582 0.7012452 0.6976134 0.6983458 0.6969725 0.6966367 0.6958738 0.6955686 0.695538 0.695416 0.6941647 0.6920283 0.6902887 0.686901 0.6857413 0.687664 0.6884881 0.6880913 0.6873589 0.6841238 0.6818653 0.6798511 0.6804615 0.6794543 0.6771653 0.6762192 0.6791186 0.6776232 0.6818043 0.6811023 0.6822011 0.6829945 0.6862296 0.6881219 0.6896173 0.693005 0.6942562 0.6949887 0.6983458 0.7003296 0.7002991 0.702527 0.7047244 0.7068303 0.7094244 0.7102484 0.7147043 0.7164134 0.7201367 0.7258133 0.7304218 0.734786 0.7380211 0.7432399 0.7477874 0.7515107 0.7584081 0.758347 0.7599036 0.7616127 0.7640542 0.7655497 0.7657938 0.7661295 0.7679302 0.7743698 0.7752548 0.7756516 0.7726912 0.7719587 0.7697003 0.7711042 0.7700971 0.7737288 0.7758957 0.7761399 0.7789782 0.7829152 0.7865775 0.7898126 0.7896906 0.7911555 0.7946652 0.799121 0.7996094 0.8047671 0.8087347 0.8111457 0.8125496 0.8133126 0.8179821 0.8237808 0.8308613 0.8352866 0.8373314 0.8420619 0.8479826 0.8491729 0.8520417 0.8546969 0.8583288 0.8581762 0.8555515 0.8567417 0.8537508 0.855521 0.8527742 0.8486236 0.8417262 0.8348593 0.8279924 0.8243911 0.8207288 0.8142892 0.8103217 0.8056522 0.799823 0.7999451 0.7956113 0.7921321 0.7875541 0.7838308 0.7821522 0.7797107 0.7754074 0.7752243 0.7754074 0.771562 0.7716841 0.7693646 0.7669535 0.7613685 0.7597815 0.7561496 0.7540438 0.7495575 0.7473295 0.7432399 0.7392419 0.7382653 0.7360984 0.7342062 0.7326497 0.7335958 0.7302082 0.729201 0.7260575 0.721388 0.715803 0.7147043 0.7131172 0.7099432 0.7074101 0.7061588 0.7042666 0.7012147 0.7006043 0.6957822 0.6958127 0.6929439 0.6944088 0.6916926 0.6861686 0.6814076 0.6811329 0.680492 0.6751511 0.6717634 0.670451
0.7060367 0.7081121 0.711103 0.7114387 0.71034 0.7139108 0.7173289 0.7179698 0.7203199 0.7218458 0.722914 0.7218763 0.7216017 0.72444 0.7289568 0.7318867 0.7317036 0.7341146 0.7349997 0.7364646 0.7383873 0.7395776 0.7432094 0.7440945 0.748886 0.7568516 0.7582555 0.7580724 0.7576756 0.7579503 0.7628945 0.7641762 0.7618873 0.7624977 0.7624062 0.7641152 0.7678386 0.7725081 0.7741256 0.774736 0.7791613 0.7838003 0.7824269 0.7807483 0.7830068 0.7790087 0.7794665 0.7745224 0.7757431 0.7718672 0.7728438 0.7703107 0.7717756 0.769151 0.7689983 0.7668925 0.7672588 0.7661295 0.7635354 0.7596594 0.7587133 0.7602087 0.7555088 0.7537997 0.7559665 0.7550204 0.7515107 0.7456815 0.7469633 0.7471464 0.7429653 0.7426906 0.7392724 0.7359153 0.7331075 0.7321004 0.730788 0.7271562 0.7299334 0.7298114 0.7266068 0.7240737 0.726027 0.7253556 0.7243789 0.7195874 0.720564 0.7227919 0.7196789 0.71739 0.7176036 0.7204419 0.7200757 0.7187939 0.7208997 0.7197095 0.7225173 0.7231886 0.7235854 0.7234023 0.7265763 0.7297198 0.7284075 0.7301166 0.7262406 0.7270646 0.7271867 0.7272783 0.7241347 0.7241958 0.7225783 0.7217848 0.7215406 0.7190685 0.7211744 0.720503 0.7189465 0.7165354 0.7161081 0.7161081 0.7193127 0.7225173 0.7183666 0.7173595 0.7167796 0.7187023 0.7143075 0.7122017 0.7073796 0.7028322 0.7002686 0.6984374 0.6999024 0.7020387 0.7005737 0.7003906 0.6974913 0.6987121 0.6984679 0.6982238 0.6973692 0.6975218 0.6952634 0.6895257 0.6893121 0.6917841 0.6875114 0.6860465 0.688305 0.6886101 0.6889458 0.6876945 0.6826589 0.680553 0.6772569 0.6730757 0.67509 0.6724959 0.675029 0.6751511 0.6752731 0.6754868 0.6771653 0.6778673 0.6791186 0.6827199 0.6861991 0.6873589 0.6879387 0.6880302 0.6936153 0.6950803 0.6985289 0.6989563 0.7002686 0.7035341 0.7034426 0.7053348 0.7084478 0.7098822 0.7131172 0.7175426 0.7265458 0.7322224 0.7334737 0.7385094 0.7434536 0.7479094 0.7525179 0.759049 0.757462 0.760636 0.7632912 0.7660685 0.7669535 0.7640542 0.7682964 0.7720503 0.7770555 0.7785509 0.7787951 0.7776964 0.773973 0.7703717 0.7742477 0.7721114 0.7733321 0.7759568 0.7791613 0.7852042 0.7846243 0.7858146 0.787249 0.7914606 0.7948788 0.7986633 0.7987853 0.8003724 0.80141 0.8041262 0.8116645 0.8134041 0.8169444 0.8206372 0.8271989 0.8332112 0.8363242 0.8405359 0.8441982 0.8472197 0.8501801 0.8511262 0.8561009 0.8571995 0.8551853 0.8532015 0.852408 0.8506989 0.8499969 0.8515229 0.8468534 0.8418483 0.8349203 0.8312275 0.8270769 0.8223463 0.8126717 0.8075444 0.8033938 0.801349 0.8000671 0.7945126 0.7910639 0.7881646 0.7872795 0.7872795 0.7829763 0.780138 0.7784594 0.7758347 0.774675 0.7707685 0.7689983 0.7674419 0.7609717 0.759812 0.756699 0.7549594 0.750473 0.7475737 0.7439114 0.7438198 0.7375938 0.7349692 0.7315205 0.7312763 0.7321614 0.7317341 0.7250808 0.7217848 0.7194958 0.71504 0.7114387 0.708814 0.7078984 0.7094854 0.7072575 0.708692 0.7059757 0.7011231 0.7003601 0.6971861 0.6939206 0.6946835 0.6935848 0.6900751 0.6836355 0.6799121 0.6772569 0.6760361 0.6724043 0.6725264
0.7069829 0.7097601 0.7091802 0.7083867 0.7100348 0.7129341 0.71504 0.7168101 0.7187939 0.7201977 0.7181224 0.7171763 0.7177867 0.7217848 0.7230666 0.7252945 0.7286211 0.7333822 0.7359458 0.7353964 0.7373802 0.7405542 0.7407678 0.7447354 0.7484893 0.7560886 0.7595373 0.7584997 0.7586218 0.7575536 0.7602087 0.7616127 0.7627724 0.7625893 0.7602087 0.7642984 0.7686931 0.770036 0.7718977 0.7733932 0.7780932 0.7819996 0.7815418 0.7794055 0.7801074 0.776323 0.7769639 0.7751633 0.7737594 0.77086 0.7713484 0.7697003 0.7694561 0.7699749 0.7664652 0.7672588 0.7655802 0.7617958 0.7599646 0.7576146 0.7572789 0.7588354 0.7560886 0.75441 0.7543795 0.7549899 0.7522432 0.7490997 0.7466581 0.7454373 0.7429348 0.7407678 0.7380211 0.7379601 0.736953 0.7324971 0.7301471 0.7300556 0.7286211 0.7274919 0.7283159 0.7257828 0.727614 0.7264237 0.7242874 0.7220594 0.7234328 0.7254166 0.7232497 0.7205945 0.7206556 0.7215101 0.7223341 0.7204725 0.7216017 0.7216017 0.7216932 0.7234634 0.7218458 0.7230666 0.7254166 0.7261796 0.7287432 0.7288347 0.7264543 0.7250808 0.725325 0.7229445 0.7227309 0.7215406 0.7209302 0.7218153 0.719099 0.7204419 0.7203504 0.7187939 0.7204725 0.7200757 0.7187939 0.7184277 0.7177867 0.7220899 0.7222731 0.7199231 0.7193432 0.7161692 0.7106452 0.708814 0.7056094 0.7014893 0.699353 0.6998718 0.6978881 0.7012757 0.7013062 0.6987731 0.6981017 0.6961179 0.6984069 0.7003296 0.6975218 0.694714 0.6913874 0.6899835 0.6863212 0.6902277 0.6899225 0.6885491 0.6879082 0.6893731 0.6884881 0.6852225 0.6804309 0.6771043 0.6728011 0.6705427 0.6690777 0.6715498 0.6700543 0.6713361 0.6711835 0.6740218 0.6742965 0.6766465 0.6761277 0.6813771 0.6816517 0.6811023 0.6822316 0.686901 0.6903803 0.6939206 0.695538 0.6957517 0.697003 0.7013978 0.7010926 0.7046023 0.7060367 0.7115608 0.7144296 0.7192516 0.7234634 0.7278276 0.7324361 0.7397913 0.7466276 0.7525789 0.7549594 0.7568211 0.7584386 0.7593848 0.7632607 0.7665873 0.7649698 0.7672588 0.7678691 0.7733932 0.7765977 0.7776964 0.7808399 0.7790393 0.7768113 0.7772996 0.778673 0.7783068 0.7775743 0.7811451 0.7824269 0.7830678 0.7860892 0.7856314 0.7878289 0.7911555 0.7938412 0.7960691 0.7996704 0.8000671 0.8027834 0.8045535 0.8110846 0.8149301 0.8181957 0.8262223 0.8298541 0.8357749 0.8393762 0.8428249 0.844534 0.8479216 0.8489287 0.8516145 0.8548495 0.857169 0.8562534 0.8529573 0.8503937 0.8483489 0.8472807 0.8468229 0.8449917 0.8415126 0.835256 0.8286944 0.823384 0.8171275 0.8118476 0.806934 0.8014711 0.8016542 0.7972898 0.793597 0.7896906 0.7891717 0.7869438 0.7869438 0.7843496 0.7825795 0.7799549 0.775438 0.7745224 0.770799 0.7670451 0.7642068 0.7628334 0.7605445 0.7588049 0.7553256 0.7537997 0.7467497 0.7443386 0.7407984 0.7398218 0.7344198 0.7319172 0.7302387 0.7288042 0.7275224 0.7235854 0.7214491 0.7180004 0.7132698 0.7107673 0.7067387 0.7071965 0.7078984 0.7082646 0.7098822 0.7074406 0.7047855 0.7014588 0.7002075 0.6968199 0.6956906 0.6919062 0.6902277 0.683727 0.6811634 0.6783862 0.6746323 0.67274 0.6713056
0.7076238 0.7074406 0.7065555 0.7019777 0.7084783 0.7120491 0.7139413 0.7136361 0.7133003 0.715162 0.7125374 0.7108893 0.716627 0.7192822 0.7212354 0.7234939 0.7240737 0.7288958 0.7348166 0.7376243 0.7389978 0.7418361 0.7411341 0.7424159 0.7455899 0.7546237 0.7587743 0.7647867 0.7602392 0.7607581 0.7604834 0.7588659 0.7600561 0.7577672 0.760575 0.7631996 0.765275 0.7675945 0.7693036 0.773912 0.7791613 0.7830678 0.7803516 0.7808704 0.7785814 0.775438 0.7740646 0.7720197 0.7750107 0.7733321 0.77086 0.7632912 0.7689983 0.769273 0.7691815 0.7675945 0.7617042 0.7596899 0.759751 0.7584692 0.7584081 0.7575536 0.7561191 0.7537386 0.7536776 0.7566685 0.7525484 0.7497406 0.7481536 0.7454984 0.7447659 0.7412867 0.7413782 0.7367698 0.7376549 0.7372887 0.7334432 0.7290179 0.7305744 0.730788 0.7306659 0.7288958 0.7278581 0.725264 0.7271257 0.722975 0.7245315 0.7273393 0.7262406 0.7257828 0.7209607 0.7189465 0.7234023 0.7246231 0.7228529 0.7256913 0.7234023 0.7257828 0.7225783 0.7203504 0.7226088 0.7264848 0.7243179 0.7227004 0.7223952 0.7212354 0.7216322 0.7231276 0.7224562 0.720503 0.7205945 0.7245926 0.7192211 0.718214 0.7208081 0.7181529 0.719099 0.7219679 0.718977 0.7181224 0.7168101 0.7193127 0.7229445 0.7258438 0.7196484 0.7147958 0.7073185 0.7035646 0.7037173 0.7034426 0.7003906 0.6971556 0.6964841 0.6982848 0.701001 0.701764 0.695416 0.6935238 0.6942868 0.7000244 0.6960874 0.6933407 0.6894952 0.6853141 0.6851615 0.6858939 0.6856803 0.6913264 0.6884575 0.68919 0.6866569 0.6840322 0.678905 0.6714277 0.669566 0.6681926 0.6692303 0.6675823 0.6675823 0.6681316 0.6691387 0.6696271 0.6721296 0.671855 0.6763108 0.6780199 0.6783251 0.6765855 0.681255 0.6835744 0.6868095 0.6906855 0.6936458 0.6930355 0.6959653 0.6999024 0.6994445 0.7003296 0.7055789 0.708753 0.7100043 0.715162 0.7216627 0.7286516 0.7339926 0.7381432 0.7440945 0.7565464 0.7534029 0.758347 0.7586828 0.7593848 0.7642373 0.7672588 0.766862 0.7677776 0.7689373 0.7750412 0.7782152 0.777849 0.7795581 0.7816334 0.7822133 0.7815723 0.7810535 0.7829458 0.7831289 0.7859367 0.7859061 0.7845938 0.7879204 0.7842581 0.7916438 0.7958249 0.798297 0.7964659 0.8006165 0.802173 0.8067204 0.8075139 0.8112068 0.8146554 0.8199964 0.8296405 0.8318074 0.8349814 0.8412989 0.8451138 0.8489898 0.8524995 0.8513093 0.852347 0.8534151 0.8539034 0.8543918 0.8532625 0.8514314 0.8488982 0.8460599 0.8451748 0.8427944 0.839193 0.8323872 0.8308613 0.8229262 0.8152964 0.8099249 0.8033022 0.8012574 0.7996094 0.7974425 0.791949 0.7920405 0.7902399 0.788775 0.7892022 0.7858146 0.7871879 0.7838613 0.7781542 0.7753769 0.7729353 0.7693341 0.7624062 0.7634743 0.7604529 0.7587438 0.7573399 0.7532808 0.7478789 0.7427822 0.7427822 0.7408594 0.7365562 0.7314594 0.7299029 0.7287127 0.7241347 0.7232803 0.7237075 0.7185192 0.7124764 0.7109199 0.7037783 0.7053653 0.7096075 0.7081426 0.7088445 0.7051212 0.7049991 0.7042666 0.7017335 0.6991699 0.6982848 0.6924556 0.6895868 0.6842459 0.6821705 0.6784777 0.6748154 0.6749069 0.6747543
0.7029848 0.7035341 0.7032595 0.7035646 0.7046329 0.7105536 0.7103094 0.7123848 0.7124764 0.7103705 0.711225 0.7129952 0.714338 0.7153757 0.7193432 0.7217848 0.7226393 0.7277361 0.7310322 0.7364646 0.7389672 0.7402796 0.7409205 0.7429653 0.7443997 0.7506562 0.7541659 0.7559665 0.757401 0.7589269 0.7592626 0.7566685 0.7567906 0.7586218 0.7623146 0.7642679 0.7675945 0.768388 0.7699139 0.7761399 0.780901 0.7824879 0.7831899 0.7835561 0.7820607 0.7781237 0.7773607 0.7756211 0.7762315 0.7729964 0.7707685 0.7656412 0.7668925 0.7681744 0.7661906 0.7657022 0.7612159 0.7567906 0.7561191 0.7583776 0.7576756 0.755173 0.7548373 0.7546237 0.7570042 0.7535861 0.7524568 0.7490997 0.7487335 0.7451932 0.7453458 0.7455289 0.7430568 0.7422023 0.738662 0.7387536 0.7352133 0.731551 0.7319783 0.7336873 0.7313679 0.7314289 0.7327412 0.7315205 0.7291095 0.7280107 0.7295367 0.7283159 0.72679 0.7249283 0.7219068 0.7211133 0.7217237 0.7210523 0.7216932 0.7223647 0.7214186 0.7211744 0.7227919 0.7218153 0.7219374 0.7246231 0.7231886 0.7230361 0.72444 0.7217543 0.7239211 0.7247757 0.7215101 0.7194348 0.7223341 0.7216627 0.7192211 0.7206556 0.7194348 0.7209913 0.7206861 0.7194348 0.7183361 0.7196484 0.718214 0.7189465 0.7206861 0.719099 0.7179393 0.71269 0.707227 0.7058231 0.7034426 0.7025575 0.7005127 0.6979491 0.6974913 0.6956906 0.6969115 0.6984984 0.6951108 0.692364 0.6917841 0.693066 0.6901667 0.688366 0.6872978 0.68449 0.6847647 0.6828114 0.6830861 0.6854361 0.6850393 0.6829945 0.6812245 0.6784472 0.6732588 0.6713666 0.6663004 0.666392 0.6650491 0.664805 0.667155 0.6656595 0.6687725 0.6724043 0.673381 0.6748459 0.6747543 0.6760972 0.6761277 0.6776232 0.6806751 0.6839406 0.6868705 0.690716 0.6905939 0.6927608 0.6945309 0.6990173 0.699475 0.6995361 0.703229 0.706403 0.7091802 0.7142159 0.7211744 0.7232192 0.7304523 0.7359458 0.7421718 0.7498016 0.7513581 0.756638 0.7572789 0.7601477 0.7635049 0.7631081 0.7647867 0.7682049 0.7702802 0.7740341 0.7774217 0.7774217 0.7777269 0.7786425 0.7817554 0.7820302 0.7821217 0.784197 0.7842276 0.7854178 0.7898737 0.7883782 0.791308 0.790484 0.7957639 0.7984191 0.7993041 0.8019899 0.8022035 0.8062016 0.8070256 0.8096502 0.8137704 0.8192334 0.8246047 0.8293963 0.8314106 0.8373924 0.8410242 0.8440456 0.8471281 0.8494781 0.8545749 0.8533236 0.8521639 0.8542392 0.8531405 0.8534151 0.8519807 0.8501495 0.8471891 0.8436489 0.8394067 0.8354391 0.8309223 0.8253677 0.8196606 0.811573 0.8067204 0.803821 0.8001587 0.7980223 0.795184 0.7955503 0.7930477 0.7933528 0.7922847 0.7899042 0.7880425 0.7871879 0.7858146 0.7805957 0.7767808 0.7714704 0.7684185 0.7648477 0.761277 0.7585607 0.7588964 0.7525789 0.7486419 0.7456815 0.7418666 0.7400659 0.7398218 0.7352439 0.7333211 0.7282244 0.7272173 0.7248062 0.7226088 0.7233718 0.7173595 0.7110114 0.7090887 0.7053043 0.7031984 0.7050296 0.7051822 0.7076238 0.7069523 0.7026185 0.701703 0.702588 0.7000855 0.6952024 0.6917231 0.6889458 0.6831166 0.6832387 0.6800342 0.6763414 0.6741439 0.6716719
0.7009705 0.7023744 0.7028322 0.702588 0.70564 0.7082341 0.7071049 0.7086309 0.7075322 0.7092108 0.7096991 0.7087835 0.7120491 0.7135751 0.7140939 0.7151926 0.7194958 0.7275835 0.7286822 0.7354575 0.736251 0.7346945 0.7359763 0.7384789 0.741775 0.7446438 0.7510834 0.7541964 0.7536471 0.755814 0.7568516 0.7574315 0.7584081 0.7587438 0.7623757 0.7678081 0.7701276 0.7673503 0.773912 0.7758652 0.7795275 0.7830373 0.7847159 0.7862113 0.7827932 0.7828847 0.7822743 0.779375 0.7769029 0.7727217 0.7709211 0.7682354 0.7659464 0.7646646 0.765275 0.7640237 0.7608191 0.7564244 0.756638 0.7537997 0.7549594 0.7545016 0.755173 0.7571873 0.7562107 0.7555698 0.7522432 0.7523957 0.7465971 0.7462308 0.7447659 0.7476348 0.7472685 0.7462614 0.7428127 0.7389062 0.7378991 0.7341146 0.7326497 0.7341452 0.7336873 0.7357932 0.7335348 0.7358237 0.7342978 0.7326497 0.731612 0.7316731 0.7274004 0.7261491 0.7233413 0.7226088 0.7198315 0.7218458 0.7215101 0.7204114 0.7215711 0.719099 0.7222121 0.7208997 0.7230361 0.7200146 0.7234328 0.7252945 0.724562 0.7232192 0.7249893 0.7232192 0.7203504 0.7208997 0.7206861 0.7216322 0.7208997 0.7196179 0.7186413 0.7213575 0.7195874 0.7205945 0.7211133 0.719099 0.7192822 0.7209607 0.7186108 0.7170237 0.7133614 0.7103094 0.707288 0.7045107 0.7022523 0.6998108 0.6995971 0.700238 0.6948667 0.6953549 0.6955686 0.6966367 0.6937984 0.6878777 0.6874504 0.6862296 0.6883965 0.6869621 0.6836355 0.6849478 0.6833913 0.6795154 0.6789965 0.677318 0.6798511 0.677379 0.6776537 0.67509 0.6701459 0.6684368 0.6643167 0.6621498 0.6630654 0.6623024 0.664805 0.6658732 0.666453 0.6710004 0.6731978 0.6737777 0.6762192 0.674327 0.6736556 0.674266 0.6777452 0.6813465 0.687542 0.6872673 0.6896173 0.6933101 0.6963621 0.6978881 0.6989257 0.7002075 0.7019166 0.7052127 0.7076238 0.7134224 0.7183971 0.7204114 0.7278276 0.7328023 0.7400964 0.7444607 0.7490997 0.7529451 0.754288 0.7555698 0.760514 0.7646951 0.7628334 0.7660379 0.7694561 0.7741867 0.7731185 0.7751023 0.7779711 0.7812061 0.7823048 0.7828237 0.7823964 0.7861808 0.7874016 0.7886224 0.790545 0.7932918 0.7946042 0.7961606 0.7993957 0.8007386 0.8010437 0.805347 0.8055301 0.8065983 0.8086736 0.8145334 0.8167613 0.8219496 0.8253983 0.8290301 0.835256 0.8373619 0.8426113 0.8472502 0.8481963 0.8513703 0.8548495 0.8546359 0.8553684 0.8550937 0.8527132 0.8544833 0.8535067 0.8498749 0.8465177 0.8409327 0.8382164 0.8331502 0.828145 0.8255814 0.8190503 0.8110846 0.809284 0.8040041 0.8002197 0.7981444 0.7961912 0.7980223 0.7973814 0.7994873 0.7982054 0.7932613 0.7906977 0.7892327 0.7868217 0.7844717 0.7774522 0.7727827 0.7681744 0.765275 0.7617652 0.7608191 0.7564549 0.7498932 0.744827 0.7430874 0.740951 0.7395776 0.7388146 0.7352133 0.7294146 0.7254166 0.7248672 0.7227004 0.7220899 0.7230361 0.7182445 0.7120796 0.7082646 0.7023134 0.7014588 0.7028933 0.7042361 0.7020997 0.7030458 0.7043582 0.7014283 0.7020692 0.6968809 0.692364 0.6871758 0.6850088 0.6809192 0.6821095 0.6811329 0.6798511 0.676616 0.6713666
0.6983458 0.699475 0.7000855 0.7015504 0.7008179 0.7042971 0.7041445 0.7049381 0.7047855 0.7070439 0.7050296 0.7049381 0.7058231 0.7084783 0.7094854 0.7148569 0.7197705 0.7224562 0.7276445 0.7323445 0.7335958 0.7321919 0.7351828 0.7370445 0.7386925 0.7460477 0.7483367 0.7493743 0.7524568 0.7540438 0.7547763 0.7547458 0.7581334 0.7604834 0.7628945 0.7667399 0.7708295 0.7706159 0.7747665 0.7767503 0.778673 0.783434 0.7869743 0.786547 0.7877068 0.7867607 0.7831594 0.7803211 0.7798938 0.7750412 0.7709211 0.7697308 0.7639626 0.7628334 0.760636 0.757401 0.7589269 0.7572789 0.7541964 0.7538607 0.7558445 0.7543185 0.7561191 0.7540438 0.7554172 0.7558445 0.7540133 0.7492217 0.7462003 0.7471159 0.7452847 0.7468413 0.7475737 0.7451932 0.743423 0.7417139 0.7392114 0.7374412 0.7351218 0.7324055 0.7341757 0.7353354 0.73619 0.7372581 0.7356711 0.7356406 0.7318562 0.7306964 0.7280718 0.7271257 0.7237075 0.7184582 0.7191296 0.7193432 0.7183666 0.7184887 0.7181224 0.719801 0.7191906 0.7228224 0.7238296 0.7225173 0.7219374 0.7243789 0.7226698 0.7242569 0.7251419 0.7230666 0.7228835 0.7220899 0.723738 0.7222121 0.721388 0.7217848 0.7201672 0.7234328 0.7225783 0.721388 0.7229445 0.721266 0.7211744 0.7209607 0.7171763 0.7144601 0.7096991 0.7071049 0.7070134 0.7049686 0.700177 0.7000549 0.6983764 0.6984374 0.6939511 0.6943173 0.6929744 0.6891595 0.6884881 0.6837881 0.6805835 0.6819874 0.6830861 0.6829335 0.6824757 0.678203 0.6772875 0.6752731 0.6747238 0.6720076 0.6736861 0.6745407 0.6714888 0.6722212 0.6702374 0.6668193 0.6637979 0.6603796 0.657755 0.6607154 0.6612647 0.665629 0.667277 0.6681316 0.6676738 0.6710309 0.675792 0.6780809 0.6764024 0.6775011 0.6806141 0.6838796 0.6870537 0.6901056 0.6890985 0.6936764 0.6943478 0.6959653 0.6977354 0.6985289 0.7013673 0.7034121 0.7096991 0.7149179 0.7170542 0.7222426 0.7265153 0.7310627 0.7349692 0.7387841 0.744064 0.7475737 0.7512971 0.753525 0.7570042 0.7603614 0.7618568 0.7635049 0.7659464 0.7711042 0.7719892 0.7742477 0.7783983 0.7805957 0.7821522 0.7816639 0.7816029 0.7859672 0.7897821 0.7926815 0.7922541 0.7963437 0.7973814 0.8015626 0.8007691 0.8024477 0.8062016 0.807636 0.8096808 0.8114814 0.8135567 0.8161509 0.8198132 0.8250321 0.8263139 0.8311054 0.8356223 0.8394372 0.8420619 0.845297 0.8486846 0.8494171 0.8536898 0.8542697 0.8533541 0.8549716 0.8534762 0.8546969 0.8504242 0.8460599 0.8448086 0.8388574 0.8380944 0.834493 0.8288165 0.8203626 0.8161814 0.8148996 0.8106269 0.8057438 0.8034548 0.8031801 0.7994873 0.7968626 0.7970762 0.7975646 0.8002502 0.7999451 0.7945431 0.7930171 0.7897211 0.7867607 0.7830678 0.7758957 0.7711653 0.7658243 0.7632302 0.7572178 0.7538912 0.7507783 0.7450101 0.7438809 0.7405542 0.7389367 0.737014 0.734786 0.7301471 0.7257218 0.7267594 0.7262712 0.7249283 0.7239211 0.719038 0.7137277 0.7089056 0.7042361 0.7018251 0.7017946 0.7042361 0.7026491 0.7020692 0.7000855 0.6992614 0.6961179 0.6943173 0.690838 0.6855582 0.6819569 0.6805835 0.682903 0.6816822 0.6780199 0.6756699 0.6721601
0.6950192 0.699353 0.6996582 0.6983153 0.7000244 0.6993835 0.7028017 0.7054263 0.7044802 0.7028322 0.7016724 0.7004822 0.7023439 0.7049075 0.7084172 0.7101569 0.7163829 0.7191601 0.7271867 0.731612 0.7310627 0.733077 0.7341757 0.7342672 0.7378685 0.744827 0.7467497 0.7499847 0.7510834 0.7485198 0.7524873 0.7561802 0.7592321 0.7599341 0.7655191 0.769151 0.7707074 0.7741256 0.7754685 0.7767808 0.7818165 0.7858146 0.7876763 0.7897516 0.7870048 0.7877983 0.78496 0.783312 0.7807788 0.7773912 0.7736678 0.7691205 0.7653055 0.7610022 0.7568516 0.7522126 0.7572178 0.7572789 0.7536166 0.7545932 0.7546237 0.7534029 0.752762 0.7536776 0.7554477 0.7550815 0.7522737 0.749588 0.7462003 0.7439114 0.7448575 0.744949 0.745712 0.7451321 0.746536 0.7483367 0.7443997 0.7426906 0.7391503 0.7324666 0.7364341 0.739364 0.7404627 0.7390893 0.7389978 0.7357932 0.7359763 0.7350913 0.7286822 0.7255082 0.7218458 0.7159861 0.7174816 0.7192516 0.7189159 0.7172984 0.7185192 0.7177562 0.7217237 0.7246536 0.7239516 0.7250198 0.7231276 0.7215101 0.7248977 0.7253861 0.7250503 0.7227919 0.722975 0.722914 0.7221205 0.7256607 0.7233413 0.7205945 0.7231276 0.7239822 0.7220594 0.7208997 0.7242874 0.7242569 0.7205945 0.7214186 0.7181835 0.7120796 0.7101569 0.706464 0.7034426 0.7026185 0.6981627 0.6956296 0.6953855 0.6964841 0.6939206 0.6915095 0.6893731 0.6863517 0.6824757 0.678264 0.676677 0.676616 0.6755478 0.6749374 0.675792 0.6757309 0.6770127 0.6764939 0.6718855 0.6690167 0.6718245 0.6702069 0.6691692 0.6643777 0.6670634 0.6655069 0.6611426 0.6543063 0.656168 0.6555271 0.6610816 0.662455 0.6649881 0.6641641 0.6672465 0.6686504 0.6746017 0.6793323 0.6772875 0.6779588 0.6822926 0.685253 0.6865043 0.690716 0.6922725 0.6911433 0.6922114 0.6942868 0.6976744 0.701703 0.7007569 0.7023439 0.7091192 0.7126595 0.7194958 0.7221205 0.7262101 0.7262101 0.7303607 0.7348471 0.739486 0.7439724 0.7516633 0.7562107 0.7552951 0.7577367 0.7593542 0.7616432 0.7642373 0.7696698 0.7726607 0.7767503 0.7784899 0.7835561 0.7827932 0.7785509 0.7827016 0.7830983 0.7881951 0.7941769 0.7958249 0.800525 0.8026918 0.8055912 0.8060794 0.8039126 0.8088872 0.8120307 0.8131905 0.815571 0.8199658 0.8214307 0.8224074 0.8251236 0.8282366 0.8327535 0.8350729 0.8388268 0.8420314 0.8421534 0.8470976 0.8515229 0.8532015 0.8526216 0.8546359 0.8545443 0.8532015 0.854056 0.8468534 0.8443814 0.840597 0.8393151 0.8349509 0.8323872 0.8269243 0.8184704 0.8189282 0.8164256 0.8135872 0.8070256 0.804523 0.8065068 0.8043094 0.7989074 0.8008606 0.7997009 0.8035769 0.8042789 0.7990905 0.7970152 0.7947873 0.7938107 0.7876152 0.7830373 0.7751328 0.767686 0.7595679 0.7546847 0.7514191 0.7465055 0.7446438 0.7467497 0.740951 0.7391503 0.7349692 0.7368308 0.7319477 0.7270951 0.7266984 0.7272478 0.7237685 0.7226088 0.7202283 0.7140633 0.7095159 0.7042056 0.7027712 0.7031984 0.701764 0.702527 0.7002075 0.6995971 0.6967893 0.6962095 0.6910822 0.6879692 0.6867484 0.6809192 0.6784777 0.6809192 0.6816822 0.6802478 0.6746933 0.6724349
0.6955686 0.6958127 0.6952329 0.6967893 0.6970335 0.6991088 0.7005127 0.7042971 0.7021303 0.7006653 0.7007874 0.7015504 0.7039004 0.7053043 0.7077153 0.7117439 0.7154062 0.7167186 0.7231886 0.7266374 0.7292315 0.7295977 0.7326802 0.733077 0.7391198 0.74266 0.7455289 0.7481841 0.7471769 0.7470244 0.7497101 0.7536471 0.759751 0.7596289 0.7643594 0.7722639 0.7760178 0.7771165 0.776201 0.779375 0.7842886 0.7874321 0.7890496 0.7878289 0.7896906 0.7874931 0.7841055 0.7828847 0.7826405 0.7769334 0.7731185 0.7703717 0.7656412 0.7596594 0.7576756 0.7567906 0.7548373 0.754349 0.7519685 0.7501678 0.7509919 0.749649 0.7507477 0.7505952 0.7505952 0.7536471 0.7526094 0.7508088 0.7483672 0.7454678 0.7467497 0.7445523 0.7441555 0.7447354 0.744949 0.7445523 0.7447049 0.7434841 0.739364 0.738601 0.7398523 0.74089 0.7398218 0.7411646 0.7403101 0.739425 0.7349997 0.7324971 0.7299334 0.7254776 0.7227004 0.718214 0.7201977 0.7179698 0.7194348 0.7188549 0.7199231 0.7199841 0.7233108 0.7262712 0.7257523 0.7257828 0.723738 0.7231581 0.7222426 0.7215711 0.7215406 0.7242569 0.7217543 0.7216017 0.7208692 0.7204114 0.7231276 0.7225478 0.7230361 0.7246536 0.7240127 0.7224257 0.7237075 0.7199231 0.7199231 0.7187939 0.7163523 0.7140023 0.7093939 0.70329 0.701001 0.6985289 0.6963316 0.6952939 0.6949582 0.6927913 0.6890985 0.6878777 0.6826589 0.6793017 0.6742049 0.6741439 0.6724959 0.6742965 0.6740524 0.6713971 0.6695355 0.6719465 0.6708784 0.6701764 0.6685894 0.6685894 0.667918 0.66804 0.6645913 0.6636453 0.6635537 0.6610511 0.6586095 0.6560154 0.6555881 0.6555271 0.6598608 0.6634011 0.6642556 0.6676128 0.667277 0.6691998 0.675792 0.6811329 0.6814381 0.684368 0.6847036 0.686077 0.6863822 0.6913264 0.692242 0.6915705 0.6926387 0.6955991 0.6963316 0.6979796 0.7042971 0.7056094 0.7089361 0.7140023 0.7188549 0.7228529 0.7241042 0.7248672 0.7296283 0.7340841 0.739364 0.7451321 0.7474821 0.7505646 0.7542574 0.7555698 0.7586828 0.7586523 0.7626808 0.7688152 0.7738814 0.7764146 0.7788562 0.782671 0.7813282 0.7798633 0.78261 0.7848685 0.7892327 0.7947568 0.7976256 0.7992431 0.8020509 0.8039736 0.8067814 0.8073003 0.8099859 0.8127632 0.8142282 0.819447 0.8218275 0.8280535 0.8308308 0.8308918 0.8338217 0.8362327 0.8401086 0.8419398 0.8427333 0.8442898 0.8468534 0.8510346 0.8513093 0.8520112 0.8514924 0.8510651 0.8496917 0.8486236 0.8448392 0.840719 0.8380333 0.8364768 0.8332723 0.8286638 0.8229567 0.821095 0.817097 0.8169749 0.8132516 0.8090398 0.8069035 0.8087957 0.8057438 0.8040957 0.8058658 0.8054081 0.8062626 0.8057132 0.7996094 0.797473 0.7948483 0.7915522 0.7870964 0.7816639 0.7756211 0.7656412 0.7590795 0.7532503 0.7523347 0.7489471 0.7469633 0.7437893 0.743362 0.7377464 0.7341146 0.7344809 0.72914 0.7277666 0.7249588 0.7252945 0.7238296 0.7238906 0.7195874 0.7127205 0.7104926 0.7085088 0.7070134 0.7071965 0.7031069 0.7020387 0.7035952 0.7024049 0.6982848 0.6958127 0.6908075 0.6891595 0.687603 0.6814991 0.6792712 0.6796985 0.6764634 0.6780199 0.6757615 0.6720381
0.6935238 0.6956601 0.6931576 0.6928523 0.6979796 0.6973692 0.7002075 0.7020387 0.7020692 0.6990478 0.6991088 0.7022523 0.7003296 0.7037783 0.7082952 0.7096381 0.7139108 0.7162912 0.7200146 0.7249893 0.7275224 0.7262101 0.7311543 0.7334432 0.7383568 0.739486 0.7423854 0.7434841 0.7429653 0.7431789 0.7505341 0.7552035 0.7591406 0.7599036 0.7678081 0.774797 0.7764451 0.7807788 0.7785509 0.7805347 0.7863029 0.7884697 0.790545 0.7884087 0.7897516 0.7868217 0.7861198 0.7852957 0.779375 0.7774522 0.774675 0.7682964 0.7621925 0.759049 0.7568516 0.7562412 0.7526094 0.7519685 0.7482146 0.7457731 0.7458341 0.7462614 0.748062 0.7486419 0.7483977 0.7521821 0.7536776 0.7502289 0.7489471 0.7486419 0.748886 0.7479094 0.7469023 0.7443386 0.7432705 0.7432399 0.7418361 0.7406763 0.7397913 0.741012 0.7388757 0.7405237 0.7419276 0.7451627 0.7420192 0.7405847 0.7382653 0.7339926 0.7312458 0.7281023 0.7249588 0.7217543 0.7220289 0.7205335 0.7207776 0.7188549 0.7223647 0.7241653 0.7274004 0.7278886 0.7272173 0.7275835 0.727614 0.726088 0.7242569 0.7208997 0.7207471 0.7235244 0.7229445 0.7227919 0.7219679 0.7187939 0.7208387 0.7233718 0.7241958 0.7227919 0.7231886 0.7264237 0.7211438 0.7187634 0.7166575 0.7147958 0.7140939 0.7118049 0.7098212 0.7027102 0.699475 0.6957211 0.6949887 0.6941342 0.6911738 0.6924251 0.688427 0.683666 0.6777452 0.6713666 0.6683147 0.667155 0.6692303 0.667918 0.6689861 0.6698712 0.6667888 0.6652017 0.6679485 0.666514 0.6669413 0.6670329 0.6677349 0.6674296 0.6631874 0.6584874 0.6603796 0.6606543 0.6578161 0.6590368 0.6559544 0.656931 0.6613258 0.6651712 0.6654153 0.6699322 0.6719465 0.6721907 0.6785998 0.68214 0.6852835 0.6863822 0.6843985 0.6861381 0.6893426 0.688427 0.6929744 0.6930355 0.6956601 0.6980101 0.6955686 0.6972471 0.7047855 0.7084172 0.7105842 0.7143075 0.7169017 0.720564 0.7226393 0.7240737 0.7271867 0.7318562 0.7368613 0.7431484 0.7440335 0.7467802 0.7530672 0.7548984 0.757401 0.7577367 0.7642984 0.7690288 0.7714094 0.7738814 0.7796191 0.7834951 0.7851431 0.7815113 0.7863944 0.7871574 0.7889581 0.7930477 0.796649 0.7956418 0.7982665 0.8016847 0.8053775 0.8086431 0.8100165 0.813221 0.8152964 0.8215833 0.8275346 0.8342794 0.834432 0.8348288 0.8373619 0.8428859 0.8436794 0.8444729 0.8467008 0.8491119 0.8482574 0.847708 0.8480132 0.850119 0.8519197 0.851645 0.8478911 0.8444119 0.8409021 0.8370872 0.8336996 0.8308613 0.8300983 0.8260392 0.8207593 0.818684 0.8176463 0.8152048 0.8138009 0.8095587 0.8089483 0.8094061 0.8083074 0.8103217 0.8090093 0.8096808 0.8080022 0.806995 0.8004944 0.7964964 0.7957334 0.7931697 0.7881646 0.7835256 0.7740951 0.7667704 0.7614295 0.7546847 0.7508088 0.7491302 0.7477874 0.7450406 0.740188 0.7352133 0.7333211 0.7331075 0.7294757 0.7251725 0.7255692 0.7272173 0.7234023 0.7243179 0.7179698 0.71269 0.7096991 0.7067387 0.7092413 0.7080815 0.7053348 0.7039919 0.7037478 0.7026491 0.7000244 0.6951413 0.692303 0.6889458 0.6870231 0.6859549 0.6822316 0.6769212 0.6756699 0.67509 0.6716413 0.6709394
