0.04553501 0.05090643 0.05539279 0.05966551 0.06457914 0.0686077 0.07010315 0.07245316 0.07568821 0.07700055 0.07898431 0.08261613 0.08817066 0.08807911 0.09265702 0.08887261 0.09784533 0.09610572 0.09934078 0.1000427 0.1046817 0.1056888 0.100531 0.08829274 0.08127327 0.07666484 0.07523042 0.0708051 0.06430446 0.06097784 0.05435512 0.06097784 0.06042849 0.06109992 0.05600318 0.05426357 0.04919734 0.04901422 0.0448941 0.0447415 0.04767137 0.04516877 0.04022462 0.03769151 0.03082464 0.030611 0.04431423 0.0709577 0.08502716 0.09406091 0.120918 0.1416102 0.1497284 0.1469816 0.1431667 0.1431362 0.1475615 0.1458524 0.1528414 0.1636147 0.1598303 0.1623634 0.1676433 0.1745407 0.174266 0.1864433 0.1974913 0.2070134 0.2020082 0.2047855 0.2066166 0.2042666 0.2147043 0.2304828 0.2352133 0.2516023 0.2453458 0.234664 0.2274614 0.225264 0.2257523 0.2183971 0.2076543 0.1800647 0.1841543 0.185314 0.1717634 0.1410914 0.1108161 0.1051395 0.1060856 0.1018129 0.09393884 0.09424403 0.09540378 0.09757065 0.1201856 0.1264115 0.133492 0.1347128 0.1382531 0.1464628 0.1588232 0.1655985 0.176677 0.1807056 0.1818653 0.1801257 0.1809498 0.1865959 0.1904718 0.1964536 0.1988036 0.1982238 0.1975218 0.1923335 0.1908381 0.1799731 0.1684978 0.1556492 0.1470427 0.1395044 0.1396264 0.1337972 0.1267472 0.1274492 0.1224135 0.1163706 0.1128304 0.1029116 0.09207715 0.08682781 0.08002198 0.07938106 0.074559 0.07562718 0.07465056 0.0734603 0.07187328 0.07138497 0.06976745 0.06790575 0.06595251 0.05969603 0.05905512 0.0577733 0.05865837 0.05865837 0.05621681 0.06082524 0.05960447 0.06348044 0.06332784 0.06619667 0.07056095 0.07104926 0.07495575 0.07816029 0.08020509 0.08197522 0.08783495 0.09189404 0.09457975 0.09540378 0.09650247 0.09961545 0.102057 0.1025758 0.1057804 0.1031862 0.1050784 0.1062077 0.1094122 0.1116706 0.1153024 0.1236037 0.1320881 0.1396875 0.1496673 0.1613868 0.1691082 0.180553 0.188427 0.1947751 0.2042971 0.2172069 0.2323445 0.2459867 0.2599341 0.2637185 0.264512 0.265275 0.2690594 0.2673808 0.2722639 0.2675334 0.2641152 0.2585607 0.251236 0.2462614 0.2392114 0.2380822 0.2318562 0.2274919 0.2170543 0.2054264 0.1907465 0.1811024 0.1708784 0.1641946 0.1590673 0.1497894 0.1433803 0.1320271 0.1194226 0.1144784 0.1125557 0.104468 0.09815052 0.1025453 0.09525117 0.09155832 0.08530184 0.07690899 0.07275835 0.06979796 0.06949276 0.06708173 0.06741744 0.06717329 0.06958432 0.07373497 0.07574925 0.0764512 0.07928951 0.08731612 0.09421352 0.09436611 0.0937252 0.09955442 0.1052005 0.1053226 0.1040408 0.1024232 0.09674662 0.09253494 0.08670573 0.08093756 0.07153757 0.06409083 0.05820058 0.05316487 0.05041812 0.04941098 0.04504669 0.04220839 0.04556552 0.05765122 0.08286028 0.1166453 0.1475005 0.1712751 0.1879998 0.2012452 0.2097601 0.2152536 0.2202283 0.2252335 0.2287432 0.2288653 0.2256913 0.2200452 0.2075017 0.1867485 0.166453 0.1467375 0.1297076 0.1186901 0.1140206 0.1139901 0.1165537 0.1201856 0.1244583 0.129494 0.1348654 0.140542 0.1461881 0.1522004 0.1574803 0.1622108 0.1658732 0.1682232
0.04635903 0.05224928 0.05505707 0.05759019 0.06125252 0.06558628 0.07251419 0.07468107 0.07657328 0.07626808 0.07907587 0.08188366 0.08426417 0.09317585 0.09311482 0.0927791 0.08966611 0.09509858 0.09558689 0.1006226 0.1046817 0.1033083 0.0935726 0.08765183 0.08011353 0.07623756 0.06851614 0.06760056 0.06210706 0.05832265 0.05548434 0.05835317 0.05295123 0.05105902 0.04861747 0.04986877 0.0491363 0.04675578 0.04367332 0.03967527 0.03882073 0.03772203 0.03854606 0.03576878 0.02908503 0.02762009 0.03769151 0.06637979 0.08719404 0.09665507 0.1158823 0.1455472 0.1518037 0.1504303 0.1453336 0.1499725 0.1539401 0.1542758 0.1504914 0.1574803 0.1588842 0.1599524 0.1657511 0.1784777 0.1861075 0.2043582 0.2082952 0.2090276 0.2110419 0.2247146 0.2296283 0.2218763 0.2133309 0.2283159 0.2469633 0.2510834 0.2545321 0.2422328 0.2357322 0.2343893 0.239425 0.2234023 0.2134835 0.201764 0.199353 0.1934627 0.186779 0.1521089 0.1282732 0.1162485 0.1033999 0.1026979 0.1005616 0.09735702 0.1023927 0.10282 0.1092596 0.1236953 0.1328511 0.1352622 0.141305 0.1448758 0.1542453 0.1605933 0.1740829 0.1809498 0.1910212 0.1920588 0.1915095 0.1951718 0.2002075 0.204114 0.2038088 0.2020387 0.2022828 0.2014283 0.1980406 0.1916926 0.1827504 0.1699322 0.1602881 0.1512544 0.1528108 0.1438686 0.1438686 0.1466459 0.1406031 0.1328511 0.1275102 0.1189037 0.1079167 0.09931026 0.09052067 0.0897882 0.08322652 0.08536287 0.08441678 0.08209729 0.08124276 0.08075444 0.08145639 0.07855704 0.07510834 0.07037783 0.06967589 0.06732589 0.06744796 0.06714277 0.06564732 0.07043887 0.07062198 0.07230055 0.07358237 0.07706159 0.07944211 0.07989989 0.08273821 0.0861869 0.0885369 0.09012391 0.09540378 0.1018434 0.1072453 0.1095953 0.1111823 0.1131356 0.113868 0.1148447 0.1156382 0.1119453 0.1152109 0.1180492 0.1204908 0.1232985 0.1290667 0.135018 0.1446621 0.153055 0.1619972 0.1730147 0.1796374 0.1897394 0.1968504 0.2022218 0.2122627 0.2240127 0.2376549 0.2524263 0.2641763 0.2664958 0.2665263 0.2679912 0.275499 0.2725996 0.2808399 0.2717451 0.2678081 0.2599341 0.253464 0.2498932 0.2390893 0.2400659 0.2356101 0.229262 0.2161692 0.2049991 0.1897088 0.1807666 0.1706037 0.1622413 0.1576634 0.1478972 0.1407557 0.1301044 0.1149362 0.1116706 0.1081914 0.1008973 0.09421352 0.09769273 0.09158884 0.08594275 0.0795947 0.07254471 0.06711225 0.06448758 0.06268694 0.05789538 0.0632668 0.06540316 0.06522004 0.06979796 0.07355185 0.0762986 0.08115119 0.089483 0.09705182 0.09818104 0.1006836 0.1056888 0.10987 0.1091375 0.1112128 0.109168 0.1027895 0.09985961 0.09280962 0.08542392 0.07703107 0.06967589 0.06305316 0.05890252 0.05728499 0.05417201 0.05121162 0.05112007 0.06100836 0.08331807 0.1149057 0.1490569 0.1738998 0.1886712 0.1993225 0.2089361 0.2158945 0.2195874 0.2217237 0.2239517 0.2274919 0.2291705 0.2228835 0.2101264 0.1933712 0.1762193 0.1611732 0.1448758 0.1301959 0.1220472 0.1205213 0.1226882 0.1260758 0.1299213 0.1344687 0.1393518 0.1446011 0.1504303 0.1560764 0.1614478 0.1667277 0.1710004 0.174266 0.1755783
0.04736617 0.05270708 0.05505707 0.05694928 0.05984862 0.06198499 0.07022523 0.07245316 0.07391809 0.0744064 0.07861808 0.07944211 0.08075444 0.0875908 0.08966611 0.09116157 0.09213819 0.09326741 0.0993713 0.09854727 0.1039492 0.09744857 0.08786547 0.08438625 0.07791613 0.07419276 0.06763108 0.06470121 0.06009278 0.05783434 0.05453824 0.05429409 0.05334798 0.04757981 0.04797656 0.04849539 0.04754929 0.04550449 0.04156748 0.03659281 0.03332723 0.03702008 0.0347006 0.03363242 0.02923762 0.02691815 0.03332723 0.06082524 0.08383691 0.09631936 0.1078252 0.1374596 0.153879 0.1546115 0.1535738 0.1607154 0.1590063 0.1556797 0.1565342 0.154642 0.1574803 0.160105 0.1675822 0.1840322 0.1964842 0.2163828 0.2115302 0.215803 0.2187939 0.225325 0.2281633 0.2248978 0.2257218 0.2419581 0.2502289 0.2595373 0.251999 0.2544101 0.2538607 0.248123 0.239364 0.2293841 0.2187023 0.2034121 0.2053958 0.1910212 0.1697186 0.1503388 0.1252823 0.1177135 0.1210706 0.1080999 0.09891351 0.1055667 0.1110908 0.106818 0.1161875 0.1235427 0.1351096 0.1371239 0.1410303 0.143594 0.1489959 0.1586095 0.1697796 0.1779283 0.1890679 0.1981017 0.2013368 0.1965147 0.2026491 0.2070134 0.2094549 0.2083257 0.2070134 0.2073186 0.2024965 0.1945309 0.1872673 0.1788744 0.1736556 0.1654459 0.1600745 0.1502472 0.155405 0.1582738 0.1524446 0.1490264 0.146829 0.138192 0.1327596 0.123268 0.1038271 0.1001343 0.09467131 0.0951291 0.09436611 0.09134468 0.0907343 0.09201612 0.0913752 0.08972716 0.08395898 0.07788561 0.07794665 0.07794665 0.07800769 0.0756577 0.07498626 0.07745834 0.07874016 0.07993042 0.08218885 0.08530184 0.08716352 0.08789599 0.09061222 0.09393884 0.0971739 0.1017823 0.1103583 0.1159739 0.120033 0.120796 0.1218336 0.1228713 0.1228407 0.1232985 0.1227492 0.1209485 0.1283037 0.1309284 0.1337057 0.1363914 0.1420375 0.1478667 0.157755 0.1649881 0.1706342 0.1794238 0.1855277 0.1963621 0.2019471 0.207166 0.2171153 0.22914 0.2411951 0.2548373 0.2651224 0.2665873 0.2680217 0.2682659 0.2744613 0.2737289 0.2813892 0.2693036 0.2683269 0.2603919 0.2508393 0.2449185 0.2408289 0.2379601 0.2289874 0.2263017 0.2128121 0.2029238 0.1897088 0.176555 0.1712751 0.1591284 0.1505219 0.1378563 0.1320271 0.1283648 0.1176524 0.1118843 0.1075505 0.0979674 0.09030703 0.09015442 0.08295184 0.08060184 0.07584081 0.06814991 0.06363303 0.06323628 0.06177135 0.05539279 0.05743759 0.0643655 0.06558628 0.07074407 0.07336874 0.07663432 0.08441678 0.09329793 0.1001343 0.1033388 0.109046 0.1137765 0.1164012 0.116981 0.1186291 0.1149057 0.1096563 0.1065128 0.09876091 0.09091742 0.08347067 0.07611549 0.07068302 0.0676616 0.06509797 0.06128304 0.061222 0.0678142 0.08716352 0.1170115 0.1493621 0.1762803 0.1917536 0.1987731 0.2053043 0.2120491 0.2178478 0.2203809 0.2208081 0.2194653 0.218153 0.2180309 0.2139108 0.2008484 0.1862907 0.1731978 0.1593725 0.1439297 0.1317829 0.1271745 0.127968 0.1312336 0.1352011 0.1392907 0.1436855 0.148416 0.1537875 0.1590063 0.1646524 0.1699933 0.1745712 0.1783251 0.1807361 0.1817433
0.04642007 0.05215772 0.05505707 0.05630837 0.05932979 0.06067265 0.0643655 0.0697064 0.07040835 0.06973692 0.0759934 0.08228041 0.08502716 0.08627846 0.0885369 0.08981872 0.09836416 0.09989013 0.1040103 0.09989013 0.09323689 0.08496612 0.07944211 0.07736678 0.07501678 0.07227004 0.06265641 0.06308369 0.05740707 0.05508759 0.05289019 0.05231032 0.05237136 0.05438564 0.04797656 0.0492889 0.04590124 0.04110969 0.03698956 0.03332723 0.03100775 0.03537203 0.03137399 0.02798633 0.02743698 0.02908503 0.03161814 0.05224928 0.07907587 0.09012391 0.09778429 0.1209485 0.1463102 0.1516816 0.1574193 0.1605323 0.1623329 0.154642 0.1572362 0.1587011 0.1594946 0.1595556 0.1636758 0.185253 0.194592 0.2051517 0.2160776 0.2125069 0.2106147 0.2175731 0.2234633 0.2256913 0.2320698 0.2412867 0.2497711 0.2581945 0.2561191 0.2588964 0.2567295 0.2460172 0.241775 0.2393335 0.2299335 0.2160471 0.2092413 0.1829946 0.1637978 0.1439297 0.127205 0.1306537 0.1207654 0.1157908 0.1142953 0.113868 0.1211317 0.1222914 0.1178661 0.1185375 0.1322102 0.1381615 0.1390771 0.1449063 0.1519563 0.1587011 0.1684368 0.1753647 0.1847952 0.197003 0.2061893 0.2031984 0.1998108 0.2053348 0.2078069 0.2094854 0.2107978 0.2107673 0.2085699 0.2008179 0.1908686 0.18449 0.1808277 0.1737472 0.1677959 0.1622108 0.1641335 0.1613868 0.1558323 0.1537264 0.1561985 0.1568089 0.1514069 0.1392602 0.1244888 0.116218 0.1052005 0.1052005 0.1023317 0.09970701 0.09769273 0.1001343 0.1038271 0.09927974 0.09201612 0.08826222 0.08905573 0.08804858 0.08798755 0.08673625 0.08563755 0.08459989 0.08588171 0.09012391 0.09161936 0.09528169 0.09805896 0.0993713 0.1013245 0.1056888 0.1108161 0.1156687 0.1212232 0.1249161 0.1267472 0.1272966 0.1302875 0.1321492 0.1339498 0.1338277 0.1320271 0.134194 0.1412134 0.1422206 0.1438686 0.1469511 0.1534823 0.1606238 0.1688946 0.1725874 0.1762193 0.1877861 0.2002075 0.2100653 0.2128426 0.2167796 0.2221205 0.2312763 0.2422328 0.253586 0.2624977 0.2689068 0.2730879 0.2720808 0.2721724 0.2705243 0.2787035 0.2710126 0.2685406 0.2613685 0.2525484 0.245712 0.239364 0.2349692 0.2209913 0.2138192 0.2015809 0.1942562 0.18214 0.1679485 0.1619056 0.153818 0.1438076 0.1268083 0.118568 0.1162485 0.1123421 0.1048343 0.1011414 0.09360313 0.08438625 0.08459989 0.07687847 0.07254471 0.07077459 0.06006226 0.0598181 0.06277849 0.05844473 0.05627785 0.05694928 0.06128304 0.0646707 0.07193432 0.0766038 0.08118171 0.08786547 0.09876091 0.1059025 0.1099005 0.1150583 0.1184459 0.1226882 0.1245193 0.1255875 0.1227492 0.117805 0.1127083 0.1047122 0.09692974 0.08994079 0.08273821 0.07910639 0.07709211 0.07272783 0.06995056 0.07507782 0.09021547 0.1145395 0.1410914 0.1652323 0.1836355 0.1940426 0.1995972 0.2048465 0.2101874 0.2156809 0.2189465 0.2178783 0.2144906 0.21034 0.2068302 0.204816 0.1971251 0.1853446 0.1734725 0.1579076 0.1432277 0.1344992 0.1329427 0.1353232 0.1395959 0.1435329 0.1477751 0.1520784 0.1565647 0.1618446 0.1669108 0.1720076 0.176677 0.1808277 0.1838796 0.1855582 0.1853751
0.04464994 0.04895318 0.05295123 0.05481292 0.05841421 0.06015382 0.06192394 0.06457914 0.06515901 0.07083562 0.07318562 0.08276872 0.08643106 0.08887261 0.0872856 0.08704145 0.09061222 0.09451871 0.09244338 0.08377586 0.07950314 0.07571873 0.07397912 0.07370445 0.07077459 0.06610511 0.06329732 0.06299213 0.06198499 0.05707135 0.05359214 0.04706098 0.04980773 0.05191357 0.04776292 0.0467863 0.04596228 0.04153696 0.0337545 0.02942074 0.03067204 0.0296649 0.02551425 0.01959348 0.02487334 0.02813892 0.02902399 0.03988891 0.06982848 0.08426417 0.09265702 0.1081609 0.1302264 0.1446316 0.1546725 0.1597387 0.1606543 0.1558323 0.1599524 0.1648965 0.161692 0.16334 0.1704206 0.1806446 0.1857718 0.1979796 0.1992004 0.1995361 0.2028932 0.2109199 0.2179393 0.2308491 0.2328939 0.2451932 0.2538607 0.2563328 0.262101 0.2514192 0.2461088 0.2409815 0.2466886 0.2531893 0.2588354 0.240249 0.2100043 0.1858939 0.1645913 0.1415797 0.1351401 0.1401758 0.1330648 0.1268388 0.1292498 0.1303485 0.1333394 0.1372764 0.1343771 0.131844 0.1320576 0.1355063 0.1417323 0.1367576 0.1462186 0.1553134 0.1656595 0.1761887 0.1847647 0.1958127 0.2009705 0.2129036 0.2093328 0.2025575 0.2056095 0.2083257 0.2113166 0.2130867 0.2123238 0.2099738 0.2040225 0.1952329 0.1896478 0.1788134 0.1745407 0.1719465 0.17039 0.1651407 0.16099 0.1604712 0.1618446 0.1625771 0.1615699 0.1508881 0.1380394 0.1361167 0.1274492 0.1197278 0.1171947 0.1120674 0.1077641 0.1112739 0.113746 0.1111518 0.1057193 0.1007447 0.09906611 0.09891351 0.09876091 0.09805896 0.09815052 0.09961545 0.1016603 0.1049258 0.1079473 0.1124031 0.113868 0.113044 0.1138375 0.1189037 0.1234817 0.1283343 0.1334615 0.1356589 0.1386193 0.1422206 0.1449368 0.1465238 0.1456693 0.1431972 0.1450284 0.1486602 0.1551303 0.1548251 0.1561375 0.1613258 0.1714582 0.1780809 0.1845511 0.1848868 0.1885796 0.2003601 0.2090582 0.2162608 0.2192211 0.2248672 0.2285601 0.2357627 0.2454068 0.2537692 0.2656717 0.2774522 0.2813587 0.2789172 0.2761399 0.2762315 0.2829152 0.2761399 0.2743698 0.2638711 0.2540133 0.246414 0.2335653 0.2274614 0.2181835 0.2104315 0.1943478 0.1842459 0.1699017 0.1590368 0.1502472 0.1423427 0.1319661 0.1189037 0.1096869 0.1085576 0.1037661 0.09595312 0.09192456 0.08777391 0.07932003 0.07385705 0.06979796 0.0665629 0.06409083 0.05362266 0.05630837 0.05920772 0.05441616 0.05481292 0.05865837 0.05972654 0.0643655 0.07437588 0.07837392 0.0828908 0.08969664 0.1022096 0.1102973 0.1149667 0.1227492 0.1261369 0.1290362 0.1324238 0.1327901 0.1306232 0.125557 0.1188427 0.1123115 0.1045291 0.09644143 0.09186351 0.08868949 0.08466093 0.08072392 0.08331807 0.09430507 0.113044 0.1337667 0.1514985 0.1692913 0.1824147 0.1935543 0.1999023 0.2042666 0.2086309 0.2122932 0.2160166 0.2176036 0.2139413 0.2087835 0.203351 0.2000549 0.19624 0.186016 0.1732284 0.1560154 0.1426479 0.1376732 0.1384972 0.1420375 0.1464933 0.1507966 0.1551303 0.1591894 0.1637063 0.1683147 0.1728926 0.177379 0.181377 0.1848868 0.1871757 0.1879692 0.1873588
0.04464994 0.04699994 0.05002137 0.05279863 0.05884148 0.06036745 0.05954343 0.06302264 0.06619667 0.07333822 0.07840444 0.08441678 0.08560703 0.09039858 0.09027651 0.0891778 0.0883843 0.08527131 0.08054081 0.07919795 0.07663432 0.07651224 0.07602393 0.07529146 0.07288042 0.06946225 0.06753952 0.06894342 0.06299213 0.05643044 0.05411097 0.04889214 0.04718306 0.04925838 0.0448941 0.04440579 0.04324605 0.04306293 0.04095709 0.03622658 0.03033632 0.02130257 0.01516816 0.01025453 0.0119331 0.01950192 0.02435451 0.03006165 0.06094732 0.0875908 0.09177196 0.1067875 0.1265946 0.1350485 0.1439602 0.1519563 0.1549777 0.1588232 0.1642862 0.1677348 0.1686199 0.1757309 0.1840017 0.1938595 0.192242 0.185253 0.1893121 0.197064 0.1964842 0.2219984 0.2360068 0.2398218 0.2408594 0.2485503 0.2558445 0.2498016 0.2500458 0.2458951 0.2486419 0.2361899 0.2498016 0.2667094 0.2736373 0.2544101 0.2405542 0.2100653 0.1880913 0.1542758 0.1446621 0.1377953 0.1427089 0.1402063 0.1440518 0.1504914 0.1562901 0.1622108 0.1629433 0.156229 0.1489654 0.1442654 0.1425258 0.1459745 0.1508576 0.1607459 0.1651407 0.1727706 0.1788744 0.1921809 0.1974608 0.210401 0.2141549 0.2100958 0.2047244 0.2077458 0.2087225 0.2122017 0.2145212 0.2152841 0.2152536 0.2098822 0.2033205 0.1959043 0.1881829 0.1802478 0.1742355 0.1677959 0.1647439 0.1656595 0.1700543 0.1677654 0.1649576 0.1602271 0.1568699 0.1527193 0.1463712 0.1405115 0.135781 0.1283343 0.1232985 0.1257096 0.1254349 0.1254044 0.1249161 0.1238174 0.1194836 0.115455 0.1157908 0.1174083 0.1198193 0.1205823 0.1224745 0.1251297 0.127205 0.1294329 0.1298297 0.1292193 0.1299213 0.1334615 0.1370018 0.1419764 0.1479582 0.1535738 0.1588232 0.1630654 0.1658732 0.1663309 0.162516 0.1603797 0.1654154 0.1697796 0.174327 0.1708173 0.1752732 0.1838796 0.1922725 0.197827 0.2015504 0.2012147 0.20564 0.2151926 0.2177562 0.2211134 0.2265763 0.2335042 0.2353354 0.2430263 0.2513276 0.2616127 0.2732711 0.2819386 0.2827931 0.2792224 0.279436 0.2823964 0.2868522 0.2787035 0.2769029 0.2680523 0.252762 0.239364 0.226027 0.2210523 0.2114692 0.2058231 0.1893121 0.174327 0.1552829 0.148294 0.1387414 0.1276018 0.120857 0.1139596 0.1068791 0.104468 0.09583104 0.0872856 0.080846 0.07620704 0.07147653 0.06668498 0.06406031 0.06140511 0.05798694 0.04983824 0.04959409 0.05160838 0.04855643 0.04831228 0.05136422 0.05487395 0.06274797 0.07324666 0.07724471 0.08402002 0.09259598 0.1027895 0.1123421 0.1192089 0.1272966 0.1317829 0.1353232 0.1386498 0.1397485 0.1366966 0.1331258 0.127205 0.1185986 0.110633 0.1032168 0.09854727 0.09534273 0.09219923 0.09207715 0.09851675 0.1122505 0.1290057 0.1445096 0.1579991 0.1716413 0.181377 0.1910822 0.1990783 0.2039004 0.2078069 0.2107062 0.2129952 0.2154062 0.2146737 0.2098517 0.2036867 0.1982848 0.1946835 0.1857108 0.171092 0.1538485 0.1427394 0.1408472 0.1438992 0.1480193 0.1525057 0.1569615 0.160929 0.1651712 0.1691387 0.1733199 0.1774095 0.1811634 0.1845816 0.1868095 0.1882744 0.1881829 0.18684
0.04461942 0.04626747 0.04931942 0.05493499 0.05649149 0.05978759 0.05755967 0.06131355 0.06659342 0.07013367 0.0751999 0.07608496 0.07956418 0.08270769 0.08487456 0.08328755 0.08475249 0.08054081 0.080846 0.08282976 0.08072392 0.07977782 0.07803821 0.07672587 0.07510834 0.07248367 0.07010315 0.07260575 0.06866874 0.06222914 0.05743759 0.05575902 0.04895318 0.04849539 0.04178111 0.03378502 0.03433437 0.03793567 0.03848501 0.03589086 0.02575841 0.01693829 0.007812977 0.007751938 0.01263505 0.01608375 0.01754868 0.02853568 0.0532259 0.08505768 0.09732649 0.1049258 0.1188427 0.1307758 0.1391076 0.1449979 0.1485381 0.152292 0.1626686 0.1652933 0.1714582 0.1809803 0.2037783 0.2012147 0.198651 0.1893426 0.2024354 0.2063725 0.2170237 0.2396387 0.2477263 0.2470244 0.247238 0.2428127 0.2456205 0.2495269 0.2529451 0.2475127 0.237838 0.2381127 0.2402796 0.2567601 0.2675945 0.2744003 0.2632912 0.2411036 0.2270952 0.191479 0.1683147 0.1480803 0.1493927 0.1507966 0.1560764 0.1613258 0.1715192 0.1784777 0.1877251 0.1935543 0.1854361 0.1702985 0.1578771 0.1512544 0.1556186 0.163279 0.1713972 0.1707868 0.1770738 0.185955 0.1946835 0.2058536 0.2115302 0.2194043 0.2129341 0.2077153 0.2082647 0.209516 0.2125984 0.2187023 0.2219984 0.2219679 0.2187634 0.211103 0.2057621 0.1995361 0.1880913 0.1765855 0.171977 0.1755783 0.1783251 0.1773179 0.1774095 0.176616 0.1782946 0.1714887 0.1602271 0.1539401 0.1547031 0.1533907 0.1516206 0.1507355 0.1455167 0.1422816 0.1437771 0.1434414 0.142129 0.1379174 0.1361777 0.1356894 0.1359336 0.1348959 0.1362998 0.1388024 0.1419154 0.1430446 0.1438076 0.1453336 0.1478362 0.151468 0.1524446 0.1565647 0.1617225 0.1671245 0.1725874 0.1763108 0.178905 0.1778673 0.1768602 0.1796069 0.185314 0.1910517 0.1910212 0.1903803 0.2002991 0.2067082 0.2086919 0.2063419 0.2082036 0.2116218 0.2176647 0.2231276 0.2242874 0.2255082 0.2309711 0.237075 0.2378075 0.2440945 0.2536471 0.2689373 0.2738815 0.2761094 0.2740951 0.2738204 0.2758957 0.2786425 0.2790087 0.2714704 0.2711347 0.2618568 0.2438198 0.2318257 0.2195569 0.2132393 0.2053653 0.1964231 0.1782641 0.16334 0.1459745 0.1395654 0.1301044 0.1181408 0.1110297 0.1050479 0.09720442 0.09515962 0.0853934 0.07596289 0.07321614 0.06668498 0.06125252 0.061222 0.05746811 0.05383629 0.04947201 0.04345968 0.04245254 0.04361228 0.04342917 0.04358176 0.04681682 0.05255448 0.0602759 0.06937069 0.07577977 0.083196 0.09320638 0.1035525 0.1142343 0.123268 0.1305622 0.1372764 0.1423732 0.1447232 0.1459745 0.1431972 0.1387719 0.1321797 0.1233291 0.1153024 0.1084966 0.1041934 0.1019349 0.1015687 0.1041628 0.1119148 0.1247024 0.1371239 0.1497589 0.1616615 0.1722212 0.1800342 0.1878472 0.1966978 0.2034121 0.2071965 0.2094854 0.2106147 0.2116523 0.2122932 0.209577 0.2035342 0.1972777 0.1925472 0.1834524 0.1669108 0.1505829 0.1429225 0.1436245 0.1479277 0.1528414 0.1572362 0.161631 0.16569 0.1697491 0.173442 0.1765855 0.1799426 0.1829335 0.1853751 0.1871147 0.187542 0.1870231 0.1843679
0.04202527 0.0437954 0.04767137 0.05438564 0.05533174 0.05865837 0.06140511 0.06390771 0.06637979 0.0694012 0.0715986 0.07071354 0.0712629 0.07590185 0.07605445 0.07663432 0.07913691 0.07877067 0.07977782 0.07843496 0.08115119 0.08212782 0.07956418 0.07431484 0.07516938 0.07529146 0.07385705 0.07388756 0.07022523 0.06470121 0.06045901 0.05530123 0.05209669 0.04873955 0.0390954 0.03335775 0.0337545 0.03656229 0.03582982 0.03253372 0.02310322 0.01257401 0.005066227 0.008514924 0.009003235 0.0130318 0.01989868 0.02722334 0.04748825 0.07727522 0.0940304 0.09985961 0.1151804 0.1267472 0.1369407 0.1424953 0.1458829 0.1481719 0.1539401 0.1574498 0.1663309 0.1826589 0.211988 0.2069523 0.2065861 0.2114387 0.2172069 0.222212 0.2282549 0.2377159 0.2466276 0.2570042 0.2534029 0.2475432 0.246414 0.2455899 0.2463834 0.2465971 0.2458951 0.2522737 0.2506562 0.2504425 0.2526704 0.2638406 0.2748276 0.2652445 0.2404627 0.2136056 0.1918757 0.171153 0.1636758 0.156168 0.1588537 0.1626991 0.1723738 0.1830556 0.1931575 0.2007874 0.2031069 0.1972166 0.185253 0.174327 0.1629128 0.1634926 0.1715192 0.1760972 0.1799121 0.1838491 0.1911127 0.2007264 0.2043582 0.2169932 0.219801 0.2107367 0.2038088 0.2070439 0.2107367 0.2171458 0.2239517 0.226912 0.228438 0.2239211 0.2181224 0.2152536 0.21034 0.1995666 0.190777 0.1881829 0.1859855 0.1851004 0.1893731 0.1959653 0.1941342 0.1883049 0.1822011 0.1766465 0.1736251 0.1742965 0.1764634 0.1743881 0.1688641 0.1630349 0.1631264 0.1610206 0.1609595 0.1583349 0.1573277 0.1553134 0.1553745 0.1541537 0.153879 0.1553134 0.1552524 0.1568699 0.1572667 0.1589147 0.1606543 0.1630959 0.1645913 0.1661173 0.1702069 0.1753952 0.1800952 0.1840933 0.1865959 0.1886712 0.1930965 0.1975523 0.2035952 0.2050296 0.2017335 0.2069218 0.2152536 0.2191601 0.2174815 0.2144906 0.2159556 0.2199841 0.2238601 0.225264 0.2269731 0.2311237 0.2365867 0.2417445 0.2364341 0.2395776 0.2497711 0.263688 0.269273 0.2669536 0.2669536 0.267686 0.2657938 0.2697308 0.2667094 0.2592321 0.2583471 0.2467497 0.2297504 0.2227614 0.2137887 0.2081426 0.1952329 0.182842 0.1628212 0.1511323 0.1348654 0.1285479 0.1198498 0.1126167 0.1097174 0.09812 0.08594275 0.08679729 0.0767564 0.06866874 0.06607459 0.06103888 0.05643044 0.05624733 0.05252396 0.04901422 0.04535189 0.03998047 0.04153696 0.04046878 0.03991943 0.04132332 0.04510773 0.05066227 0.05850577 0.06692913 0.07468107 0.08402002 0.09552585 0.1062687 0.1163401 0.1265946 0.135018 0.1417323 0.146829 0.1495147 0.1502472 0.1478056 0.1429225 0.1360862 0.1276933 0.1198193 0.113746 0.1102362 0.1093512 0.1107245 0.113044 0.1204602 0.1309284 0.1404199 0.1513764 0.1622719 0.1712141 0.1781115 0.1843985 0.1922725 0.2010926 0.2062504 0.2086919 0.2093939 0.2089666 0.2096075 0.2092413 0.2046939 0.1976134 0.1899225 0.1778063 0.1609595 0.146768 0.1427089 0.146005 0.1514069 0.1564427 0.1610816 0.1653238 0.1688336 0.1724959 0.1757004 0.1787829 0.1812855 0.1834829 0.1851004 0.1855277 0.1851004 0.1836965 0.1802173
0.03827138 0.03964476 0.04309345 0.04706098 0.05090643 0.05450772 0.06009278 0.06113044 0.0610694 0.06323628 0.06726485 0.07178172 0.07443692 0.07465056 0.07367393 0.07294147 0.07657328 0.07581029 0.07516938 0.07513887 0.07861808 0.08316547 0.08203626 0.07904536 0.07617652 0.07748886 0.07742782 0.0762986 0.07281938 0.06955381 0.06363303 0.05969603 0.05069279 0.04562657 0.04449734 0.03952268 0.03372398 0.03491424 0.03064152 0.02700971 0.02261491 0.01495453 0.01031557 0.01019349 0.01040713 0.01342855 0.01672465 0.02380516 0.04117072 0.06567784 0.08960508 0.09757065 0.1084051 0.1211011 0.1335836 0.1384057 0.1428615 0.1456082 0.1477446 0.1479582 0.1550998 0.1751511 0.1902887 0.2052432 0.205579 0.2126595 0.2186107 0.2232497 0.2231887 0.2414088 0.248825 0.2536165 0.2570652 0.2590795 0.2648782 0.2562412 0.253525 0.2550815 0.2710737 0.2798938 0.2788866 0.2480315 0.2496185 0.2506867 0.2594152 0.257462 0.2632912 0.2361899 0.2007264 0.1842459 0.1654764 0.1533907 0.1605017 0.1668803 0.1692608 0.1710004 0.1882134 0.1955991 0.2036562 0.2091497 0.2063725 0.197064 0.1732284 0.1609595 0.1644998 0.1770128 0.1851614 0.1874809 0.1903498 0.1969725 0.2041445 0.2078984 0.2167796 0.2118049 0.1995972 0.2016725 0.2086919 0.2130867 0.220625 0.2274309 0.2307575 0.229964 0.2280718 0.2271257 0.226027 0.2210218 0.2142159 0.2061283 0.2011536 0.1999939 0.2053653 0.2096991 0.2110114 0.2106757 0.208753 0.2073491 0.2046634 0.2018861 0.2023439 0.1988647 0.1971556 0.1935238 0.1915095 0.1864433 0.1837576 0.182903 0.1790881 0.1740219 0.1715192 0.1706952 0.1692303 0.1698407 0.1685283 0.1706037 0.1731978 0.1748764 0.1747238 0.1738082 0.1747848 0.1776537 0.1840627 0.189892 0.1935238 0.1949582 0.1982238 0.2039614 0.2064945 0.2089666 0.2122627 0.2116218 0.2131783 0.2168406 0.2208997 0.2220289 0.2206556 0.2211439 0.2234633 0.2258133 0.226851 0.2290484 0.227675 0.232375 0.2369529 0.2400659 0.233199 0.2332906 0.2424464 0.2573704 0.2620094 0.2590795 0.2609717 0.2579503 0.2554782 0.2591406 0.2548068 0.244827 0.2450406 0.2345724 0.2195874 0.2129036 0.2024049 0.1952939 0.17979 0.1680706 0.152231 0.1455167 0.1308063 0.1212232 0.1128609 0.1069401 0.1021791 0.08939144 0.07925899 0.08008301 0.06934017 0.0656168 0.0634194 0.06100836 0.05881096 0.05847525 0.05313434 0.04858695 0.0437954 0.04031618 0.04257462 0.04117072 0.03912592 0.04172008 0.0470915 0.05331746 0.06055057 0.06949276 0.07816029 0.0874382 0.09873039 0.109809 0.1202466 0.1303791 0.1391992 0.1461881 0.1511323 0.1540621 0.1544284 0.1521699 0.1471953 0.1402368 0.1317829 0.1242141 0.1188427 0.1163706 0.1161265 0.1161265 0.1183544 0.1258316 0.1343466 0.1409998 0.1508576 0.1618141 0.1694134 0.1754563 0.1812244 0.187603 0.1957212 0.2028322 0.2067692 0.2079595 0.2071049 0.2077764 0.2086919 0.2043277 0.1948361 0.1825673 0.1681926 0.1526582 0.1433193 0.1428615 0.1477751 0.1535738 0.1589147 0.1639199 0.167918 0.171153 0.1744796 0.1769822 0.1793322 0.1810413 0.18214 0.1830861 0.1825368 0.1814381 0.1787829 0.175029
0.03357138 0.03488372 0.0373558 0.04226942 0.04657267 0.04852591 0.05026552 0.05582006 0.05563694 0.05752914 0.06418239 0.07107978 0.07248367 0.07175121 0.07294147 0.07526094 0.07639016 0.07733627 0.07776354 0.07623756 0.07968626 0.08228041 0.08093756 0.07779405 0.07462003 0.07452847 0.07431484 0.07373497 0.06830251 0.06485381 0.06552524 0.05923823 0.05475188 0.04886162 0.04608436 0.04550449 0.03790515 0.03085515 0.02890191 0.02304218 0.02066166 0.01263505 0.009430507 0.009094793 0.01062077 0.01138375 0.01739608 0.02536166 0.03772203 0.05209669 0.07501678 0.0927791 0.1012025 0.1125862 0.122444 0.1301349 0.134194 0.1394128 0.1454557 0.1471953 0.1501251 0.162455 0.1851309 0.194653 0.200116 0.1970335 0.2082341 0.2204419 0.2263322 0.2412257 0.2505951 0.2580113 0.2665568 0.2795581 0.2992126 0.2990905 0.3020814 0.294299 0.3048282 0.3053775 0.3096502 0.2979308 0.2785204 0.2575535 0.2395166 0.2438198 0.242538 0.2211134 0.2008484 0.1916316 0.1622719 0.1435024 0.1517121 0.1650491 0.1769517 0.1769822 0.1757004 0.1917536 0.2023439 0.2085088 0.2161387 0.2130562 0.2010621 0.1771959 0.1694439 0.1745102 0.1871452 0.1909907 0.1897699 0.1925166 0.1989562 0.2051517 0.2029543 0.2062504 0.2027101 0.1953549 0.2013062 0.2083257 0.2151926 0.2243789 0.2310016 0.2324055 0.2322224 0.2337179 0.2337484 0.2298419 0.2274614 0.2220289 0.2190991 0.2204419 0.2251419 0.2288042 0.2287432 0.233077 0.237777 0.2352744 0.2375023 0.2362815 0.2324055 0.2285906 0.2239517 0.2208387 0.2205945 0.2145212 0.2097906 0.2086004 0.2022523 0.1957822 0.1920894 0.1912043 0.1902887 0.1878472 0.1865348 0.190014 0.1945309 0.1944088 0.1937985 0.1927608 0.1928523 0.1965452 0.2016725 0.2061588 0.2060978 0.2062809 0.2085699 0.211988 0.2133004 0.2151621 0.2187634 0.2199841 0.223738 0.2268815 0.2281939 0.2278887 0.2264237 0.2264237 0.2262101 0.2272478 0.2261796 0.2281633 0.225325 0.2314594 0.2329244 0.2342672 0.2282854 0.2298114 0.2343283 0.2506867 0.2538302 0.2516633 0.2517854 0.2503815 0.2507172 0.2509614 0.2463529 0.2363731 0.2364341 0.2254776 0.2100958 0.2035342 0.1937985 0.1841238 0.1709089 0.1597082 0.1470732 0.1411524 0.1257401 0.1168895 0.109931 0.09985961 0.09207715 0.08276872 0.07550509 0.0751999 0.06384667 0.06259537 0.06406031 0.061222 0.05966551 0.05868889 0.05075383 0.04712202 0.04361228 0.04196423 0.04272722 0.04278826 0.04236098 0.04455838 0.04864799 0.05578954 0.06390771 0.07211744 0.08087651 0.09033754 0.1018739 0.1126778 0.1236037 0.1337972 0.1428005 0.1502167 0.1552829 0.1583043 0.1584264 0.1560459 0.1510407 0.1441128 0.1358115 0.1281817 0.1236343 0.1215589 0.1202466 0.118568 0.1212843 0.1286394 0.1357505 0.1406641 0.1486602 0.160105 0.1676433 0.1734115 0.178203 0.1837881 0.1904108 0.1969114 0.200879 0.2012147 0.2007874 0.2023744 0.2034426 0.1977049 0.1853751 0.1698102 0.1565037 0.144418 0.1400537 0.1431972 0.149118 0.1553439 0.1605933 0.1654154 0.1692303 0.1723433 0.1752121 0.1771654 0.1785998 0.1795764 0.1795153 0.1791796 0.1782641 0.1758835 0.1727095 0.1685589
0.0315571 0.03146555 0.03222853 0.03927852 0.04373436 0.04495513 0.04703046 0.04996032 0.05267655 0.05679668 0.06076421 0.06299213 0.06790575 0.06967589 0.07172069 0.07462003 0.07672587 0.07855704 0.08389794 0.0839895 0.08344015 0.08215833 0.08139535 0.07919795 0.07327718 0.07385705 0.07550509 0.07373497 0.0715986 0.06222914 0.05936031 0.05752914 0.05398889 0.05255448 0.05203564 0.04822072 0.04437527 0.03561619 0.02404932 0.02053958 0.01651102 0.009399988 0.009003235 0.007874016 0.006317524 0.01483245 0.02313374 0.02890191 0.04062138 0.04248306 0.05328694 0.07400964 0.09033754 0.1000732 0.1139901 0.1184154 0.1241531 0.1364829 0.1445096 0.1517121 0.1630654 0.1775926 0.1996277 0.2064945 0.2089361 0.2179088 0.227614 0.2404016 0.2522432 0.2602393 0.2635659 0.2713789 0.2876152 0.3047366 0.3139535 0.3254593 0.3208814 0.3057438 0.3078801 0.3008301 0.3027529 0.3101691 0.2966184 0.2678081 0.2438809 0.2368614 0.2208081 0.2195569 0.2182445 0.193951 0.1634621 0.1460966 0.1506134 0.165629 0.1764939 0.1811329 0.1814991 0.1847952 0.1999939 0.2118354 0.2197705 0.224562 0.217451 0.2045108 0.1706037 0.1730452 0.1861686 0.194592 0.1957822 0.1921504 0.19154 0.1975218 0.2007264 0.1968199 0.2045718 0.2041751 0.1972166 0.1989868 0.208051 0.2185802 0.2266984 0.2321919 0.2356711 0.2364646 0.2353049 0.2352744 0.2348776 0.2318867 0.2312458 0.2344809 0.237838 0.2389672 0.239364 0.2460783 0.2521821 0.2582555 0.2619178 0.2602393 0.2618568 0.2582555 0.2522126 0.2479094 0.2436672 0.2371666 0.2333211 0.2279497 0.2217848 0.2147653 0.2114997 0.2106147 0.208814 0.206464 0.2053653 0.2101874 0.2154978 0.2139413 0.2122322 0.2108283 0.2082341 0.2086004 0.2107673 0.211927 0.2115913 0.2125374 0.2149789 0.2175426 0.218275 0.2183971 0.2226393 0.2261491 0.2283159 0.2303302 0.2285601 0.2262711 0.2256607 0.2255082 0.2223646 0.222975 0.2230666 0.2241653 0.2215711 0.2240432 0.2214491 0.2227309 0.2168406 0.220564 0.2216627 0.2333822 0.2408594 0.2387231 0.2395166 0.2373497 0.240127 0.2438198 0.2356101 0.2296588 0.2287432 0.2176036 0.2030458 0.1929744 0.1850394 0.1767686 0.1644693 0.153879 0.143655 0.1354148 0.1181408 0.1126473 0.1030336 0.09024598 0.08359275 0.07736678 0.07312458 0.07199536 0.0613746 0.06070317 0.06512849 0.05945187 0.05838369 0.0576207 0.04950253 0.04757981 0.04632851 0.04507721 0.04516877 0.04419215 0.04535189 0.04855643 0.05270708 0.05813953 0.06570835 0.07416224 0.08362327 0.09338949 0.1046817 0.1157297 0.1268388 0.1370323 0.1464628 0.1535738 0.1590673 0.161692 0.161753 0.1593115 0.1544589 0.1474394 0.1388635 0.1316609 0.1275102 0.1249771 0.121742 0.1196362 0.1219557 0.1297076 0.1358725 0.1398401 0.1453641 0.1560154 0.1653848 0.1707563 0.1764024 0.1808277 0.1864433 0.1918147 0.1929439 0.1909601 0.1906244 0.1923335 0.1928829 0.1857413 0.1715192 0.1566563 0.1444485 0.1372154 0.1374596 0.1430141 0.1496673 0.1559543 0.1612953 0.1658732 0.1697186 0.1723128 0.1743576 0.1757309 0.1765244 0.1765244 0.1757615 0.1748154 0.1725264 0.1694134 0.1659342 0.1612342
0.03915644 0.0362571 0.03506684 0.04086553 0.04440579 0.04403955 0.04477202 0.04849539 0.05490448 0.05786486 0.05874992 0.05951291 0.06631874 0.06995056 0.07736678 0.0825856 0.08224989 0.08463041 0.08521028 0.08331807 0.08133431 0.08145639 0.07904536 0.07523042 0.07486419 0.07263627 0.07446744 0.07492523 0.06912653 0.06650186 0.06195446 0.05878044 0.05481292 0.05408045 0.04986877 0.04971617 0.04626747 0.04126228 0.03640969 0.0216688 0.01107856 0.005249344 0.004242202 0.00491363 0.008270768 0.0164805 0.02548373 0.03097723 0.0414454 0.04416163 0.05002137 0.05994018 0.07339925 0.09055118 0.1033693 0.1164012 0.1267167 0.1385888 0.1497284 0.1579381 0.1715192 0.1857108 0.2093634 0.2176036 0.2220595 0.2278887 0.2321309 0.2454679 0.2574925 0.2641152 0.266038 0.2792529 0.2870659 0.2961606 0.310047 0.323445 0.3172496 0.2995178 0.2788866 0.2758347 0.2912165 0.3032412 0.3053775 0.2862113 0.2630166 0.2556003 0.2402185 0.222151 0.2096075 0.1964231 0.1791186 0.1594336 0.1536959 0.1622413 0.1749985 0.1832387 0.1868095 0.1889764 0.1992004 0.2086004 0.2178478 0.2255997 0.2255692 0.2175121 0.2013673 0.1745712 0.1748764 0.1829335 0.1899835 0.1933101 0.1916621 0.1934017 0.1954465 0.1964536 0.1965147 0.20564 0.2024049 0.1958738 0.2006958 0.2096686 0.2180004 0.2258439 0.2332601 0.2357627 0.2382042 0.2404932 0.2389977 0.2384179 0.2391809 0.2410731 0.2434841 0.2454068 0.2484893 0.2562717 0.2625893 0.2684795 0.2732406 0.2748581 0.2754685 0.2717146 0.269212 0.265275 0.2617958 0.2539217 0.246475 0.2400049 0.2349081 0.2307575 0.2304523 0.229964 0.2267594 0.2259354 0.2253861 0.2274919 0.2268205 0.2231276 0.2203198 0.2190991 0.2167796 0.2160776 0.2158335 0.21269 0.211164 0.2115302 0.2149179 0.2177562 0.21739 0.215925 0.2191906 0.2250198 0.2270036 0.2275224 0.2241043 0.2218458 0.2226698 0.22444 0.220503 0.2189465 0.2190685 0.2183361 0.2151315 0.212751 0.2093939 0.2121712 0.2082036 0.2082952 0.2091803 0.2180309 0.2255692 0.2235854 0.2244094 0.2219069 0.2193432 0.2258744 0.2224867 0.2219984 0.2239517 0.210401 0.1972471 0.1868095 0.175029 0.1698102 0.1595862 0.1474089 0.1355979 0.126442 0.1139596 0.106696 0.09436611 0.08142587 0.07971678 0.07355185 0.06943173 0.06924861 0.0610694 0.05896356 0.06540316 0.06155771 0.05945187 0.05841421 0.05295123 0.05304279 0.05050968 0.04901422 0.04974669 0.04791552 0.0489837 0.05289019 0.05740707 0.06274797 0.069859 0.07751938 0.08737716 0.09735702 0.1081914 0.1191174 0.1303485 0.1401758 0.1492095 0.1564121 0.1614784 0.1643472 0.1640725 0.161753 0.1565952 0.1496673 0.1413966 0.1342245 0.1301349 0.1267167 0.1224135 0.1190563 0.1203992 0.1276628 0.1348654 0.138955 0.1423122 0.1500641 0.160929 0.1683452 0.1742355 0.1793628 0.1845511 0.1875114 0.1853446 0.1818043 0.1815907 0.1833913 0.1824147 0.1728926 0.1568089 0.1432277 0.1342855 0.1322102 0.1361777 0.1432888 0.1500641 0.1563511 0.1615394 0.1657816 0.1693219 0.1717024 0.1732284 0.1738693 0.1738998 0.1732284 0.1717634 0.1691693 0.1665141 0.1627602 0.1582433 0.1536959
0.04736617 0.04248306 0.041598 0.04422267 0.0467863 0.04663371 0.04852591 0.05267655 0.05606421 0.05670512 0.05636941 0.05786486 0.06332784 0.06976745 0.07657328 0.08151743 0.08157846 0.08124276 0.08017457 0.07758042 0.08014405 0.07928951 0.07666484 0.07516938 0.07288042 0.0786486 0.07272783 0.07303302 0.06897394 0.06256485 0.06088629 0.06277849 0.05829213 0.05768174 0.05514863 0.04660319 0.04809864 0.04242202 0.03817982 0.02630776 0.0164805 0.008484405 0.006378563 0.008026613 0.01416102 0.02319477 0.02523958 0.03009217 0.03463957 0.04342917 0.0481902 0.05173045 0.06009278 0.07587133 0.09351157 0.1116401 0.1232375 0.1345907 0.1445401 0.1536043 0.1677043 0.1822316 0.1864738 0.2002686 0.2042056 0.2075322 0.2202283 0.2342672 0.2446438 0.2570958 0.276323 0.2800464 0.2963133 0.2965879 0.3025392 0.3023561 0.2969236 0.3067814 0.3138314 0.2977782 0.2805042 0.2962827 0.2946957 0.2822743 0.2736678 0.2685406 0.2555088 0.2455289 0.2096991 0.2050296 0.1869011 0.1834218 0.1783251 0.1753647 0.1714277 0.176555 0.1882744 0.190014 0.1934322 0.2068913 0.2169017 0.2191906 0.2219069 0.2265763 0.2183361 0.19154 0.1672465 0.1755478 0.1824452 0.197766 0.200879 0.1972777 0.1983764 0.1957822 0.1951413 0.1979796 0.1997192 0.1970945 0.194653 0.2016114 0.2079595 0.2161997 0.2256302 0.2293536 0.2339315 0.2392419 0.2411341 0.2430874 0.2439724 0.2424464 0.2449795 0.2494659 0.2540133 0.261338 0.2682048 0.272325 0.2763535 0.2820302 0.2843496 0.2805652 0.2774522 0.2751633 0.2744308 0.2660685 0.2592321 0.2541659 0.2491607 0.2462308 0.2444912 0.2404322 0.2360984 0.2357932 0.2344503 0.2341757 0.2294146 0.2234328 0.2201367 0.217451 0.2156809 0.2137887 0.2125984 0.2092108 0.207166 0.2070134 0.2093023 0.2112861 0.2119575 0.2125374 0.2161692 0.2201978 0.2212049 0.2227614 0.2225783 0.2197705 0.2199841 0.2208997 0.2144296 0.2123543 0.211103 0.2093634 0.2064945 0.20329 0.1993835 0.2006348 0.1972166 0.1942562 0.1954465 0.2045108 0.2096991 0.2042971 0.2043887 0.2045108 0.2031374 0.2031374 0.2016419 0.20564 0.2022828 0.1887017 0.1795153 0.1751205 0.1642556 0.1576634 0.1480498 0.1335226 0.1238174 0.1189037 0.1080999 0.09949338 0.09018495 0.07837392 0.07330769 0.06821095 0.06622718 0.0668681 0.06055057 0.06006226 0.06637979 0.06131355 0.06009278 0.05994018 0.05734603 0.05649149 0.05282915 0.05237136 0.05441616 0.05420253 0.05469084 0.05746811 0.06158823 0.06818043 0.0751999 0.08188366 0.09091742 0.1010804 0.1111823 0.1219557 0.1324238 0.1425258 0.1509186 0.1583043 0.1633095 0.1661478 0.1658426 0.1634011 0.158579 0.1517427 0.1432583 0.1359946 0.1316303 0.1276933 0.1226576 0.1181408 0.1175914 0.1232985 0.1312946 0.136544 0.1398401 0.1443264 0.153055 0.1636758 0.1709089 0.1765244 0.1816822 0.1826589 0.1793017 0.1760361 0.1759446 0.1765244 0.1708173 0.1561375 0.1399622 0.1292193 0.1257401 0.1284563 0.135018 0.1424648 0.1496063 0.1558933 0.1606238 0.1651407 0.1683452 0.1698102 0.171092 0.1711835 0.1702374 0.1689861 0.1665446 0.1634316 0.1598608 0.1556492 0.1512849 0.1462797
0.05774278 0.05206617 0.04767137 0.04715253 0.04794604 0.05151682 0.05832265 0.06045901 0.0602759 0.05942135 0.06082524 0.06229018 0.06683758 0.06818043 0.07272783 0.07361289 0.07913691 0.08054081 0.07977782 0.07925899 0.07788561 0.07803821 0.07706159 0.07736678 0.07919795 0.08221938 0.08115119 0.07861808 0.07333822 0.06903498 0.06995056 0.0708051 0.06885186 0.06219862 0.05655252 0.05173045 0.04669474 0.03860709 0.03549411 0.02569737 0.01739608 0.01028505 0.006714277 0.01165843 0.02105841 0.02539217 0.02255387 0.02545321 0.03268632 0.03848501 0.04782397 0.05112007 0.06100836 0.07639016 0.08694988 0.1024232 0.1159128 0.1242446 0.1339803 0.1469206 0.151468 0.1590063 0.1691387 0.1817433 0.1881829 0.2089666 0.2179393 0.2244705 0.2395166 0.2545016 0.2818165 0.2878288 0.3047366 0.3315632 0.3403833 0.3192028 0.3164256 0.3214918 0.3245132 0.3212476 0.316273 0.3039431 0.2869743 0.2748886 0.2783373 0.2797717 0.2641763 0.2472685 0.2110724 0.2157114 0.2094244 0.2082036 0.1941952 0.1882744 0.1756089 0.1684978 0.181377 0.192364 0.1948361 0.199414 0.2106757 0.2164744 0.222975 0.2321309 0.2320088 0.211225 0.1871147 0.1727095 0.1807361 0.1927913 0.2022218 0.20329 0.1976744 0.2000244 0.2070439 0.1954465 0.1915095 0.1981933 0.1964231 0.1939816 0.1997497 0.2076237 0.2152231 0.2217543 0.226851 0.2332296 0.2363425 0.2405542 0.2446744 0.2470244 0.2490386 0.2497406 0.2548984 0.262162 0.2698529 0.2763841 0.284136 0.291949 0.2965574 0.295184 0.2901788 0.2871879 0.2830068 0.2760483 0.2707379 0.2659464 0.2591101 0.2551425 0.2514802 0.2443997 0.2382958 0.2367088 0.2348471 0.2345724 0.2303913 0.2254471 0.2222731 0.2187328 0.2141854 0.2088445 0.2053958 0.2027712 0.2014588 0.2020692 0.2029848 0.2041751 0.2049991 0.2075627 0.213514 0.2168711 0.2175121 0.2173595 0.2162913 0.2120796 0.2113166 0.2107062 0.2031069 0.2013673 0.2030764 0.1983153 0.1927608 0.1897699 0.1850699 0.1870231 0.184429 0.1827504 0.1803088 0.1856803 0.1882439 0.182903 0.1843069 0.1832998 0.1823231 0.180553 0.1792407 0.1799731 0.175029 0.1628823 0.1573582 0.1553745 0.1489654 0.1423427 0.1309284 0.1166148 0.109809 0.1062992 0.09488494 0.08814014 0.07877067 0.07242263 0.06854667 0.06540316 0.06335836 0.06567784 0.06000122 0.05899408 0.06204602 0.05951291 0.06119148 0.06100836 0.05942135 0.0587194 0.05874992 0.05874992 0.0590246 0.0598181 0.06171031 0.06381615 0.06735641 0.0730025 0.08017457 0.08655313 0.0948239 0.1040408 0.1142038 0.1244278 0.1348349 0.144357 0.1528108 0.1593725 0.1646524 0.1670024 0.1670939 0.1645303 0.1597693 0.1530245 0.1445096 0.1373985 0.1319355 0.1273271 0.1219862 0.1174998 0.1146921 0.1172557 0.1246109 0.1313252 0.1358725 0.1392907 0.1443875 0.1527803 0.1620277 0.1686199 0.1724654 0.1731673 0.1717329 0.1695355 0.1685894 0.1636758 0.1512238 0.1348654 0.1224745 0.1177135 0.120155 0.1265336 0.1340719 0.1417628 0.1487823 0.1547641 0.1597387 0.1636147 0.1665446 0.16804 0.1682232 0.1678264 0.166392 0.1641946 0.1610816 0.1576329 0.1536959 0.1489959 0.1443875 0.139016
0.07169016 0.06192394 0.05975707 0.05499603 0.05453824 0.05963499 0.0668681 0.07098822 0.07284991 0.07504731 0.0803882 0.08307391 0.08023561 0.07916743 0.07498626 0.07465056 0.07376549 0.07681743 0.07626808 0.07712263 0.0767564 0.07544406 0.08054081 0.08093756 0.08054081 0.08313496 0.08185314 0.08051029 0.0762986 0.07077459 0.07208692 0.07132393 0.06470121 0.06344992 0.05862784 0.05493499 0.04681682 0.03824086 0.0303058 0.02343893 0.02014283 0.01202466 0.008850638 0.01409998 0.02020387 0.01910517 0.01913569 0.0218214 0.02652139 0.03445645 0.04428371 0.05374473 0.06036745 0.06839406 0.07489471 0.08670573 0.1036135 0.1165537 0.1294024 0.1352011 0.1471953 0.1548251 0.1634926 0.1821095 0.190716 0.2055179 0.2203198 0.2299945 0.2450101 0.2574315 0.2696393 0.2866691 0.3132516 0.3373924 0.343832 0.3373619 0.3258561 0.3184704 0.3234145 0.3238113 0.3173106 0.3013184 0.2866081 0.2662211 0.26851 0.2752243 0.2647867 0.2496796 0.2329244 0.2465666 0.2313374 0.2192517 0.2158945 0.1959348 0.1819569 0.1734115 0.1788134 0.193127 0.2059452 0.2075627 0.2054569 0.2161997 0.2248978 0.235488 0.2387536 0.2308491 0.2048465 0.18684 0.1700238 0.1885796 0.1924251 0.2021608 0.2008179 0.200238 0.1970335 0.1937679 0.1871452 0.1925166 0.1955991 0.1925472 0.1937679 0.2022218 0.2074101 0.211866 0.2163828 0.2234328 0.2276445 0.2327718 0.2388757 0.2434841 0.2484588 0.2522737 0.2588964 0.2653055 0.2712263 0.278612 0.2893853 0.2987548 0.3051639 0.3037295 0.2983886 0.293597 0.2862418 0.2767198 0.2711347 0.2680523 0.2616737 0.2564549 0.2539217 0.2479399 0.2434536 0.241775 0.2384789 0.2353354 0.2300861 0.2231582 0.2194348 0.2164439 0.2101264 0.2064335 0.2027712 0.2002075 0.1982238 0.1983153 0.2002991 0.2023439 0.2036257 0.2031679 0.2059452 0.2082647 0.2084173 0.2093328 0.2086614 0.204816 0.2025881 0.2012757 0.1936153 0.1934017 0.1953855 0.1884881 0.1799121 0.1762803 0.1754563 0.1765244 0.1756699 0.1724043 0.1666361 0.1715192 0.1703595 0.1645608 0.1647439 0.1614478 0.1629738 0.1626991 0.161631 0.1580297 0.156168 0.1475615 0.1385888 0.1319661 0.1273576 0.1229018 0.115333 0.1034304 0.09677715 0.0897882 0.08139535 0.07776354 0.0678142 0.06332784 0.06314472 0.05972654 0.05878044 0.06207654 0.05591162 0.05575902 0.05835317 0.05844473 0.06277849 0.06219862 0.06158823 0.06332784 0.06274797 0.06451809 0.0657694 0.06689861 0.06793627 0.07120185 0.0751999 0.07983886 0.0852408 0.09204663 0.09985961 0.1079778 0.1173778 0.1267778 0.1368186 0.1457303 0.153818 0.1602881 0.1653238 0.1678569 0.1676433 0.1652933 0.1606238 0.1541232 0.1460355 0.1382531 0.1321492 0.1265336 0.1211011 0.1163096 0.1125862 0.1116401 0.1163401 0.1236343 0.1292804 0.1332174 0.1364219 0.1408777 0.1471342 0.1534212 0.1574498 0.1594336 0.1589452 0.1564121 0.1515901 0.1406946 0.1252213 0.1132576 0.1088628 0.1110602 0.1173778 0.1250992 0.1331258 0.1408472 0.1475005 0.1536043 0.1581517 0.1614478 0.163981 0.1653543 0.1651712 0.1642556 0.1622108 0.159342 0.1558323 0.1517427 0.1471342 0.1427089 0.1379479 0.1329427
0.0891778 0.0806934 0.07333822 0.06763108 0.06659342 0.06772264 0.07184276 0.07605445 0.08316547 0.08646157 0.09122261 0.09604468 0.09665507 0.09644143 0.09222975 0.0863395 0.07950314 0.07318562 0.07355185 0.07214796 0.07327718 0.07422328 0.07529146 0.07577977 0.07056095 0.07031679 0.07291094 0.07404016 0.07153757 0.07181224 0.07666484 0.07141549 0.06912653 0.05954343 0.05527071 0.05444668 0.04623695 0.03589086 0.03167918 0.0240188 0.01968504 0.01519868 0.01065128 0.0142831 0.01461881 0.01791491 0.01864738 0.02234023 0.03051944 0.0384545 0.05200513 0.05820058 0.06055057 0.06610511 0.06824147 0.07684796 0.08801807 0.1031862 0.1218641 0.1327596 0.1442959 0.1520784 0.160868 0.1717024 0.1879998 0.2056705 0.2198315 0.235488 0.2407984 0.2500458 0.2588049 0.2717756 0.2964048 0.3295794 0.335897 0.3193249 0.3072087 0.311695 0.3141976 0.3132821 0.3058963 0.3006775 0.2919795 0.2925594 0.2787035 0.2724776 0.2567601 0.2360374 0.22914 0.2478179 0.2479094 0.2359458 0.2093023 0.1893731 0.1798205 0.1800342 0.1874504 0.1953855 0.211927 0.2160166 0.2125984 0.2138497 0.2352744 0.2484588 0.2509003 0.2423549 0.2121406 0.1976134 0.1791491 0.1739303 0.1815296 0.1949887 0.197766 0.2018251 0.197064 0.185955 0.1950192 0.1941647 0.1952024 0.1919978 0.1894342 0.1979186 0.2026796 0.204816 0.2068913 0.2132393 0.2185192 0.2243484 0.2313679 0.2358237 0.2404322 0.2461088 0.2547153 0.2624672 0.2705243 0.2790087 0.2885308 0.2949094 0.2988158 0.3002808 0.2973204 0.2913081 0.28261 0.2736373 0.2684795 0.265336 0.2600256 0.2568516 0.2521211 0.2454068 0.2427211 0.2407984 0.2365257 0.232375 0.2264237 0.2198926 0.215803 0.2105841 0.2046328 0.2010621 0.1992919 0.1972777 0.1953549 0.1939816 0.194653 0.1975523 0.1973692 0.1959043 0.1984374 0.200238 0.2010316 0.2028322 0.2035647 0.1976439 0.1966368 0.1959043 0.1861991 0.1859244 0.1854666 0.1774705 0.1688641 0.1660563 0.1662699 0.1668803 0.1649271 0.1621498 0.1579381 0.1600134 0.1619361 0.1567173 0.1540316 0.1508881 0.149881 0.148294 0.145181 0.1411829 0.1419764 0.1347128 0.1260148 0.1180187 0.1127693 0.1077947 0.1044375 0.09146676 0.08377586 0.07684796 0.07059146 0.06741744 0.06210706 0.05841421 0.0569798 0.05359214 0.05441616 0.0577733 0.05328694 0.05594213 0.05942135 0.06088629 0.06680705 0.06540316 0.06412134 0.06818043 0.06802783 0.07107978 0.07263627 0.07443692 0.0764512 0.07953367 0.08228041 0.0872856 0.09186351 0.09754013 0.1041934 0.1118232 0.1203687 0.1291888 0.1384362 0.1468596 0.1547031 0.1612342 0.1657206 0.167979 0.1678264 0.165568 0.1611121 0.1547336 0.1467375 0.1391992 0.1322407 0.1258622 0.1198193 0.1145395 0.1106025 0.1078862 0.1086492 0.1140206 0.1205823 0.1256485 0.1293109 0.1325765 0.1355979 0.1384362 0.1411524 0.1432583 0.1416102 0.1347739 0.124031 0.1117317 0.101996 0.09909663 0.1020265 0.108344 0.1164317 0.1243057 0.1321797 0.1395959 0.145944 0.1518037 0.1563206 0.1593115 0.1613868 0.1620888 0.1615089 0.1604102 0.157694 0.1545504 0.1504914 0.1460355 0.1416102 0.1372459 0.132668 0.1282427
0.0979674 0.09757065 0.08820118 0.08566807 0.08594275 0.08881158 0.08774339 0.09464078 0.1022401 0.1016297 0.1047122 0.1063297 0.105933 0.1033693 0.1033388 0.1001038 0.09448819 0.08676677 0.0773973 0.07657328 0.07474211 0.07248367 0.07037783 0.07248367 0.06741744 0.06845511 0.06842458 0.07071354 0.07278886 0.07181224 0.07413172 0.07333822 0.07025576 0.0643655 0.05658304 0.05072331 0.04706098 0.0404993 0.03451749 0.02768113 0.02288958 0.02160776 0.01782335 0.01739608 0.01532076 0.01638894 0.01886101 0.0263688 0.03598242 0.04306293 0.05392785 0.05728499 0.06219862 0.06619667 0.06988952 0.0767564 0.08444729 0.09110053 0.1084051 0.1300128 0.1399316 0.1587316 0.1698407 0.1799731 0.1890069 0.1990783 0.2208387 0.2389367 0.2530062 0.256638 0.2570958 0.2712873 0.2898126 0.299884 0.3043399 0.2973204 0.2927425 0.2889886 0.3054386 0.311695 0.3060795 0.3036379 0.2983581 0.2773302 0.2617958 0.2532503 0.234664 0.2183666 0.2176647 0.235549 0.2458341 0.2497406 0.2293231 0.2117134 0.1957822 0.1889459 0.1921504 0.1925777 0.2058231 0.2157724 0.2226698 0.2267289 0.2430874 0.2565464 0.246414 0.2353964 0.2125984 0.2016725 0.198529 0.1919368 0.1817433 0.1846426 0.1964231 0.2003296 0.1972777 0.1898004 0.2002991 0.1997803 0.1920588 0.1933712 0.1976134 0.2031374 0.2067387 0.2105231 0.2124458 0.2162913 0.220625 0.2265458 0.2331685 0.2372887 0.240188 0.2422023 0.2479705 0.2529146 0.2593237 0.2686626 0.2779405 0.2839834 0.2899957 0.2927119 0.291247 0.288836 0.2797717 0.2705548 0.2655802 0.2621315 0.2571568 0.2547153 0.2500763 0.244186 0.2422938 0.2385705 0.2340841 0.2284685 0.2224867 0.216627 0.2141549 0.2083257 0.2033205 0.1996277 0.196942 0.1943783 0.1913569 0.1911738 0.1887627 0.191479 0.190716 0.1936764 0.1964842 0.1998108 0.2013673 0.2050296 0.200116 0.1934627 0.1921199 0.190716 0.1798205 0.1764329 0.175914 0.1667887 0.1580907 0.1586095 0.1593725 0.1582738 0.1550693 0.152994 0.1511018 0.1515901 0.1518953 0.1486297 0.1453641 0.1442654 0.1420375 0.1368797 0.1326375 0.1292804 0.1298297 0.1217726 0.1153635 0.1087713 0.1023012 0.09577 0.09519014 0.08310444 0.0759934 0.07053043 0.06375511 0.05960447 0.05673564 0.052585 0.05194409 0.04953305 0.0532259 0.05389733 0.05343954 0.05862784 0.06287005 0.06479277 0.07062198 0.07083562 0.07135445 0.07468107 0.07507782 0.07840444 0.08032717 0.08243301 0.08447781 0.08673625 0.08945248 0.09354208 0.09750962 0.1027284 0.1086797 0.1156687 0.123207 0.1319355 0.1400842 0.1479582 0.1553439 0.1611426 0.1654764 0.167979 0.1677654 0.1656595 0.1614478 0.1555576 0.1479582 0.1399316 0.1325154 0.1257706 0.1191784 0.1127999 0.1080083 0.1048648 0.1033388 0.1044986 0.1087408 0.1143563 0.1189648 0.1221998 0.1242446 0.1257096 0.1269609 0.1242752 0.116157 0.1054447 0.09622779 0.09100898 0.09015442 0.0937252 0.1000427 0.1077947 0.1156992 0.1234817 0.1312641 0.1379174 0.1442959 0.1494232 0.1536959 0.1566868 0.1584569 0.1586095 0.1580297 0.156168 0.1535738 0.1500336 0.1457303 0.1413966 0.1372764 0.1326985 0.1282122 0.1246414
0.1008973 0.1104499 0.1078557 0.102057 0.1039797 0.1047732 0.1045901 0.1055973 0.10752 0.1107245 0.1089544 0.1030641 0.1015992 0.1021791 0.1001953 0.1008057 0.09747909 0.0948239 0.09656351 0.08881158 0.08402002 0.08115119 0.0753525 0.0786486 0.0759934 0.07077459 0.07370445 0.07782458 0.07654276 0.07477263 0.0715986 0.06821095 0.07043887 0.07132393 0.06064213 0.0547824 0.04345968 0.04092657 0.03467008 0.03232009 0.02624672 0.02520906 0.02548373 0.02142465 0.02002075 0.02053958 0.02298114 0.0304584 0.04001099 0.04501618 0.04999084 0.05914668 0.06567784 0.07104926 0.07581029 0.07938106 0.08133431 0.08554599 0.09555637 0.1185986 0.1425868 0.1649271 0.1728926 0.1838186 0.186077 0.2061893 0.2251724 0.2437893 0.2557224 0.274736 0.2790698 0.2986633 0.2976866 0.2889581 0.2839529 0.2643594 0.2747971 0.2885613 0.299884 0.2969236 0.3042178 0.3040042 0.2876152 0.2760789 0.2523347 0.2389977 0.2247452 0.199414 0.2033816 0.2230971 0.2342978 0.2544406 0.2635354 0.2427821 0.2240432 0.2006348 0.1934017 0.1958432 0.1967588 0.200116 0.2163828 0.233077 0.2456205 0.2561497 0.2507172 0.2330159 0.2259354 0.2172374 0.2114692 0.197003 0.1850699 0.175792 0.1858939 0.1905634 0.2019166 0.2057316 0.2047855 0.2117744 0.2093328 0.198651 0.2136361 0.2224257 0.2271867 0.2332601 0.242538 0.249649 0.2548984 0.2577977 0.2603919 0.2626198 0.2639627 0.2639016 0.2662516 0.2678997 0.2688152 0.2693036 0.2711347 0.2740341 0.2813892 0.2879509 0.2904535 0.2865776 0.2773607 0.2675334 0.2603003 0.2546237 0.2491302 0.2454984 0.2418971 0.2366783 0.2336568 0.2290484 0.2249893 0.2193432 0.2144296 0.2099127 0.2066471 0.2004822 0.1973387 0.1943478 0.192242 0.1877861 0.1849478 0.1820485 0.1808582 0.1850699 0.1857413 0.1915705 0.194714 0.1989257 0.1981933 0.2004517 0.1926387 0.1867485 0.1843679 0.1793933 0.1662089 0.1668193 0.1634621 0.1602576 0.156931 0.1569615 0.1545199 0.1489654 0.1457914 0.1425868 0.1391381 0.1405725 0.1410609 0.136544 0.1345907 0.1294024 0.1297687 0.1244583 0.1238174 0.1224135 0.1191174 0.1108771 0.1048038 0.1004395 0.09525117 0.08899469 0.08719404 0.07883172 0.0742538 0.06699017 0.05740707 0.05551486 0.05145578 0.04831228 0.04944149 0.04901422 0.05331746 0.05520967 0.05755967 0.06253433 0.0664103 0.06909601 0.07486419 0.07742782 0.07910639 0.08215833 0.08395898 0.08725508 0.08872002 0.0907343 0.09259598 0.09467131 0.09720442 0.09998169 0.1034914 0.1077031 0.1131966 0.1192395 0.1261369 0.1337057 0.1412745 0.1487212 0.1554966 0.1611732 0.1653543 0.1677043 0.1676738 0.1657511 0.1618141 0.156229 0.1488433 0.1410609 0.1330648 0.1264115 0.1194226 0.1124947 0.1061771 0.1014466 0.09836416 0.09705182 0.09732649 0.09918818 0.1019654 0.1046817 0.106757 0.1069706 0.1043154 0.0971739 0.08920833 0.08313496 0.08130379 0.08270769 0.08685833 0.09299274 0.1001343 0.1072758 0.1150888 0.1225966 0.1296771 0.1362693 0.142129 0.1469511 0.1511628 0.1536043 0.1550998 0.1551914 0.1540621 0.1522615 0.1494232 0.1457608 0.1417933 0.137429 0.1331868 0.1294635 0.125557 0.1225966
0.1194226 0.1268693 0.1305317 0.1207044 0.113868 0.1096258 0.110755 0.1097479 0.1127693 0.1174083 0.1180797 0.1161875 0.110694 0.1072453 0.102759 0.09659403 0.094183 0.09662455 0.102759 0.1010804 0.1006226 0.09384728 0.08899469 0.08756027 0.08661418 0.08334859 0.07953367 0.07501678 0.07489471 0.07291094 0.07104926 0.06680705 0.0690655 0.07056095 0.06344992 0.05810902 0.05014344 0.04455838 0.0414454 0.03848501 0.03351035 0.03213697 0.03293048 0.03308307 0.03106879 0.02789477 0.0303058 0.03650125 0.04501618 0.04934993 0.05319539 0.06259537 0.06659342 0.07260575 0.07828236 0.08008301 0.0819447 0.08472197 0.09116157 0.1074589 0.1260148 0.1521089 0.1593115 0.1706647 0.1769212 0.19154 0.2067997 0.2279192 0.2443997 0.2640542 0.2923457 0.3063847 0.2991516 0.2843801 0.2603003 0.2479705 0.2580724 0.2764756 0.2855704 0.2867912 0.2949399 0.2953672 0.2779405 0.2633522 0.2527925 0.240188 0.2223646 0.2062809 0.199414 0.2082647 0.218916 0.251999 0.262101 0.2587438 0.2451016 0.2219374 0.2136056 0.1984984 0.19859 0.2033205 0.2151315 0.2387841 0.255936 0.2574925 0.2510224 0.2536165 0.2415309 0.2246231 0.2167186 0.1984374 0.1870842 0.1807361 0.1854056 0.1950803 0.2128121 0.2197095 0.2250809 0.2278581 0.2239822 0.2176647 0.2340536 0.2501068 0.2569126 0.2571873 0.2616432 0.2648172 0.2660685 0.2651529 0.2675029 0.2711347 0.2757126 0.2789477 0.2795886 0.2805957 0.2856925 0.2887139 0.2874321 0.2810535 0.2773302 0.2763841 0.2782457 0.2773302 0.2698224 0.259873 0.2506256 0.2415309 0.2344503 0.2313984 0.2286822 0.2243789 0.220503 0.2170848 0.2139108 0.2087225 0.2024965 0.1995056 0.1952634 0.1896478 0.1859855 0.182018 0.1796069 0.1784777 0.1749374 0.1731978 0.1746933 0.1772264 0.1772874 0.182079 0.1850394 0.1889764 0.1904108 0.1926997 0.182018 0.1764939 0.1752121 0.1737777 0.1661784 0.1633095 0.1576024 0.1532381 0.1509797 0.1481414 0.1428615 0.1387719 0.13807 0.1390771 0.1339803 0.1371239 0.1345602 0.1308063 0.1293414 0.1215589 0.1191479 0.1149973 0.1140511 0.1133492 0.1110297 0.1016297 0.09738754 0.0927791 0.08868949 0.08240249 0.08191418 0.07114082 0.06564732 0.06186291 0.05578954 0.05356162 0.04855643 0.04727461 0.04922786 0.05112007 0.05411097 0.05713239 0.06076421 0.06702069 0.06946225 0.07254471 0.07953367 0.08301288 0.08737716 0.09113105 0.09244338 0.09555637 0.09750962 0.09979858 0.1014466 0.1030641 0.1048648 0.1072453 0.109809 0.1132576 0.1178661 0.1228713 0.1290667 0.135781 0.1426479 0.1494537 0.155466 0.160868 0.1648355 0.1670634 0.1671245 0.1654764 0.1618446 0.1566868 0.1499115 0.1419154 0.134255 0.1270524 0.1204908 0.1131661 0.1065128 0.1005616 0.09561741 0.09210767 0.08994079 0.08850638 0.08795702 0.08847586 0.08850638 0.0869804 0.0830434 0.07806873 0.07516938 0.07507782 0.07791613 0.08228041 0.0875908 0.09409144 0.1008667 0.1076726 0.1147836 0.1217115 0.1283953 0.1343771 0.1397485 0.144357 0.1480193 0.1505829 0.1518647 0.1517427 0.150644 0.1485381 0.1454251 0.1417323 0.1380089 0.1346518 0.1305927 0.1272661 0.1242141 0.1219252
0.1452115 0.1469816 0.1405725 0.1344381 0.1214063 0.1184154 0.1170726 0.1176219 0.1197278 0.1194226 0.1205823 0.1215895 0.1243362 0.1197583 0.114631 0.1104193 0.1033999 0.1010804 0.1007752 0.1043154 0.1058414 0.1099005 0.1058109 0.09692974 0.08969664 0.08514924 0.08008301 0.08032717 0.07614601 0.07510834 0.07065251 0.06695965 0.06287005 0.06344992 0.06109992 0.0569798 0.05508759 0.05011292 0.04690838 0.04516877 0.04141488 0.03848501 0.04077397 0.04181163 0.04104865 0.0370506 0.03561619 0.04114021 0.04956357 0.0544772 0.05795642 0.06470121 0.07040835 0.07541354 0.07867911 0.08118171 0.084783 0.0893304 0.09351157 0.1004395 0.1147226 0.1244583 0.1277544 0.1379174 0.1547031 0.1663309 0.1920588 0.2067692 0.2121101 0.2454679 0.2758347 0.3017457 0.3025697 0.2819996 0.2804431 0.2649087 0.2697003 0.2817555 0.2814198 0.2825795 0.291949 0.2839529 0.2740035 0.2731185 0.2673503 0.2497711 0.2375938 0.2202283 0.1939205 0.1894037 0.1962095 0.219038 0.2500763 0.2539828 0.2451627 0.2422328 0.2423244 0.242538 0.2322224 0.2272783 0.2256302 0.240951 0.2586523 0.2633828 0.2612159 0.26381 0.2599951 0.2344503 0.2137887 0.2017335 0.1877556 0.194714 0.1942257 0.2046634 0.2202283 0.2292926 0.240127 0.2305133 0.2349997 0.2454679 0.260636 0.2607886 0.2592627 0.2536471 0.2556614 0.2603919 0.2636575 0.2638406 0.2640542 0.2653665 0.2697918 0.2761094 0.2831899 0.285662 0.2852347 0.2850821 0.2883477 0.2902094 0.2886834 0.2785204 0.2679302 0.2620704 0.2583165 0.2523653 0.2413477 0.2303607 0.2207776 0.218153 0.2164133 0.2125984 0.2094549 0.2053348 0.2035342 0.1979186 0.1920588 0.1900751 0.1853751 0.180553 0.1789355 0.1746933 0.171153 0.1712751 0.167155 0.1652933 0.1677654 0.1712446 0.1704511 0.1725569 0.1740524 0.1804309 0.1868095 0.1890984 0.1770738 0.1745407 0.1707868 0.1683452 0.1618141 0.1540927 0.1497589 0.1457303 0.1409693 0.1382836 0.1333089 0.1316303 0.1293109 0.1324238 0.1275407 0.129494 0.1257706 0.124092 0.1229628 0.1162485 0.1107245 0.1085271 0.1053531 0.1041628 0.103644 0.09461027 0.08713301 0.08588171 0.08487456 0.07571873 0.07483367 0.06418239 0.06055057 0.05969603 0.05398889 0.05154733 0.04983824 0.0489837 0.05047916 0.05508759 0.05664408 0.05841421 0.0632668 0.07092718 0.074559 0.07941158 0.08603431 0.09012391 0.09634987 0.1005921 0.1019349 0.1049564 0.1069096 0.1092596 0.110694 0.1119453 0.1132271 0.114631 0.1163096 0.1189953 0.1223219 0.1265946 0.1316914 0.137429 0.1433498 0.1493621 0.1550082 0.1600134 0.1637673 0.1660258 0.1659952 0.1646829 0.1616615 0.1570836 0.1503693 0.142892 0.1352011 0.1276018 0.120796 0.1144174 0.1080388 0.1020875 0.09659403 0.09213819 0.08820118 0.0853934 0.0830434 0.08173107 0.07996093 0.07703107 0.07431484 0.07260575 0.07364341 0.07617652 0.07977782 0.08466093 0.08991027 0.09552585 0.1016908 0.1078862 0.1144784 0.1206433 0.1269304 0.1323018 0.137307 0.1416102 0.1446316 0.1470732 0.1482634 0.1481109 0.1469816 0.1447232 0.1417628 0.1387109 0.1351096 0.1317829 0.1286089 0.1258316 0.1238784 0.1222914
0.152994 0.1537875 0.1508576 0.1479277 0.1355368 0.1323323 0.1245193 0.124855 0.1205518 0.119331 0.1188122 0.1193615 0.1252213 0.1241836 0.1236343 0.1230544 0.1210096 0.1196972 0.1172862 0.1169505 0.1176524 0.1200024 0.1151193 0.1043154 0.09634987 0.08966611 0.08621742 0.08554599 0.08252457 0.07977782 0.07251419 0.0700116 0.06387719 0.06363303 0.06494537 0.06375511 0.05914668 0.05621681 0.05334798 0.05087591 0.04916682 0.04559604 0.04757981 0.04855643 0.05047916 0.04889214 0.0458402 0.04626747 0.0500824 0.05600318 0.06195446 0.06705121 0.07697003 0.08026613 0.07727522 0.0788012 0.08392847 0.09134468 0.09454922 0.09732649 0.0993713 0.09927974 0.1012635 0.1093512 0.1260758 0.1487823 0.17274 0.1856192 0.1957517 0.2128121 0.2442776 0.2940853 0.300586 0.2881646 0.2820912 0.2666789 0.2780016 0.2818775 0.2807789 0.2800159 0.278612 0.2774522 0.2694256 0.2703107 0.2702802 0.2627113 0.2426296 0.2221815 0.2098822 0.1996887 0.1877861 0.2043277 0.2249588 0.2247146 0.2372887 0.2430568 0.2393029 0.2501373 0.2431484 0.2376549 0.2335348 0.2463529 0.2537386 0.2635049 0.2664958 0.2648172 0.2585607 0.2406763 0.2217543 0.2128731 0.1949582 0.1990173 0.2067997 0.2115913 0.2208997 0.2238601 0.2402185 0.2516328 0.2571568 0.257401 0.2652445 0.2603003 0.248886 0.2444607 0.2437893 0.2487945 0.2536776 0.2585912 0.262925 0.265336 0.267625 0.2695477 0.2765061 0.2808094 0.2836172 0.2805652 0.2787951 0.2814198 0.2853568 0.2828847 0.2706769 0.2528841 0.2416224 0.2360679 0.2284685 0.2211744 0.2115302 0.2066471 0.2034121 0.2012147 0.1988647 0.1932796 0.1926692 0.1887322 0.1852225 0.1812244 0.1752426 0.1727095 0.1710615 0.1672771 0.1662394 0.1652933 0.1603491 0.1572667 0.1571446 0.1607154 0.1634926 0.1670024 0.1667887 0.1707868 0.1786608 0.1789965 0.1709699 0.168803 0.16334 0.159403 0.153055 0.1470427 0.1442349 0.1416407 0.1378868 0.1305622 0.128029 0.1254654 0.1252518 0.125557 0.1203076 0.1212537 0.1170115 0.1182323 0.1144174 0.1088323 0.1043154 0.102118 0.09805896 0.09522066 0.09561741 0.08701093 0.07837392 0.0781908 0.07764146 0.07239211 0.07010315 0.0602759 0.06210706 0.05932979 0.05200513 0.05197461 0.0513337 0.05044863 0.05264603 0.05804798 0.05969603 0.06103888 0.06738693 0.07477263 0.08047976 0.0853934 0.09287066 0.09866935 0.1042849 0.1086797 0.1110908 0.1140511 0.1158518 0.1184154 0.1193615 0.1202771 0.1206739 0.1212843 0.1225356 0.1240005 0.126381 0.1296466 0.1338583 0.1388635 0.1440823 0.1495147 0.1547641 0.159281 0.1630349 0.1651102 0.1653848 0.1639199 0.1611732 0.1569615 0.1509492 0.1442654 0.1366661 0.1289141 0.1219557 0.115394 0.1092596 0.1037966 0.09882195 0.09406091 0.09027651 0.08664469 0.08347067 0.08096807 0.07809925 0.07593237 0.07486419 0.07507782 0.07690899 0.0795947 0.08313496 0.08731612 0.09195507 0.09696026 0.1024843 0.1079167 0.1136239 0.1194226 0.1248856 0.1296161 0.1343161 0.1381615 0.1413966 0.1431362 0.1440823 0.143655 0.1430141 0.1406641 0.1382225 0.1353537 0.1325154 0.1297381 0.1272661 0.1260148 0.1243362 0.1237563
0.1519563 0.1543978 0.1536654 0.1553439 0.1450894 0.1363303 0.1273881 0.1261063 0.1210706 0.1177745 0.1194531 0.1223219 0.1252518 0.1316914 0.1362083 0.1378258 0.1341635 0.1325459 0.1327291 0.133431 0.1319355 0.130257 0.123207 0.1136239 0.1069096 0.1021486 0.09439663 0.0905817 0.08734664 0.08322652 0.08157846 0.0828908 0.08078496 0.0806934 0.07886223 0.0751999 0.07025576 0.06677654 0.06415187 0.0613746 0.05984862 0.05563694 0.05356162 0.05487395 0.05749863 0.05994018 0.05975707 0.05484343 0.05334798 0.05911615 0.06476225 0.06903498 0.07556614 0.07986937 0.08054081 0.08157846 0.08395898 0.09055118 0.09580053 0.09909663 0.09763169 0.09879143 0.1008057 0.1064518 0.1124641 0.1274492 0.1463407 0.1695965 0.1780504 0.1931881 0.2357627 0.2572789 0.2704938 0.2765366 0.274675 0.2722029 0.2841665 0.2865165 0.2874931 0.2838613 0.2806263 0.2774217 0.2703412 0.2679912 0.2746444 0.2663737 0.2516023 0.2293231 0.2106452 0.1976439 0.1930965 0.1912653 0.20329 0.2177257 0.2129952 0.2142465 0.2302081 0.2320698 0.2328328 0.2403101 0.2290484 0.2357627 0.2504731 0.2458036 0.2548373 0.2646951 0.2606971 0.2504425 0.2380516 0.224501 0.2031069 0.2009705 0.2101264 0.2183361 0.213453 0.2145822 0.2505646 0.2708295 0.2750412 0.2696087 0.2539828 0.2495575 0.2428127 0.2345724 0.2324666 0.2364341 0.2405847 0.2451016 0.2516633 0.2559055 0.2612769 0.262986 0.2644815 0.2647561 0.2713178 0.2736373 0.2727828 0.2703107 0.2701581 0.2693951 0.2647561 0.2547458 0.2375633 0.2201672 0.2106757 0.2049075 0.2003907 0.1960264 0.1939205 0.1925777 0.1887322 0.1827504 0.1807972 0.1765244 0.1720991 0.1690777 0.1635537 0.1596167 0.1572056 0.1549777 0.156168 0.1565647 0.1541537 0.1510712 0.153116 0.1540011 0.1584875 0.1622108 0.1584264 0.1595251 0.1626991 0.165629 0.1618141 0.159403 0.1526888 0.153116 0.1488128 0.1431667 0.142831 0.1417628 0.1362998 0.1228407 0.120033 0.120857 0.1221693 0.1205518 0.1130135 0.1115486 0.1065739 0.108344 0.1042239 0.1005005 0.09680767 0.09531222 0.09091742 0.08496612 0.08646157 0.07983886 0.07428432 0.07394861 0.07114082 0.06778368 0.06711225 0.05951291 0.06113044 0.05881096 0.05328694 0.05481292 0.05292071 0.05203564 0.05469084 0.05994018 0.06280901 0.06522004 0.07101874 0.0781908 0.08521028 0.09103949 0.09897455 0.1064518 0.1108466 0.1148752 0.1186901 0.1219252 0.1242141 0.1265031 0.1271135 0.1276018 0.1274492 0.1275713 0.1277849 0.1285174 0.1300433 0.1323933 0.13572 0.1399927 0.1442959 0.149118 0.1536043 0.1579686 0.1613563 0.1634011 0.1636758 0.1625771 0.1602271 0.1565037 0.1509186 0.1446927 0.1377648 0.1307148 0.1231459 0.1164317 0.1102362 0.1050479 0.1001953 0.09613624 0.09195507 0.08835378 0.08530184 0.08243301 0.08035769 0.07935055 0.07932003 0.08008301 0.0819447 0.08395898 0.08688885 0.09033754 0.09430507 0.09866935 0.1031252 0.1078862 0.112983 0.1179271 0.1225356 0.1269304 0.1311115 0.1346212 0.137307 0.1387719 0.1397485 0.1397485 0.1386498 0.1368186 0.1348349 0.132607 0.1302264 0.1282122 0.1267778 0.1258622 0.125618 0.1261369
0.1526277 0.1548556 0.1555576 0.1556492 0.1505829 0.1431362 0.1286089 0.1250381 0.1260453 0.1248245 0.1261063 0.1289752 0.1338583 0.142892 0.1450589 0.1450284 0.1416102 0.1355674 0.1369407 0.1387719 0.1380089 0.1342245 0.1334005 0.1305927 0.1192089 0.1156382 0.1101141 0.1036745 0.09683818 0.09296222 0.09335897 0.09204663 0.09149729 0.08960508 0.08600378 0.08096807 0.0786486 0.07693951 0.07437588 0.07400964 0.07336874 0.06903498 0.06534212 0.06601355 0.06839406 0.07019471 0.06949276 0.06744796 0.06439602 0.06354147 0.06671549 0.07376549 0.07898431 0.08261613 0.08649209 0.0896356 0.09079534 0.09131417 0.09427455 0.09763169 0.09775377 0.09778429 0.09976805 0.102057 0.106696 0.1151193 0.1353537 0.1620277 0.1736251 0.1952024 0.2300555 0.2608191 0.2807483 0.283312 0.2823659 0.2753464 0.2787646 0.2887139 0.2869133 0.2869438 0.2915827 0.279436 0.2727217 0.2612159 0.2579808 0.255875 0.2470854 0.2285601 0.2223341 0.2056705 0.1940731 0.1900751 0.1959959 0.2113471 0.2162608 0.2100348 0.2061588 0.2005127 0.2120185 0.2218458 0.2284991 0.2302692 0.2359763 0.2417445 0.2491912 0.2571873 0.2632607 0.2600867 0.2505646 0.2416835 0.2181835 0.2066471 0.2035952 0.207288 0.2177257 0.2287432 0.2502594 0.2661295 0.2704328 0.2729659 0.2595373 0.2469633 0.2427821 0.2292926 0.222853 0.226088 0.2305133 0.2326802 0.2384179 0.2434536 0.2476653 0.2523958 0.2563328 0.2556309 0.2610938 0.2649698 0.2675334 0.2649087 0.2570652 0.2526094 0.251236 0.2478179 0.2365562 0.2140634 0.1956296 0.1871147 0.1839407 0.1807056 0.1795764 0.1780504 0.175792 0.1736861 0.1710615 0.1671855 0.1653543 0.1636758 0.1597998 0.1559238 0.1520479 0.149881 0.1500641 0.1524446 0.1502777 0.1446621 0.1461576 0.1478972 0.1538485 0.1551303 0.1511628 0.1533907 0.1587011 0.1583654 0.1549472 0.1568394 0.1549167 0.1559849 0.1535433 0.1447842 0.1395044 0.1390771 0.1290972 0.1167063 0.1163706 0.117744 0.1170421 0.1124031 0.1080388 0.1078862 0.1002869 0.10047 0.09964597 0.09485442 0.08707196 0.08481353 0.08154795 0.08041873 0.07999145 0.07178172 0.07034731 0.07013367 0.06625771 0.06372459 0.06457914 0.05963499 0.05865837 0.05786486 0.05612525 0.05817005 0.05493499 0.05508759 0.05826161 0.06213758 0.06631874 0.0694012 0.07635964 0.08389794 0.09052067 0.09784533 0.1055667 0.1124641 0.1181102 0.1214369 0.1250687 0.1287615 0.1307148 0.1328511 0.133431 0.1332784 0.1330648 0.1324238 0.1319661 0.1319355 0.1324849 0.1340109 0.1363609 0.1398401 0.1435634 0.1477446 0.1518953 0.1558628 0.1588842 0.1608069 0.1612953 0.1604407 0.1586706 0.1550693 0.1503388 0.1448453 0.1385277 0.1319355 0.1248856 0.1185375 0.1124947 0.1070622 0.1022401 0.09790637 0.094183 0.09107001 0.08829274 0.08655313 0.08536287 0.08481353 0.08527131 0.0853934 0.08716352 0.08872002 0.09107001 0.09384728 0.09696026 0.100409 0.1041628 0.1083745 0.1123115 0.1164622 0.1204297 0.1242446 0.1276323 0.1308368 0.1330342 0.1344687 0.1352622 0.1352927 0.1341024 0.1326985 0.1312946 0.1294635 0.1281206 0.126381 0.1260148 0.1262284 0.1268998 0.1287005
0.1532076 0.1555576 0.1566868 0.1576634 0.1560459 0.1506745 0.1427089 0.1318745 0.1325459 0.1336752 0.134957 0.1370323 0.1416407 0.1489654 0.1508576 0.1501862 0.1486602 0.1433193 0.1398401 0.1399011 0.1405115 0.1406336 0.1392602 0.1360862 0.1293719 0.127144 0.1257401 0.1201245 0.1087102 0.1036745 0.1006226 0.09754013 0.09750962 0.09656351 0.09308429 0.08878105 0.08533236 0.08325703 0.08163951 0.08325703 0.08417262 0.07886223 0.07516938 0.07697003 0.08142587 0.0839895 0.08295184 0.07999145 0.08029665 0.078496 0.07571873 0.08087651 0.08420314 0.08530184 0.08969664 0.09445767 0.09772325 0.09775377 0.09787585 0.09824208 0.09802844 0.09949338 0.1055057 0.1077031 0.1099005 0.1161875 0.128792 0.153055 0.1724959 0.1920588 0.2259965 0.2582555 0.2726607 0.27791 0.27791 0.2716535 0.2752243 0.2801685 0.2784594 0.2838003 0.2947263 0.2875847 0.2656107 0.2461393 0.2431789 0.241714 0.2361899 0.2268205 0.2232192 0.2146127 0.2010926 0.193951 0.1905329 0.196179 0.2150095 0.2160471 0.2091803 0.2014893 0.2276445 0.2358542 0.2353964 0.2331685 0.2271562 0.2336874 0.2461698 0.2548679 0.2600256 0.2617347 0.2532808 0.2467497 0.2332296 0.2125374 0.2070744 0.2115913 0.2286211 0.2440335 0.2431179 0.2503815 0.262162 0.2682659 0.269975 0.257462 0.2407373 0.2277666 0.2218458 0.2217543 0.2249283 0.2256302 0.2288653 0.2335958 0.2382042 0.2412867 0.2487029 0.2512971 0.2541659 0.2553867 0.2557529 0.2557834 0.2494659 0.2405237 0.2357016 0.2339925 0.2273393 0.2118354 0.1926387 0.1754563 0.1696576 0.1678264 0.1666056 0.1667582 0.1670939 0.164042 0.1613258 0.1602271 0.1588232 0.156992 0.1525362 0.148416 0.1441128 0.1402368 0.1404505 0.1418849 0.141305 0.136605 0.1370018 0.1415187 0.149881 0.1501251 0.1488433 0.1548862 0.1655069 0.1646524 0.160166 0.1589147 0.1587926 0.1577855 0.1526277 0.1431362 0.1352927 0.1348044 0.1251297 0.1149973 0.1157908 0.1149362 0.112281 0.1068486 0.1058109 0.1063602 0.09537325 0.09396936 0.09158884 0.08780443 0.08047976 0.07700055 0.07196485 0.07523042 0.07712263 0.06705121 0.06564732 0.06595251 0.0634194 0.06308369 0.06497589 0.05817005 0.06024538 0.06134408 0.05948239 0.0621681 0.05890252 0.05835317 0.06131355 0.06500641 0.06949276 0.07428432 0.08127327 0.08887261 0.0960752 0.1027895 0.1097174 0.1161875 0.123207 0.1266862 0.1303791 0.1340109 0.1359031 0.1377037 0.138131 0.1377648 0.1366966 0.135781 0.1343771 0.1336446 0.1337362 0.1343771 0.1359946 0.1387109 0.1418544 0.1452725 0.1490875 0.1525667 0.1554966 0.1573582 0.1582128 0.1574193 0.1559238 0.1529024 0.1487212 0.1439907 0.1383141 0.1323933 0.1262284 0.1202161 0.1146615 0.1096563 0.1052615 0.1015992 0.0982726 0.09573948 0.09342001 0.09226027 0.0916804 0.09131417 0.09131417 0.09140573 0.09256546 0.09378624 0.09522066 0.09720442 0.09992065 0.1021791 0.1049258 0.1082525 0.111457 0.1145395 0.117683 0.1207654 0.1237869 0.1266252 0.1283343 0.1297381 0.1306537 0.1309284 0.1303485 0.1292804 0.1283648 0.1274492 0.1264115 0.1262894 0.126442 0.1280901 0.1297992 0.1324544
0.1494232 0.1549777 0.1570225 0.1604712 0.1615089 0.1586401 0.1535738 0.1485381 0.1422206 0.1431057 0.1461576 0.1496063 0.1532992 0.1570836 0.1595251 0.1574193 0.1558628 0.1547641 0.146707 0.1464933 0.1499115 0.1519868 0.1480803 0.1411219 0.1383751 0.1365135 0.1317524 0.1245498 0.1146921 0.1077947 0.1065128 0.1052615 0.1016297 0.0982726 0.09766221 0.09772325 0.09534273 0.09021547 0.08627846 0.08859794 0.08801807 0.08423366 0.08261613 0.08444729 0.08926936 0.09583104 0.09714338 0.09580053 0.09689923 0.09564793 0.09222975 0.08926936 0.08798755 0.08749924 0.09052067 0.09473234 0.09946286 0.101294 0.1025453 0.1008667 0.09989013 0.1018739 0.1065739 0.1070012 0.1072453 0.1126167 0.127144 0.1481109 0.1579991 0.1748764 0.2072575 0.2268205 0.2463224 0.2635964 0.2677165 0.2588659 0.2626198 0.2687847 0.2820607 0.2866081 0.283434 0.278612 0.2525484 0.2400964 0.2400964 0.2344503 0.2329549 0.2283465 0.2255692 0.22444 0.2169322 0.2194043 0.2246841 0.2144296 0.2229445 0.2204419 0.219801 0.2104621 0.2289874 0.2410731 0.2437283 0.2390893 0.2333516 0.2368919 0.242599 0.2462308 0.2525178 0.2527315 0.2562412 0.2514192 0.237838 0.2191601 0.2168406 0.2267289 0.2418055 0.247238 0.2405237 0.2334737 0.2451932 0.259049 0.2687237 0.263688 0.2445523 0.2278276 0.2247757 0.222853 0.2215406 0.2176036 0.2186718 0.2243789 0.2290789 0.2303302 0.2371361 0.2423549 0.2456815 0.243301 0.2400659 0.2418055 0.2407679 0.2329854 0.2216322 0.215925 0.2130562 0.2054569 0.1929744 0.1745102 0.1623939 0.1596167 0.1589147 0.1612037 0.1597387 0.1538485 0.1532686 0.155466 0.1485076 0.1456082 0.1432583 0.1379174 0.133431 0.1308979 0.1327901 0.1340109 0.1331868 0.1324849 0.1315083 0.1368797 0.1435634 0.1481719 0.1491485 0.1548251 0.1648965 0.164042 0.1589147 0.1526582 0.1489044 0.1482634 0.1436245 0.1375511 0.1301044 0.1314777 0.124092 0.1138986 0.1117622 0.1104499 0.1064518 0.1010194 0.09918818 0.09555637 0.08630898 0.08395898 0.07782458 0.07568821 0.073796 0.07269731 0.06659342 0.06805836 0.069859 0.06225966 0.06265641 0.06274797 0.06207654 0.06387719 0.06494537 0.05948239 0.06378563 0.0642129 0.06213758 0.06482329 0.06238174 0.06293109 0.06665446 0.06952329 0.07275835 0.07791613 0.08505768 0.09299274 0.1004395 0.1052921 0.1118843 0.11927 0.1250992 0.1291888 0.1336446 0.1370323 0.1391381 0.1406031 0.1405725 0.1401148 0.1387719 0.1371544 0.1356894 0.1341635 0.1337972 0.1336141 0.1346823 0.1369713 0.1392907 0.1423732 0.1457914 0.1489044 0.1514985 0.1536349 0.1544589 0.1537569 0.1525362 0.149942 0.1465238 0.1421596 0.137368 0.1323323 0.1270219 0.1219557 0.1170421 0.1127083 0.1089239 0.1057804 0.1031862 0.1010804 0.09946286 0.09863883 0.09812 0.09769273 0.09750962 0.09747909 0.09784533 0.09863883 0.0993713 0.1010804 0.1022096 0.1036135 0.1055362 0.1076421 0.1101141 0.1123115 0.1147836 0.1172862 0.1196972 0.1220778 0.1235427 0.1247635 0.1251907 0.125557 0.1253433 0.1249161 0.1249466 0.1247024 0.1244583 0.1254044 0.1269914 0.1289446 0.1319966 0.1352622
0.1503083 0.1514375 0.1565342 0.1617225 0.1652628 0.1636452 0.162516 0.1623024 0.1567173 0.1539095 0.1561375 0.1601965 0.1611426 0.1591284 0.1583959 0.1566563 0.1583349 0.1597082 0.1552219 0.1541537 0.1578771 0.1592199 0.156931 0.1520173 0.1485381 0.1449368 0.1360557 0.1292804 0.1267167 0.1170115 0.1105109 0.1080693 0.1060245 0.1041018 0.1019349 0.10047 0.09989013 0.09732649 0.09308429 0.09467131 0.09332845 0.091833 0.09338949 0.0985778 0.1058109 0.113746 0.1153635 0.113868 0.1147836 0.1139291 0.1145395 0.110755 0.1037051 0.09903558 0.0985778 0.09976805 0.1026674 0.1052921 0.1074895 0.1047732 0.1014771 0.1026674 0.1089544 0.1123421 0.1123421 0.1119758 0.1236648 0.1460355 0.1576024 0.1638894 0.1870537 0.21034 0.2404016 0.2553256 0.2529146 0.2523653 0.2622841 0.2684795 0.2775438 0.2806568 0.2751938 0.2599036 0.2439419 0.2359763 0.2315815 0.2277971 0.2255082 0.221327 0.2215406 0.2247146 0.216688 0.225264 0.2312763 0.2263627 0.228377 0.2184887 0.2200757 0.2471159 0.2553256 0.2549899 0.2458036 0.2408289 0.2429958 0.240249 0.2342062 0.236312 0.2377464 0.2432399 0.2426906 0.24089 0.2344809 0.2225172 0.2240127 0.2495575 0.2468412 0.2449795 0.2411341 0.2317036 0.2363425 0.2484588 0.2591406 0.2575841 0.2495269 0.2326497 0.2230971 0.2231887 0.219038 0.2093634 0.208753 0.212751 0.2190991 0.2195874 0.2242874 0.2304218 0.2349387 0.2317036 0.226027 0.2249588 0.225325 0.2224257 0.211103 0.2022523 0.1993225 0.1975829 0.1930049 0.1814686 0.163218 0.151468 0.1494232 0.1509492 0.1476531 0.1415187 0.1443264 0.1447537 0.1375816 0.1353232 0.1314167 0.1278154 0.1273881 0.1280901 0.1279985 0.1265031 0.1294635 0.1301044 0.1304096 0.1322407 0.1391076 0.1471342 0.1492095 0.1519563 0.1551303 0.1490875 0.1436245 0.1426173 0.1407251 0.1435024 0.1424953 0.1365745 0.1315083 0.1311115 0.122444 0.1052921 0.1021791 0.1040408 0.09818104 0.09177196 0.08899469 0.08344015 0.0800525 0.07837392 0.06992004 0.06677654 0.06604407 0.06674602 0.06161875 0.06067265 0.06265641 0.0602759 0.06061161 0.06222914 0.06335836 0.06372459 0.0632668 0.06082524 0.06543368 0.06323628 0.06268694 0.06677654 0.06494537 0.06711225 0.07178172 0.07434536 0.07605445 0.07965574 0.08673625 0.09451871 0.101996 0.1064213 0.1127999 0.1197888 0.1254654 0.1299823 0.1344381 0.1378868 0.1399622 0.141305 0.1410609 0.140481 0.1388635 0.1369713 0.1349875 0.1330648 0.1320271 0.1316609 0.131905 0.1331868 0.1354453 0.1379784 0.1410303 0.143594 0.1459745 0.1478972 0.1486907 0.1484771 0.1475005 0.1457303 0.1427089 0.1392297 0.1351401 0.1308674 0.1264726 0.1223524 0.1183849 0.1148141 0.1118843 0.1097479 0.1075505 0.1062687 0.1049564 0.1047122 0.104407 0.1040408 0.1038271 0.1035525 0.1035525 0.1037051 0.103583 0.104468 0.1050174 0.1054752 0.1065434 0.107581 0.1089544 0.110633 0.1119148 0.1136239 0.1155466 0.1171947 0.1183849 0.119331 0.1204297 0.1207654 0.120918 0.1211011 0.1213758 0.1218336 0.1227797 0.1244583 0.1269304 0.1302875 0.1340414 0.1383751
0.1520479 0.153116 0.1595862 0.1655985 0.1664836 0.1652017 0.1670634 0.1694745 0.1670634 0.1636147 0.1605933 0.1619667 0.1619056 0.1597082 0.1595862 0.1588537 0.1600134 0.1621803 0.1616615 0.1582433 0.1582128 0.1604102 0.1619361 0.1628212 0.1556797 0.1469816 0.1429836 0.1393213 0.1352622 0.1255875 0.1130745 0.1097174 0.109809 0.1081914 0.1053226 0.1031557 0.1018739 0.1025758 0.1046512 0.1058414 0.101996 0.1015382 0.1055667 0.1121895 0.1184765 0.1246414 0.1233596 0.1221998 0.1228102 0.1215589 0.1233596 0.1221083 0.1162791 0.1127083 0.1084051 0.1061466 0.1062687 0.1079778 0.1108466 0.1100531 0.1065128 0.1055973 0.1076116 0.1101447 0.1131966 0.1136544 0.1197278 0.146066 0.1603186 0.1666361 0.1834218 0.1946225 0.2204114 0.2402185 0.2482451 0.2532503 0.2547763 0.2573704 0.2617347 0.2628639 0.2554477 0.2474516 0.2414698 0.2319172 0.2270341 0.2251114 0.2184582 0.2199536 0.2167491 0.2197095 0.2204419 0.2247757 0.2239822 0.2295062 0.2295672 0.2144601 0.223677 0.2383568 0.2610633 0.2636269 0.2513276 0.2454679 0.2437893 0.2389977 0.227614 0.22914 0.2275835 0.2281633 0.2240737 0.2232192 0.2186718 0.2270952 0.2439724 0.2480925 0.2503815 0.2441555 0.2388146 0.2347555 0.2295672 0.228377 0.2377159 0.2458646 0.2498321 0.2428737 0.2259354 0.2176647 0.2108588 0.2027101 0.2015199 0.203229 0.2085699 0.2110114 0.214338 0.2190685 0.2240432 0.2224867 0.2174815 0.2123238 0.2065861 0.2045108 0.2007569 0.192303 0.1888848 0.1878472 0.1864738 0.1809192 0.1653848 0.1445096 0.136605 0.1395044 0.1352011 0.1309894 0.1351096 0.1355674 0.1319661 0.1284563 0.1250992 0.1243057 0.1275407 0.1289446 0.1270524 0.1250076 0.1262284 0.1237563 0.1231765 0.1237563 0.1344381 0.1447842 0.1444485 0.1485076 0.1505829 0.1432277 0.1362083 0.1384362 0.1423732 0.1440518 0.1456082 0.1384667 0.1334005 0.1289141 0.118507 0.09848624 0.09659403 0.09931026 0.09195507 0.08469145 0.08014405 0.07437588 0.07202588 0.07111029 0.06595251 0.06158823 0.05908564 0.06290057 0.05874992 0.05639993 0.05722395 0.05765122 0.06079473 0.06079473 0.06167979 0.06344992 0.06427394 0.0646707 0.06738693 0.06625771 0.06705121 0.0686077 0.06757005 0.07068302 0.07486419 0.07693951 0.07892327 0.08279924 0.08987975 0.09558689 0.1017823 0.1075505 0.1127999 0.1191174 0.1246719 0.1290667 0.1331868 0.1363914 0.1383751 0.1395349 0.1395654 0.1384057 0.1367271 0.1344076 0.1321492 0.1300128 0.1285479 0.1278765 0.1280596 0.1288531 0.1304706 0.1324544 0.135018 0.1374596 0.1396875 0.1417933 0.1427699 0.1424648 0.1417323 0.1403589 0.1380089 0.1351706 0.1319966 0.1286089 0.1252213 0.1220472 0.1189648 0.1164012 0.1144784 0.112983 0.1120369 0.1112434 0.1106025 0.1105109 0.1105109 0.1104804 0.1102973 0.1095343 0.1093512 0.1088934 0.1080083 0.1077947 0.1076116 0.1072453 0.1072453 0.1071843 0.1073979 0.1080083 0.1088323 0.1096869 0.1112434 0.1122505 0.1134102 0.1139291 0.1149057 0.115333 0.1159434 0.1166758 0.117744 0.1188122 0.1206739 0.1231459 0.126442 0.1305317 0.135018 0.1401148
0.1507966 0.1582433 0.1646219 0.1708784 0.1670329 0.1664836 0.1708784 0.1736251 0.1731368 0.1675822 0.1587316 0.160166 0.1627602 0.1631569 0.1615089 0.1614784 0.1626076 0.164866 0.1658732 0.1640115 0.1612037 0.1624855 0.1657206 0.1667582 0.16099 0.1505219 0.1486297 0.1464933 0.1391381 0.1321797 0.1203382 0.1135018 0.1108466 0.1099005 0.109046 0.1080999 0.1079473 0.1084661 0.1124031 0.1147531 0.1111518 0.1129524 0.117744 0.1203992 0.1225966 0.127907 0.1270524 0.124092 0.124733 0.1251297 0.1254044 0.1263505 0.1208875 0.1183849 0.1170726 0.1140817 0.111518 0.1110297 0.1115791 0.1111518 0.109931 0.1089544 0.1097784 0.1128914 0.1144479 0.1158518 0.122383 0.1422206 0.1670024 0.178142 0.1863822 0.1982543 0.2077764 0.2141244 0.2325581 0.2449185 0.2483672 0.2483977 0.248764 0.254227 0.2471159 0.2347861 0.2220595 0.2245315 0.2276445 0.22679 0.2266374 0.2190991 0.2089971 0.2110419 0.2101569 0.2092108 0.2180309 0.2222731 0.2147348 0.2035647 0.2110419 0.2272172 0.2476042 0.2545932 0.233962 0.2334432 0.233901 0.2313068 0.2300861 0.2238601 0.2188854 0.2175121 0.2145517 0.2161387 0.2115302 0.2267594 0.2459257 0.2525484 0.245651 0.2420192 0.2398523 0.2313374 0.22679 0.2196484 0.2129647 0.228438 0.2374718 0.23384 0.2273393 0.2117134 0.2014588 0.1955381 0.1955381 0.1956601 0.1981933 0.2022218 0.2049686 0.2092413 0.2139718 0.2140328 0.2107978 0.205579 0.1950497 0.18919 0.1871147 0.1822926 0.1763413 0.1731368 0.1731063 0.1744491 0.1655985 0.1405115 0.1286089 0.1355063 0.1338888 0.1305622 0.1308674 0.1317524 0.126381 0.1243362 0.1253433 0.1255265 0.1255265 0.1233596 0.1221998 0.121681 0.1197278 0.1183239 0.1190869 0.1218336 0.1333089 0.1411219 0.1401148 0.1442044 0.1488433 0.1412745 0.1354148 0.1374596 0.1425868 0.1421596 0.1427394 0.1390466 0.1304096 0.1248245 0.1187206 0.0982726 0.09381676 0.0896356 0.08353171 0.07953367 0.07449795 0.07065251 0.0679668 0.06625771 0.06058109 0.05664408 0.05255448 0.05459928 0.05505707 0.05435512 0.05536227 0.05636941 0.05954343 0.05975707 0.05942135 0.06412134 0.06790575 0.06851614 0.06964536 0.07022523 0.07193432 0.07312458 0.07077459 0.07288042 0.07690899 0.07898431 0.0819447 0.08670573 0.09113105 0.09573948 0.101233 0.1057499 0.1105719 0.1166453 0.121681 0.1261979 0.1299823 0.1330342 0.1346823 0.1355063 0.1353842 0.1342245 0.1324238 0.130257 0.1280901 0.125618 0.1237869 0.1228713 0.1225356 0.1229323 0.1241836 0.1260453 0.1282427 0.1303791 0.1324544 0.1343466 0.1353842 0.1352622 0.1353842 0.1343161 0.1325765 0.1305011 0.128029 0.1252823 0.1231765 0.1209791 0.1187206 0.1172557 0.1161875 0.1156992 0.1155161 0.1155771 0.1155161 0.1160044 0.1162791 0.1161875 0.1158518 0.1153635 0.1146005 0.1134102 0.112281 0.1111213 0.1098395 0.1088628 0.1076421 0.106818 0.1064823 0.105994 0.1059635 0.1060551 0.106696 0.1073979 0.1078862 0.1087102 0.1095038 0.1103583 0.1113654 0.1123421 0.1137765 0.1156687 0.1182018 0.1214369 0.125557 0.1302264 0.1354148 0.1410609
0.147592 0.1576024 0.16804 0.1708478 0.1694439 0.1706342 0.1745407 0.1760361 0.1770433 0.168681 0.1596167 0.1600745 0.1606543 0.1620277 0.1623329 0.1639199 0.1646524 0.1667582 0.1695965 0.1685894 0.1647745 0.1641335 0.1652628 0.1646219 0.1625465 0.1566868 0.152994 0.1476225 0.1427089 0.1395349 0.1289446 0.1170115 0.1130135 0.1118232 0.1135934 0.1138986 0.1137154 0.1144174 0.1163706 0.1196362 0.1221998 0.127205 0.1271745 0.1236648 0.123268 0.1269609 0.1282427 0.126381 0.1254654 0.1273271 0.1277849 0.1272966 0.1244888 0.1209791 0.1199414 0.1196362 0.1171641 0.1154856 0.1147226 0.112281 0.1105414 0.1106635 0.1095038 0.1089544 0.1117927 0.1135934 0.1189648 0.1344992 0.179027 0.2057621 0.2244094 0.2317341 0.2157724 0.2227919 0.2333516 0.2414088 0.2482451 0.2471159 0.248123 0.2507783 0.2375023 0.2277971 0.2190075 0.2070134 0.2045718 0.2165965 0.2225478 0.2224257 0.2153452 0.1998108 0.1924861 0.1934932 0.2005432 0.2110114 0.2083867 0.1992614 0.1986816 0.2066471 0.2187939 0.2297809 0.2327413 0.2331685 0.2317646 0.2350607 0.22914 0.2263322 0.215864 0.2044497 0.2078679 0.2101874 0.2051822 0.2241653 0.2390893 0.2414088 0.247238 0.2358848 0.2295977 0.2289568 0.2207471 0.2117134 0.1992004 0.2116828 0.2230971 0.2232497 0.2200146 0.204114 0.1944394 0.1904413 0.1895868 0.1879082 0.1897088 0.1934627 0.1970945 0.200879 0.2059757 0.2058231 0.2010316 0.1974608 0.1882744 0.1802478 0.1761887 0.1744491 0.1666667 0.1620582 0.1641946 0.1709699 0.1642556 0.1431057 0.1276323 0.12867 0.1266252 0.1242446 0.1220472 0.1194836 0.1180797 0.1189343 0.1182934 0.1148447 0.113044 0.1121589 0.1112434 0.113807 0.1156076 0.11692 0.1150888 0.1220472 0.1285479 0.1346518 0.1315083 0.1339803 0.1384972 0.1320576 0.1281206 0.1325154 0.1385888 0.1370018 0.1382531 0.1342855 0.1255875 0.1194531 0.1128914 0.09345053 0.08893365 0.08145639 0.07687847 0.07404016 0.06784472 0.06485381 0.06323628 0.06344992 0.05704083 0.05292071 0.04983824 0.05084539 0.05044863 0.05173045 0.05508759 0.05646097 0.05859733 0.06009278 0.06259537 0.06631874 0.06821095 0.0701642 0.07071354 0.07046939 0.07355185 0.07663432 0.07471159 0.07666484 0.08020509 0.08066288 0.08389794 0.08801807 0.0905817 0.09506806 0.09927974 0.1028505 0.1071538 0.1129219 0.1173778 0.1211622 0.1248856 0.1275713 0.1290362 0.1297687 0.129494 0.1283343 0.12632 0.1239394 0.1217115 0.119331 0.1174083 0.116157 0.1156992 0.1157297 0.1166758 0.1182018 0.1200635 0.1219252 0.1238784 0.1257096 0.1268693 0.1269914 0.1272355 0.1266557 0.125618 0.1241836 0.122444 0.120796 0.1196362 0.1182934 0.1173167 0.1169505 0.116981 0.1174388 0.1182628 0.1190869 0.1197888 0.1207349 0.1213148 0.1215284 0.1214063 0.1203992 0.1193005 0.1178966 0.1159128 0.1141732 0.11222 0.1100836 0.1082219 0.1063908 0.1048648 0.1032473 0.102759 0.1022706 0.1022096 0.1026064 0.1027895 0.1033693 0.1040103 0.1051395 0.1061161 0.107581 0.1095953 0.1120674 0.1150583 0.1187511 0.1237563 0.1290667 0.1348959 0.1409388
0.1532686 0.1544589 0.1600134 0.1686504 0.1713056 0.1721907 0.1803699 0.1805225 0.1765855 0.1695355 0.1617836 0.1603797 0.1601965 0.1605017 0.1631569 0.1644998 0.1626991 0.1658426 0.1689251 0.1667887 0.163218 0.1610511 0.1615089 0.1613258 0.1625771 0.1621803 0.1566258 0.1524141 0.1473784 0.142892 0.1355368 0.1219252 0.1173778 0.1165843 0.1172862 0.1187206 0.1172862 0.1189343 0.121681 0.1229323 0.1332479 0.1388024 0.1325459 0.124031 0.1230849 0.1256485 0.1270524 0.1280901 0.1270524 0.1279985 0.130257 0.1277544 0.1258622 0.1243057 0.1214063 0.1217726 0.1195446 0.1188427 0.1181408 0.1154245 0.112983 0.1128304 0.1109076 0.1084356 0.1067265 0.1067265 0.1130135 0.1234206 0.1597998 0.1943478 0.2162608 0.2319783 0.2310627 0.2319172 0.2350302 0.2396997 0.2412257 0.242599 0.2421718 0.2399133 0.2319783 0.2217848 0.1995666 0.1824757 0.1699322 0.1707563 0.1809192 0.1953855 0.2086614 0.2171763 0.2006348 0.1862907 0.1948056 0.2022523 0.1973082 0.1923946 0.1989562 0.2033816 0.2119575 0.2278581 0.2375633 0.2458646 0.2330464 0.2296283 0.2286516 0.2252945 0.2190075 0.2027101 0.203351 0.1991699 0.1976134 0.2066776 0.2262101 0.2323445 0.236312 0.2340841 0.2165965 0.2128731 0.2118049 0.2020997 0.1966368 0.20094 0.2108588 0.2106452 0.2042666 0.2024049 0.199353 0.1936153 0.1865959 0.1834829 0.181255 0.1824147 0.1861991 0.1899835 0.1949277 0.1937069 0.1901666 0.1879998 0.1811939 0.1731368 0.1689861 0.170329 0.1618751 0.1555881 0.1571141 0.1666361 0.1608069 0.1458219 0.1269304 0.1196362 0.1160349 0.1094122 0.1061161 0.1057499 0.1082219 0.1082219 0.1053531 0.09781481 0.1023012 0.1093817 0.1115486 0.1095648 0.1153635 0.1173472 0.1125862 0.1128914 0.1157602 0.1249466 0.1222609 0.1268693 0.127205 0.1235122 0.1215895 0.1301654 0.1373375 0.1324544 0.1320576 0.1254044 0.1180797 0.1120674 0.1015382 0.08173107 0.08032717 0.07596289 0.0719038 0.0697064 0.06344992 0.06009278 0.0591772 0.05820058 0.05365318 0.0511811 0.04748825 0.05218824 0.04974669 0.04809864 0.05295123 0.05524019 0.05936031 0.06149668 0.06378563 0.06631874 0.0686077 0.07199536 0.07086614 0.07120185 0.07541354 0.0781908 0.07788561 0.07953367 0.08203626 0.08286028 0.08447781 0.08707196 0.09012391 0.09323689 0.0960752 0.09891351 0.1027284 0.1077031 0.1114265 0.1150278 0.1182323 0.1204908 0.1214674 0.1221693 0.1215589 0.1204297 0.1186596 0.1162485 0.1138986 0.111457 0.109809 0.1083745 0.1074589 0.1074284 0.1082219 0.1092291 0.1108466 0.1126473 0.1146005 0.1160654 0.1171031 0.1174998 0.1181102 0.1180187 0.1174083 0.1166453 0.1159739 0.1154856 0.1149362 0.1148752 0.1152719 0.1157602 0.1170726 0.1183849 0.1202161 0.12162 0.123268 0.124733 0.1257401 0.1262894 0.1258316 0.1250687 0.1234817 0.1218336 0.1192089 0.1166758 0.1139596 0.1110908 0.108283 0.1056888 0.1032168 0.1011109 0.09964597 0.09830312 0.09769273 0.09778429 0.09772325 0.09784533 0.0985778 0.09961545 0.1009888 0.1025453 0.1049564 0.1075505 0.1113349 0.1158518 0.1206433 0.1265641 0.132607 0.1391381
0.1557102 0.1540621 0.162455 0.1668498 0.1685283 0.1715192 0.17979 0.1810718 0.1764329 0.1730452 0.1668803 0.1631264 0.1603491 0.1610206 0.1660563 0.1654764 0.1613563 0.164805 0.1655069 0.1642862 0.1633095 0.1609595 0.1602271 0.1612647 0.1652933 0.1665141 0.1604102 0.1571141 0.1514069 0.145242 0.1399011 0.1282732 0.123268 0.1219557 0.1205518 0.1205213 0.1212232 0.1230544 0.1258316 0.1282427 0.1417933 0.1439297 0.1358115 0.1251907 0.1231765 0.1251602 0.1249161 0.1276933 0.1290057 0.1289446 0.1313862 0.1295855 0.1262284 0.1257706 0.123207 0.1228713 0.1221998 0.1201856 0.1193005 0.1165843 0.1147531 0.1154856 0.1132271 0.1102057 0.1082219 0.1058109 0.1054142 0.109046 0.1316303 0.1701764 0.1974303 0.2199841 0.2231582 0.2206861 0.232375 0.227553 0.2280718 0.2302387 0.2378685 0.2415614 0.2340231 0.2157724 0.1954465 0.1793628 0.1724654 0.1703595 0.1740219 0.1884575 0.2040835 0.2136056 0.207227 0.2014893 0.1920588 0.184429 0.1776842 0.1808887 0.1842764 0.1970335 0.2069218 0.2125679 0.2256913 0.2363425 0.2240432 0.2172679 0.2172984 0.2225783 0.2150095 0.2052432 0.1942257 0.1892511 0.1948056 0.1941647 0.2028017 0.2198315 0.2287737 0.2295977 0.2169322 0.2085088 0.1979491 0.1879082 0.1900751 0.1969725 0.1975829 0.1980406 0.1968809 0.2009705 0.2038393 0.1976744 0.1869926 0.1793017 0.1740829 0.1712141 0.170329 0.172679 0.1772264 0.1784777 0.1789355 0.1784472 0.1733199 0.1665751 0.1628517 0.1641335 0.157053 0.1493011 0.1491485 0.1572972 0.1540316 0.1424648 0.12397 0.1095648 0.105109 0.1028505 0.09888299 0.09989013 0.1010499 0.1012635 0.0993713 0.09696026 0.1026369 0.1135018 0.1150583 0.1080999 0.1110908 0.1089849 0.1036135 0.1003479 0.1084051 0.1200024 0.120857 0.1231765 0.1276018 0.1277544 0.1264115 0.1309284 0.1351706 0.1315388 0.1277544 0.1172862 0.1086797 0.1030336 0.09232131 0.07437588 0.07678691 0.07263627 0.06515901 0.06573887 0.06256485 0.05386681 0.05307331 0.05157785 0.04974669 0.04635903 0.04373436 0.04959409 0.04651163 0.04553501 0.05041812 0.05438564 0.05984862 0.06189343 0.06195446 0.06579991 0.07004212 0.07342978 0.07297198 0.07504731 0.07809925 0.0806934 0.08105963 0.08228041 0.0839895 0.08389794 0.08521028 0.08624794 0.08814014 0.08957456 0.09192456 0.09457975 0.09729598 0.1009278 0.1040713 0.1072148 0.1096258 0.1116706 0.1125252 0.1127999 0.1124641 0.1111213 0.1092901 0.1072453 0.1050479 0.1027284 0.1008667 0.09952389 0.09851675 0.09845571 0.09873039 0.09982909 0.1012635 0.1025758 0.104468 0.1058414 0.1071538 0.1077641 0.1085576 0.1089239 0.109046 0.1088934 0.1087408 0.1092596 0.1097784 0.1105414 0.1120064 0.1136239 0.1160044 0.1185375 0.120796 0.1234817 0.1255875 0.1276628 0.1292193 0.1297687 0.1296771 0.128731 0.1270524 0.1245804 0.12162 0.1185986 0.1149973 0.111457 0.1079473 0.1044375 0.1013551 0.09833364 0.09610572 0.09457975 0.09342001 0.09296222 0.09268754 0.09244338 0.09308429 0.09427455 0.09561741 0.09757065 0.1001953 0.1030947 0.1070927 0.1117012 0.1171947 0.1232375 0.1293719 0.1356284
0.1546115 0.153055 0.1627907 0.1694745 0.1707563 0.178966 0.1806751 0.1773485 0.1736861 0.1702069 0.1667582 0.1621193 0.1578465 0.1595862 0.1650491 0.1638589 0.1613563 0.1646219 0.1656595 0.1658121 0.1659952 0.1625465 0.1606543 0.1631874 0.1674907 0.1692608 0.1647134 0.1591894 0.153879 0.148416 0.1443875 0.1343161 0.1277239 0.1270524 0.1232985 0.1225966 0.1244278 0.1265336 0.1296466 0.1346823 0.1455167 0.1454862 0.1379174 0.1264115 0.1238174 0.1250687 0.1233596 0.1252823 0.1294024 0.1304096 0.1318135 0.1307453 0.1275407 0.125557 0.1239089 0.1229934 0.1240615 0.122505 0.1205518 0.1171031 0.1144174 0.1149973 0.1148752 0.1104804 0.1094122 0.1081304 0.1058109 0.1048343 0.1064823 0.1225661 0.1494537 0.1756089 0.1861381 0.1988952 0.211866 0.2109199 0.2149179 0.2199536 0.2366172 0.2447964 0.2401575 0.2302692 0.2106147 0.1908381 0.1846121 0.1751205 0.1788744 0.1926082 0.2049686 0.2045108 0.2003907 0.1970945 0.195416 0.1933407 0.188427 0.181377 0.1770738 0.1828725 0.1831166 0.1951413 0.2068608 0.2022828 0.2011842 0.2078984 0.2100653 0.2183361 0.2168711 0.2065251 0.1987121 0.1945614 0.1977965 0.2013978 0.1971556 0.2022828 0.2121101 0.21269 0.2093328 0.1995056 0.1932186 0.1848868 0.1901361 0.1932796 0.1889153 0.1807972 0.1832998 0.2012452 0.2018861 0.1974608 0.185955 0.1747543 0.1721907 0.1659037 0.1619667 0.1586706 0.1624855 0.1652628 0.1655069 0.1639504 0.1610206 0.1565952 0.1565647 0.1595862 0.1548862 0.1452115 0.1420985 0.1460355 0.1424342 0.1368492 0.1190258 0.09982909 0.09409144 0.09854727 0.09641092 0.09613624 0.09528169 0.09656351 0.09564793 0.09744857 0.103583 0.1114875 0.1107856 0.1047732 0.1078252 0.1046817 0.1002869 0.09976805 0.1093817 0.1199719 0.1190869 0.1220778 0.1281206 0.1304096 0.1266557 0.1203992 0.1267778 0.1268083 0.1233291 0.1142648 0.1031252 0.09992065 0.08783495 0.07284991 0.07584081 0.06897394 0.06085576 0.0613746 0.05676616 0.04690838 0.04538241 0.04471098 0.04345968 0.0395532 0.0404993 0.04571812 0.04303241 0.04403955 0.04925838 0.05203564 0.05740707 0.05939083 0.06103888 0.06631874 0.07068302 0.07391809 0.07593237 0.07776354 0.0800525 0.08325703 0.08224989 0.08362327 0.08447781 0.08340963 0.08380638 0.08362327 0.08472197 0.08536287 0.08685833 0.08914728 0.09134468 0.09381676 0.09589209 0.09863883 0.1003784 0.101996 0.1026369 0.1027895 0.102057 0.1008973 0.09897455 0.09720442 0.09509858 0.09299274 0.09113105 0.08987975 0.08902521 0.08881158 0.08893365 0.0897882 0.09082586 0.09235182 0.09409144 0.09534273 0.09665507 0.09754013 0.09860831 0.09943233 0.09973753 0.1003479 0.1010804 0.102057 0.103644 0.1054752 0.1079473 0.110755 0.1137154 0.1172557 0.1207044 0.1240005 0.1268083 0.1293414 0.1311726 0.131905 0.1320576 0.1310505 0.1294635 0.1265946 0.1231459 0.1196057 0.115394 0.1111213 0.1069401 0.102881 0.09909663 0.09570897 0.09268754 0.09067326 0.08911677 0.08829274 0.08749924 0.08731612 0.08795702 0.08884209 0.09033754 0.09226027 0.09506806 0.09833364 0.1024843 0.1071232 0.1124947 0.1184765 0.1245804 0.1307453
