0.4993591 0.4992675 0.499176 0.4991454 0.4991454 0.4990844 0.4990234 0.4990539 0.4989318 0.4988708 0.4989013 0.4989013 0.4989318 0.4988708 0.4989013 0.4988403 0.4987792 0.4987792 0.4988098 0.4987792 0.4987487 0.4987487 0.4986877 0.4986571 0.4985045 0.498474 0.498413 0.4983214 0.4981993 0.4981688 0.4980773 0.4978942 0.4977416 0.4971922 0.4960935 0.4943234 0.4916377 0.4883721 0.4841909 0.4807728 0.4775987 0.4762253 0.4752792 0.474913 0.4742416 0.4736617 0.4729903 0.4716169 0.4698163 0.4673442 0.4649332 0.4624611 0.4598364 0.4574559 0.455228 0.4539767 0.4525118 0.4507416 0.449002 0.4465604 0.4437527 0.4405176 0.437191 0.4343527 0.4314839 0.4280352 0.4242202 0.4204663 0.4169566 0.4143319 0.4113715 0.4084722 0.4055729 0.4025209 0.399469 0.3966001 0.3936092 0.3903131 0.3870781 0.3835989 0.379143 0.3749313 0.3709333 0.3678813 0.3652567 0.3628151 0.3601294 0.3576268 0.3543918 0.3512482 0.3486846 0.3465788 0.3448697 0.3439541 0.3434658 0.3433132 0.3431301 0.3430385 0.343008 0.3433437 0.3443814 0.3457853 0.347647 0.3496002 0.3515229 0.3530489 0.3527437 0.3522859 0.3527132 0.3534762 0.3546969 0.3560703 0.3574437 0.3589697 0.3590002 0.358695 0.3586645 0.3588171 0.3591528 0.3592138 0.3590612 0.3594885 0.3606482 0.3608924 0.3619911 0.3628761 0.3640664 0.3639443 0.3632119 0.3620216 0.3615333 0.3613807 0.3613502 0.3614112 0.3613197 0.3609839 0.3606482 0.3597937 0.3590612 0.3583898 0.3580846 0.3570774 0.3563755 0.354819 0.3530184 0.3509431 0.3499054 0.3492034 0.3488372 0.3489593 0.3492034 0.3496307 0.3496002 0.34841 0.3474638 0.3463041 0.3461515 0.3462736 0.3464262 0.3459378 0.3449612 0.3432522 0.341482 0.3396509 0.3386132 0.338247 0.3384606 0.3389184 0.3394372 0.339956 0.340719 0.3413599 0.3432522 0.3452664 0.347769 0.3496612 0.3511872 0.3523775 0.3536288 0.354819 0.3568333 0.3590307 0.3614722 0.3639138 0.3660197 0.3681865 0.3699567 0.3716352 0.3725508 0.3738632 0.3747787 0.3756638 0.3763963 0.3769151 0.3774034 0.3780138 0.3784411 0.3789294 0.3793261 0.3797229 0.379906 0.3801807 0.3811268 0.3821339 0.3834768 0.3831411 0.3838735 0.3836294 0.3834462 0.3836904 0.384667 0.3858573 0.3873833 0.3877495 0.3897943 0.3912897 0.3930294 0.3940365 0.3949826 0.3961118 0.3967222 0.3973021 0.3975767 0.3983092 0.3994995 0.4015748 0.4032534 0.4054508 0.4070683 0.4090521 0.4106696 0.4131417 0.4158274 0.419215 0.4232131 0.4276689 0.4318196 0.435604 0.4384118 0.4410975 0.4433559 0.4455838 0.4477202 0.4498565 0.4521455 0.4541903 0.4562351 0.4583105 0.4602637 0.4621559 0.4641091 0.4661539 0.4681682 0.470152 0.4718 0.4736617 0.4752182 0.4766526 0.4778734 0.4789721 0.4799182 0.4808643 0.4815968 0.4822377 0.4827565 0.4832143 0.483611 0.4839163 0.4843435 0.4846182 0.4849234 0.4851676 0.4852591 0.4854727 0.4853812 0.4853507 0.4852896 0.4853202 0.4851676 0.4850149 0.4849844 0.4849539 0.4847098 0.4845572 0.4844351 0.4841909 0.4842825 0.4839163 0.4837331 0.48355 0.4831838 0.4828481 0.4821461 0.4815357 0.480376 0.4785753 0.4761643 0.4724104 0.4674663 0.4616981 0.4555332 0.4499786 0.4456144 0.4424098 0.4395105 0.4360618 0.4323079 0.4280962 0.4235793 0.4190624 0.4155222 0.4125313 0.4106391 0.4075871 0.4054202 0.4021242 0.3998352 0.3972411 0.3958677 0.3953183 0.3953794 0.3950131 0.394006 0.3931209 0.3926936 0.3918391 0.3909235 0.3885735 0.3866508 0.3838735 0.3816456 0.3788378 0.376732 0.3755722 0.3751144 0.3749313 0.3750229 0.3749313 0.3750229 0.3738021 0.3726119 0.370445 0.3683696 0.3670878 0.366508 0.3656229 0.3645242 0.3627236 0.3608008 0.3585729 0.357108 0.3561924 0.3560703 0.3558567 0.3556736 0.3549411 0.3540865 0.3530489 0.3517671 0.3498443 0.3475554 0.3451444 0.3434047 0.342184 0.3410547 0.3398645 0.3385521 0.3372398 0.3357444 0.3341879 0.3328755 0.3313801 0.3305561 0.3293048 0.3286028 0.3268632 0.3250321 0.323323 0.3221022 0.3214613 0.321095 0.3210035 0.3208814 0.3208204 0.3208509 0.3214918 0.3225294 0.3239333 0.3252152 0.3260697 0.3270158 0.3286944 0.3311054 0.3333639 0.3347372 0.3356223 0.3362021 0.3372703 0.3384301 0.3398035 0.340658 0.3409327 0.3410547 0.3418177 0.3428249 0.3445645 0.3465483 0.349356 0.3517976 0.3553073 0.3581456 0.361106 0.3631203 0.3646768 0.3654398 0.3662943 0.3674235 0.3691632 0.3710248 0.3729476 0.3740157 0.3762742 0.3785021 0.381493 0.3834157 0.3868644 0.3889092 0.3926936 0.3946164 0.3976073 0.3982482 0.3996215 0.400232 0.4008729 0.4019105 0.4040163 0.4065495 0.4099982 0.412043 0.4150949 0.4165904 0.4200696 0.4231215 0.4263871 0.4282488 0.4299273 0.4308735 0.4318501 0.4328572 0.434139 0.4360007 0.4393884 0.4436916 0.4495819 0.4555637 0.4619117 0.4672832 0.4730208 0.4783312 0.4840994 0.4895929 0.4939572 0.4967954 0.4982299 0.4988403 0.4990844 0.4992675 0.4992675 0.4994201 0.4994812 0.4995117 0.4996032 0.4996032 0.4996948 0.4997253 0.4997558 0.4998169 0.4998474 0.4998474 0.4998169 0.4998474 0.4999084 0.499939 0.499939 0.5 0.5 0.5 0.5 0.5 0.5 0.5 0.5 0.5 0.5 0.5 0.5 0.5 0.5 0.5 0.5 0.5 0.5 0.5 0.5 0.5 0.5 0.5 0.5 0.5 0.5 0.5 0.5 0.5
0.499176 0.4991454 0.4990234 0.4989929 0.4989929 0.4988708 0.4988098 0.4988098 0.4987487 0.4987182 0.4986877 0.4986877 0.4985656 0.4985351 0.4985961 0.498474 0.4985351 0.4985045 0.4985351 0.498474 0.4983825 0.498352 0.4981993 0.4981078 0.4980468 0.4979857 0.4978942 0.4978026 0.4978026 0.4976805 0.4975584 0.4971922 0.4967039 0.4953 0.4934078 0.4912104 0.4880974 0.4847708 0.4809254 0.4779344 0.4758591 0.4747299 0.4742111 0.4737228 0.4729903 0.4723494 0.4714643 0.4698468 0.4678325 0.465391 0.4629189 0.4602942 0.457578 0.4552585 0.4533663 0.4516877 0.4501923 0.4484527 0.4465604 0.4437832 0.4406092 0.437191 0.4341696 0.4313007 0.4280962 0.4243728 0.4200085 0.4165904 0.4129586 0.4103339 0.4071599 0.4041384 0.4010865 0.397882 0.3946469 0.3914118 0.3881463 0.3849112 0.3813709 0.3774644 0.3729171 0.3685223 0.3646768 0.3615943 0.3590002 0.356406 0.3533541 0.3502411 0.3468534 0.3435268 0.3403833 0.3379723 0.3366294 0.3360801 0.335958 0.335897 0.3360801 0.3361411 0.3362327 0.3365379 0.3373314 0.3385216 0.3402002 0.342245 0.344534 0.3463956 0.3464872 0.3465788 0.346945 0.3478301 0.3494476 0.3510041 0.3525911 0.3540255 0.3543612 0.3543307 0.3544223 0.3548801 0.3553379 0.3554599 0.3555515 0.355582 0.3565586 0.357169 0.3581456 0.3591222 0.3607398 0.3611366 0.361106 0.3597937 0.3592749 0.3590002 0.3591222 0.3589697 0.3593359 0.3592749 0.3590612 0.3583288 0.357993 0.3572606 0.3571995 0.3565891 0.3561313 0.3546969 0.3532931 0.3509736 0.3496917 0.3486236 0.348532 0.348471 0.3487762 0.3494781 0.3499664 0.349295 0.3483794 0.3470671 0.3470061 0.3469755 0.3471586 0.3470366 0.3466093 0.3454801 0.3440762 0.3421535 0.3408411 0.3400171 0.3400171 0.3401392 0.340658 0.341421 0.3420924 0.3428859 0.3445645 0.3465177 0.3491119 0.3512177 0.3528353 0.3541171 0.3553684 0.3567418 0.3585119 0.3608314 0.3635476 0.3663554 0.3686748 0.3709638 0.3727644 0.3744125 0.375267 0.3764878 0.3774339 0.3783495 0.3793261 0.3800891 0.3808216 0.3814625 0.3820423 0.3825612 0.383019 0.3834462 0.3838125 0.3842703 0.3853079 0.3867118 0.3882683 0.3881157 0.3887872 0.388543 0.3882683 0.3883904 0.3892755 0.3902216 0.3917781 0.3922969 0.3940975 0.3957456 0.3974547 0.3988891 0.400354 0.401819 0.4030397 0.4039248 0.4047793 0.4063663 0.4085027 0.4110664 0.4133858 0.4158884 0.4187878 0.4220839 0.4258378 0.4300189 0.4346884 0.4396631 0.4446988 0.4492157 0.452939 0.4558689 0.4579442 0.4597449 0.4611182 0.4626747 0.4641702 0.4658793 0.4672526 0.4688091 0.4703656 0.4719832 0.4734786 0.4748214 0.4761948 0.4773241 0.4785753 0.4797656 0.4809864 0.481963 0.4828481 0.4836721 0.4844046 0.485076 0.4855948 0.485961 0.4863883 0.4865104 0.4868461 0.4870903 0.4873649 0.4875481 0.4876702 0.4879143 0.4880669 0.4882195 0.4883111 0.4885857 0.4885552 0.4887688 0.4886163 0.4886468 0.4886468 0.4884636 0.4884331 0.4882195 0.4881279 0.4876091 0.4874565 0.4870292 0.4868766 0.4865104 0.4860526 0.4857169 0.4854117 0.4849844 0.4846793 0.4840078 0.4834279 0.4827565 0.4814747 0.479674 0.4767442 0.4728987 0.4676189 0.4618202 0.4562351 0.4517793 0.4477812 0.44418 0.4401514 0.4360618 0.4313312 0.4264787 0.4222365 0.4187573 0.4164988 0.4135079 0.4110969 0.4075871 0.4052982 0.4025514 0.4008729 0.3998047 0.4000488 0.3993469 0.3985534 0.3976073 0.3969664 0.3960203 0.3949826 0.3926021 0.3906183 0.3874138 0.3851553 0.3820729 0.379845 0.3786547 0.3780138 0.378319 0.3783495 0.3784716 0.3785326 0.3773729 0.375969 0.3741683 0.3721541 0.3709333 0.3701093 0.3693463 0.3680034 0.3659891 0.3640969 0.3620216 0.3607398 0.3598547 0.3593054 0.3588476 0.3582067 0.3573521 0.3564366 0.3551852 0.353995 0.3517671 0.349356 0.3474638 0.346182 0.345419 0.3443203 0.3429164 0.3412989 0.3396204 0.3378502 0.3362327 0.3348898 0.3334554 0.3322651 0.3308918 0.3294574 0.3274431 0.3256424 0.3240554 0.3231704 0.322621 0.3222548 0.3218885 0.3217359 0.3215528 0.3215834 0.3224379 0.3236282 0.32491 0.325673 0.3261918 0.32726 0.3289385 0.3313496 0.3330281 0.3335775 0.3339742 0.334371 0.3352255 0.3364463 0.3374229 0.3379723 0.3377587 0.3378197 0.3385216 0.3400171 0.3421229 0.3446561 0.3475249 0.3503632 0.3536593 0.3565586 0.3592443 0.3608619 0.3617469 0.3621742 0.3628456 0.3638528 0.3657145 0.367332 0.3690716 0.3702313 0.3725508 0.3747787 0.3779222 0.379906 0.3831716 0.3851859 0.3885735 0.3904657 0.393304 0.3938228 0.3951657 0.3957151 0.3963255 0.3972716 0.3992248 0.4018495 0.4053592 0.4075261 0.4106086 0.412104 0.4155222 0.4184215 0.4220533 0.423854 0.4258072 0.4266618 0.427791 0.4287981 0.4300494 0.431667 0.4344748 0.4380455 0.4433254 0.448941 0.4552585 0.4604773 0.465452 0.4700299 0.4758897 0.4820546 0.4882805 0.4931636 0.4965208 0.4981688 0.4988098 0.4990539 0.499176 0.499237 0.4993591 0.4993591 0.4994507 0.4995727 0.4995727 0.4996032 0.4996643 0.4997253 0.4997558 0.4998169 0.4998169 0.4998169 0.4998169 0.4998474 0.4999084 0.4999695 0.4999695 0.4999695 0.5 0.5 0.5 0.5 0.5 0.5 0.5 0.5 0.5 0.5 0.5 0.5 0.5 0.5 0.5 0.5 0.5 0.5 0.5 0.5 0.5 0.5 0.5 0.5 0.5 0.5
0.4989929 0.4988403 0.4987792 0.4987792 0.4987487 0.4986877 0.4986266 0.4985656 0.4985045 0.498474 0.498474 0.498413 0.4983825 0.498413 0.4983214 0.4982299 0.4981993 0.4981383 0.4981383 0.4980162 0.4978942 0.4978942 0.4978331 0.4977416 0.4976805 0.497589 0.4975279 0.4974364 0.4973753 0.4972227 0.4969481 0.4963682 0.4951779 0.4930111 0.4907526 0.4879143 0.4849844 0.4816883 0.4785448 0.4762864 0.4747299 0.4739669 0.4734176 0.4729292 0.4722273 0.4713117 0.4703351 0.4683513 0.4660929 0.4636514 0.4611793 0.4585546 0.4557163 0.4532137 0.4512299 0.4496734 0.4480864 0.4462858 0.4441189 0.4411585 0.4378319 0.434078 0.4309956 0.4280657 0.4243118 0.4204663 0.4161021 0.4127449 0.4094488 0.4063053 0.4030702 0.3997436 0.396417 0.3929988 0.3895807 0.3864066 0.3828969 0.3794177 0.3754502 0.3712995 0.3666911 0.3622047 0.3584508 0.3553073 0.352469 0.3497528 0.3464567 0.3432522 0.3397424 0.3357139 0.3324788 0.3298541 0.3283892 0.3278703 0.3279314 0.3283281 0.3287249 0.3290606 0.3293963 0.3297931 0.3306781 0.3314411 0.3329976 0.3350424 0.3373009 0.3398645 0.3402307 0.3407801 0.3413599 0.3424281 0.3442593 0.3459684 0.3472807 0.3492034 0.3497833 0.3501801 0.3503937 0.3507904 0.3516145 0.3522554 0.3521333 0.3521028 0.3529573 0.3534456 0.3549716 0.3556736 0.3575963 0.3585119 0.3589086 0.3579625 0.3571995 0.3568943 0.3570774 0.3572911 0.3575352 0.3575658 0.3575658 0.3573827 0.3570774 0.3564976 0.3564671 0.3562534 0.3559788 0.3549106 0.3537508 0.3517365 0.350119 0.3488677 0.348532 0.3483489 0.348532 0.3494171 0.3503021 0.3504853 0.3498749 0.3487456 0.3484405 0.3482573 0.3482573 0.3482573 0.3480437 0.347647 0.3468229 0.3453885 0.3438931 0.3426113 0.3419398 0.3418483 0.3424281 0.3428859 0.3436794 0.344534 0.3460599 0.3480437 0.3505463 0.3528658 0.3546664 0.3559177 0.3572606 0.358695 0.3604956 0.362632 0.3654703 0.3683696 0.3711774 0.3737411 0.3759995 0.3778917 0.3785326 0.3796313 0.3804248 0.3813099 0.3821644 0.3831411 0.3839956 0.3848807 0.3855216 0.3859794 0.3864982 0.3869865 0.3871696 0.387841 0.3891534 0.3906488 0.3923885 0.3925411 0.3934566 0.393304 0.3932735 0.3936092 0.394769 0.3958372 0.3973326 0.3982482 0.4000793 0.4017274 0.4035891 0.4049625 0.4065495 0.4080755 0.4096319 0.4108222 0.4125313 0.4146371 0.4177196 0.4204053 0.4235793 0.4268144 0.4305988 0.4351462 0.4404261 0.4457975 0.4516877 0.4569371 0.4617897 0.4652384 0.467802 0.4695416 0.4708844 0.4721358 0.4728377 0.4737533 0.4745773 0.4754319 0.476378 0.4771715 0.4781481 0.4791247 0.4801318 0.4808948 0.481902 0.482726 0.4836721 0.4845266 0.485137 0.4858085 0.4863883 0.4869072 0.4873039 0.4876396 0.4881279 0.4884942 0.4887994 0.4890741 0.4893182 0.4896539 0.489837 0.4899896 0.4902643 0.4901727 0.490539 0.490539 0.4906611 0.490539 0.4905084 0.4905084 0.4903558 0.4902338 0.4901117 0.489776 0.4896539 0.4895318 0.4893182 0.4891046 0.4887688 0.4885552 0.488189 0.4879448 0.4876396 0.4872124 0.4869682 0.486663 0.4862357 0.4859 0.4854727 0.485137 0.4846487 0.4837331 0.4823903 0.4802539 0.4769578 0.472441 0.4671001 0.4620338 0.4571202 0.4526949 0.4486053 0.4440273 0.4392053 0.4337423 0.4289507 0.4247696 0.4217787 0.4185741 0.41598 0.4126534 0.4102423 0.4071293 0.4054813 0.4041384 0.404169 0.4035891 0.4028261 0.4016358 0.4008423 0.3998352 0.3989196 0.3963865 0.3942501 0.3910151 0.388604 0.385491 0.3834157 0.3822255 0.3817982 0.3820423 0.3824086 0.3824391 0.3827138 0.3814014 0.3799976 0.3777086 0.3756333 0.3744735 0.3736495 0.3725813 0.3711469 0.3691021 0.3670878 0.3653177 0.3640664 0.3632119 0.3624184 0.3616554 0.3606177 0.3597021 0.3585729 0.3573827 0.3561008 0.3538729 0.3520723 0.3502411 0.3494171 0.3486846 0.3474028 0.3457853 0.343832 0.3419703 0.3400171 0.338369 0.3369041 0.3354697 0.3340963 0.3324178 0.3305866 0.3285113 0.3263444 0.3251541 0.3244522 0.3238418 0.323445 0.3229872 0.3227126 0.3227126 0.3227431 0.3238723 0.32491 0.3256424 0.3257645 0.3263139 0.3276872 0.3297015 0.3318074 0.3325703 0.3323567 0.3320515 0.3323262 0.3333333 0.3346762 0.3351645 0.335195 0.3347983 0.3350119 0.3360801 0.3379418 0.3404749 0.3431606 0.3462431 0.3491729 0.3521333 0.3546664 0.3567723 0.357871 0.3584813 0.358756 0.35958 0.3606177 0.3623573 0.3638833 0.3655924 0.3666911 0.3688885 0.3711469 0.3738632 0.3757554 0.3786852 0.3806385 0.3839346 0.3857352 0.3885735 0.389306 0.390893 0.3915949 0.392419 0.3934566 0.3955625 0.3980651 0.4015748 0.4040163 0.4074345 0.4085943 0.4119819 0.4148508 0.4185436 0.4204053 0.4225722 0.4234267 0.4244644 0.4254105 0.4263261 0.4276079 0.4298053 0.4328877 0.4375877 0.4428371 0.4489715 0.4542513 0.4594091 0.4635903 0.4682903 0.4738448 0.4802845 0.4869987 0.4927974 0.4963987 0.4980162 0.4988708 0.4991149 0.499176 0.4992065 0.4992675 0.4993896 0.4994507 0.4995422 0.4995727 0.4995727 0.4996032 0.4997253 0.4998169 0.4998169 0.4998169 0.4998169 0.4998169 0.4998169 0.4998474 0.4999084 0.4999695 0.5 0.4999695 0.5 0.5 0.5 0.5 0.5 0.5 0.5 0.5 0.5 0.5 0.5 0.5 0.5 0.5 0.5 0.5 0.5 0.5 0.5 0.5 0.5 0.5 0.5 0.5
0.4987182 0.4986877 0.4986571 0.4986266 0.4985656 0.4985351 0.4984435 0.4983825 0.4982909 0.4983214 0.4981993 0.4981383 0.4981383 0.4979857 0.4979247 0.4979552 0.4978026 0.4977721 0.497711 0.497589 0.4976195 0.4976195 0.4974364 0.4973143 0.4972838 0.4972532 0.4970701 0.4970701 0.496887 0.4964598 0.4959714 0.494537 0.4926448 0.4902338 0.4877617 0.4852896 0.4826344 0.4795215 0.4766831 0.474913 0.4738753 0.4732039 0.4726851 0.4720442 0.4711286 0.4702741 0.4690533 0.4668254 0.4643838 0.4617286 0.4590429 0.4561741 0.4533052 0.4512604 0.4493988 0.4478423 0.4458585 0.4436916 0.4415247 0.4378929 0.4343832 0.4308124 0.4276384 0.4244949 0.4204969 0.4163462 0.4122566 0.4087774 0.4052982 0.401941 0.3985839 0.3952267 0.3915644 0.3881768 0.384606 0.3811573 0.377495 0.3738326 0.3697125 0.3651651 0.3601599 0.3558567 0.3518892 0.3488677 0.3460294 0.3429775 0.339834 0.3358665 0.3324178 0.3286333 0.3250321 0.3223463 0.3204541 0.3197522 0.3196912 0.3203321 0.321034 0.3215834 0.3224379 0.3231093 0.3237502 0.3249405 0.3261002 0.3278703 0.3299152 0.3327229 0.3339437 0.3349509 0.335897 0.3373314 0.3391015 0.3409632 0.3427333 0.344595 0.3453885 0.3459989 0.3463651 0.3472502 0.3479522 0.3488372 0.3489288 0.3488677 0.3495086 0.3501801 0.3515534 0.3525606 0.3546359 0.3559177 0.3568638 0.3563755 0.3556736 0.3550632 0.355521 0.355521 0.3560398 0.3563145 0.3563755 0.3564366 0.356345 0.3561619 0.3562534 0.3560703 0.3561008 0.355521 0.3545749 0.3528047 0.3509125 0.349356 0.3485931 0.3484405 0.3485931 0.3495086 0.3507599 0.3516145 0.3514314 0.3506073 0.3500275 0.3500885 0.350119 0.3500275 0.3498749 0.3497528 0.3493255 0.3485015 0.3471586 0.3458463 0.3448392 0.3443203 0.3444119 0.3449002 0.3455411 0.3464872 0.3478606 0.3496307 0.3521638 0.3545749 0.3566807 0.357932 0.3593969 0.3608008 0.3626015 0.3645242 0.3673625 0.3703534 0.3733443 0.375969 0.3786242 0.3809131 0.3817372 0.3831106 0.383843 0.3847891 0.385491 0.3864677 0.3872612 0.3881463 0.3888177 0.3894281 0.390069 0.3906183 0.3911066 0.3919612 0.3934261 0.3950436 0.3968443 0.3968443 0.3979125 0.3978209 0.3981566 0.3986754 0.3999878 0.4012086 0.4028871 0.4039858 0.4060307 0.4078618 0.4097845 0.4112495 0.4130196 0.4147897 0.4165293 0.4181468 0.4205579 0.4235488 0.4274553 0.4307209 0.4349936 0.438839 0.4440273 0.4488189 0.4547397 0.459989 0.4650857 0.4692669 0.4726851 0.4746078 0.4761033 0.4771715 0.4781176 0.4789721 0.4797046 0.480437 0.4811085 0.4818715 0.4826039 0.4833059 0.4839163 0.4846182 0.4851981 0.4858085 0.4865104 0.4869987 0.487426 0.4880669 0.4885552 0.4889825 0.4894097 0.4898065 0.4901422 0.4904779 0.4906916 0.4909662 0.4910883 0.4912409 0.4914545 0.4915766 0.4915461 0.4915766 0.4915766 0.4917597 0.4916377 0.4916682 0.4917292 0.4916987 0.4915461 0.4914851 0.491424 0.4912714 0.4911799 0.4909662 0.4907831 0.4906916 0.4904779 0.4901422 0.4900202 0.489776 0.4895929 0.4892266 0.4888604 0.4886773 0.4883416 0.4881279 0.4877922 0.4875175 0.4872124 0.4867546 0.4865104 0.4862052 0.4854727 0.4845572 0.4829091 0.480437 0.4767137 0.4719832 0.4672526 0.462339 0.4576695 0.4526949 0.4480559 0.4423793 0.4370384 0.4322468 0.428554 0.4251969 0.4224501 0.4188183 0.4163767 0.412867 0.4107611 0.40893 0.4084417 0.4077397 0.4070073 0.405756 0.4045657 0.403528 0.4026735 0.4004151 0.3980651 0.3947995 0.3923885 0.3893975 0.3870476 0.3859183 0.38543 0.3855216 0.3858573 0.3861625 0.3863456 0.3850027 0.3835683 0.3812794 0.3790514 0.3777391 0.3771898 0.375969 0.3745956 0.3723372 0.3702008 0.3684002 0.3667216 0.365745 0.364982 0.3640054 0.3628761 0.3617469 0.3608314 0.3597021 0.3585119 0.3567112 0.3550937 0.3537203 0.3531099 0.3521638 0.3504547 0.34841 0.3459989 0.3442288 0.3422145 0.340719 0.3390099 0.3375755 0.3355918 0.3336996 0.3314411 0.3293353 0.3276262 0.3265885 0.3257035 0.3250931 0.3246658 0.3240554 0.3238418 0.3238113 0.3242996 0.3252762 0.325734 0.3258866 0.3261002 0.3270769 0.3289385 0.3308002 0.3314717 0.3311359 0.330495 0.330434 0.331258 0.3322651 0.3330892 0.332784 0.3322957 0.3317768 0.3326924 0.334432 0.3368736 0.3394067 0.3422755 0.3451444 0.3479522 0.3505768 0.3526521 0.354056 0.3545443 0.3549716 0.3550937 0.3558262 0.3568638 0.3585119 0.3597327 0.3614722 0.362632 0.3647989 0.3669352 0.3696209 0.3714826 0.3744125 0.3762742 0.3797534 0.3818592 0.3847281 0.3855826 0.3874138 0.3883294 0.3895501 0.3907099 0.3927852 0.3954709 0.3991638 0.4016053 0.404993 0.4063969 0.4096625 0.4125313 0.4161936 0.4182995 0.4206189 0.4212599 0.4223891 0.4231521 0.4238845 0.4247696 0.4265397 0.4290118 0.4329183 0.437252 0.4429592 0.4480559 0.4534273 0.457578 0.4618507 0.466215 0.4719832 0.478789 0.4858695 0.4917292 0.4955442 0.4977721 0.4985961 0.4989623 0.4990539 0.499176 0.499237 0.4993896 0.4993896 0.4994812 0.4995422 0.4995422 0.4995727 0.4996643 0.4997558 0.4997558 0.4997864 0.4997864 0.4997864 0.4997864 0.4998169 0.4998779 0.4999695 0.4999695 0.5 0.5 0.5 0.5 0.5 0.5 0.5 0.5 0.5 0.5 0.5 0.5 0.5 0.5 0.5 0.5 0.5 0.5 0.5 0.5 0.5 0.5 0.5 0.5
0.4985351 0.4985045 0.498474 0.498352 0.4982604 0.4982299 0.4981993 0.4981078 0.4980162 0.4979247 0.4978331 0.4977416 0.4976805 0.4976195 0.4976195 0.4974974 0.4974364 0.4974059 0.4973448 0.4972532 0.4971922 0.4971312 0.4971007 0.4969481 0.4969175 0.4966123 0.4965818 0.4965208 0.4960935 0.4955136 0.4942929 0.492126 0.4898981 0.4875175 0.4855338 0.4832754 0.4806201 0.4775377 0.4752182 0.4736617 0.4728987 0.4722883 0.4718 0.4710371 0.470213 0.4691754 0.4676189 0.4651773 0.4623695 0.4595923 0.456815 0.4540072 0.4511079 0.4491851 0.4472624 0.4454923 0.4435085 0.441128 0.4384118 0.4348105 0.4310261 0.4274553 0.4242813 0.4210157 0.4166514 0.412165 0.4079534 0.4043826 0.4010254 0.3975462 0.3941281 0.3904657 0.3868644 0.38308 0.3794787 0.3757554 0.372093 0.368095 0.3636086 0.3588171 0.3536898 0.349356 0.3455411 0.342245 0.3391015 0.3363242 0.3326314 0.3288164 0.3252152 0.3212476 0.3177684 0.3148996 0.3127632 0.3120308 0.3118477 0.3123665 0.3130684 0.3142587 0.3150827 0.3162119 0.3172496 0.3184093 0.3195691 0.3212171 0.3232009 0.3258866 0.3270769 0.328908 0.3300983 0.3318989 0.3340963 0.3361106 0.3381554 0.3401086 0.341421 0.342306 0.3427028 0.3434658 0.3444119 0.3456022 0.3459073 0.3459378 0.3463651 0.3471892 0.3486541 0.3498138 0.3517976 0.3532931 0.354819 0.354758 0.3542391 0.3536898 0.3538424 0.3541476 0.3545443 0.3550632 0.3552463 0.3554294 0.3556736 0.3559788 0.3561619 0.356284 0.356284 0.356284 0.3554599 0.3542697 0.3522554 0.3507294 0.3494476 0.3490814 0.3487151 0.3499054 0.3510651 0.3526216 0.3531404 0.3527742 0.3523164 0.3523164 0.3522249 0.3522249 0.3520112 0.3517976 0.351584 0.3512177 0.3507904 0.3496307 0.34841 0.3474638 0.3470976 0.3472502 0.3476164 0.3485625 0.3497833 0.3514924 0.354056 0.3565891 0.3589391 0.3600989 0.3617469 0.3630593 0.3645853 0.3664469 0.3693463 0.3723677 0.3752976 0.3781053 0.3812489 0.3838125 0.3849112 0.3864677 0.3874138 0.3881768 0.3890313 0.3897943 0.3907099 0.3912897 0.3921138 0.3926631 0.3933956 0.3939755 0.3946164 0.3954099 0.3969359 0.3986144 0.4005371 0.4006592 0.4016358 0.4017579 0.4024904 0.4033449 0.405054 0.4063969 0.4084417 0.4098456 0.4122871 0.4143625 0.4164378 0.4179332 0.4200391 0.4216566 0.4240371 0.4260514 0.4294696 0.4325215 0.4367942 0.4402735 0.4451261 0.4496734 0.4552585 0.4604163 0.4657877 0.4702741 0.47415 0.4769273 0.478789 0.4797961 0.4807422 0.4814137 0.4819935 0.4825429 0.4830617 0.4836416 0.4841909 0.4846793 0.4851676 0.4857474 0.4862968 0.4867546 0.4873344 0.4877617 0.4883111 0.4886773 0.4891351 0.4894403 0.4898065 0.4902338 0.4906 0.4908442 0.4910883 0.491424 0.4916072 0.4917903 0.4919734 0.4920955 0.4922481 0.4923701 0.4924922 0.4925227 0.4925227 0.4927669 0.4925533 0.4926143 0.4926448 0.4927059 0.4925533 0.4924922 0.4924617 0.4923396 0.4921565 0.4920344 0.4918818 0.4917292 0.4915766 0.4911799 0.4911188 0.4908747 0.4906916 0.4903558 0.4901727 0.489837 0.4895929 0.4894097 0.4891656 0.4888909 0.4887078 0.4883416 0.488189 0.4878227 0.487487 0.4870292 0.4864188 0.485137 0.4832143 0.4802234 0.4763474 0.4719526 0.4671306 0.4619423 0.4567539 0.4510163 0.4453092 0.4395105 0.4347799 0.4308124 0.427791 0.4240371 0.4210767 0.4176585 0.415217 0.4130501 0.4122871 0.4113105 0.4108832 0.4095099 0.4084111 0.4070683 0.4063969 0.4045657 0.4021852 0.3989806 0.396417 0.3933651 0.3911066 0.3900385 0.3894586 0.3896112 0.3898553 0.3899469 0.3900995 0.388604 0.3871696 0.3848196 0.3825001 0.3814014 0.380669 0.3793261 0.3777391 0.375267 0.3727339 0.3708723 0.3690106 0.3679424 0.3670268 0.3660197 0.365043 0.3640054 0.3632119 0.3623878 0.3615028 0.3600378 0.3586339 0.3577489 0.3566502 0.3552158 0.3531404 0.3510041 0.348471 0.3466093 0.3448697 0.343008 0.3410242 0.3392846 0.3369957 0.3349814 0.3325398 0.3305561 0.3290911 0.3282061 0.327382 0.326558 0.3258866 0.3253677 0.3250626 0.3253983 0.3260087 0.3267411 0.3268022 0.3266191 0.3268632 0.3286333 0.3300678 0.3311664 0.3307697 0.3298541 0.3292132 0.3292132 0.3305255 0.3310444 0.3310444 0.3301898 0.3298236 0.3299152 0.331197 0.3331197 0.3360801 0.3384606 0.3413905 0.3437405 0.3463041 0.3481963 0.3498443 0.3506073 0.3510651 0.3512177 0.3513093 0.3521028 0.3533236 0.3549716 0.3558872 0.3571995 0.3583593 0.3604956 0.3623878 0.3651346 0.3671489 0.3703534 0.3727034 0.3762742 0.3788378 0.3818287 0.3831106 0.3847891 0.386132 0.3873527 0.3888177 0.3911066 0.3938534 0.3974852 0.3998962 0.4034365 0.4049319 0.4082586 0.4108832 0.4146371 0.4168651 0.4194592 0.4201001 0.4212293 0.4219923 0.4226332 0.4233657 0.4247085 0.4266618 0.4296832 0.4333761 0.4384423 0.4432033 0.4483916 0.4523897 0.4561741 0.4597449 0.4641091 0.470091 0.4771409 0.4845266 0.4909357 0.4953915 0.49765 0.4985045 0.4989318 0.4989929 0.499176 0.4992065 0.4993286 0.4994201 0.4995117 0.4995422 0.4995117 0.4995727 0.4996643 0.4997253 0.4997558 0.4997864 0.4997864 0.4997864 0.4997864 0.4998169 0.4999084 0.5 0.5 0.5 0.5 0.5 0.5 0.5 0.5 0.5 0.5 0.5 0.5 0.5 0.5 0.5 0.5 0.5 0.5 0.5 0.5 0.5 0.5 0.5 0.5 0.5
0.4983214 0.4982299 0.4981383 0.4981078 0.4979857 0.4978942 0.4978637 0.497711 0.497589 0.4975584 0.4975279 0.4974669 0.4973448 0.4972532 0.4971007 0.4971007 0.4970091 0.4970396 0.496826 0.496887 0.4967344 0.4967039 0.4965208 0.4964903 0.4963377 0.4961545 0.4960325 0.4957578 0.4951474 0.4942013 0.492065 0.4895318 0.4871513 0.4853507 0.4838857 0.4815052 0.4788195 0.4758897 0.4739364 0.4725935 0.4719832 0.4712202 0.4705793 0.4698468 0.4689922 0.467741 0.4659403 0.4631936 0.4604773 0.4577 0.4545871 0.4515962 0.4487579 0.4467131 0.4449124 0.4430202 0.441067 0.4386254 0.4355429 0.4315754 0.427791 0.4242813 0.4207715 0.4172618 0.4126228 0.4081975 0.4039248 0.400293 0.3967527 0.3930294 0.3893365 0.3856437 0.3817067 0.3780138 0.3742294 0.3701398 0.3662638 0.3622963 0.3574132 0.3522859 0.3471586 0.3426723 0.3389489 0.3357749 0.3324483 0.3296405 0.3256424 0.3217665 0.3180431 0.3138925 0.3103522 0.3078191 0.3057743 0.3047061 0.3042788 0.3043704 0.3049808 0.3063541 0.3078191 0.3093756 0.3107795 0.3119087 0.3133126 0.3149911 0.3167002 0.3192639 0.3208204 0.3227126 0.3247574 0.3266801 0.328908 0.3314411 0.333669 0.335897 0.3374229 0.3388268 0.3394372 0.3400476 0.3410547 0.3423976 0.3430385 0.3433742 0.3437405 0.344534 0.3460294 0.3473112 0.349234 0.3509125 0.3528658 0.3532931 0.353171 0.3526216 0.3527132 0.3530184 0.3534762 0.353934 0.3544223 0.3546969 0.3552463 0.3558262 0.3563145 0.3567418 0.3570774 0.3574132 0.3566807 0.3559177 0.3539645 0.352469 0.350821 0.3500885 0.3495697 0.3505768 0.351584 0.3533846 0.3543612 0.3548801 0.354758 0.3548801 0.3550937 0.3550937 0.3545749 0.354056 0.3538729 0.3538424 0.3538729 0.3532625 0.3525606 0.3514924 0.3506073 0.3501495 0.3502106 0.350882 0.3519807 0.3535372 0.3560703 0.358695 0.3610755 0.3623878 0.3640054 0.3652261 0.3668437 0.3687359 0.3713911 0.3745041 0.3774034 0.3801196 0.3832631 0.3860709 0.3875054 0.389306 0.3904657 0.3915949 0.39248 0.3934261 0.3942806 0.3950131 0.3957456 0.396417 0.3970274 0.3974547 0.3980956 0.3988281 0.4004761 0.4023378 0.4041384 0.4043826 0.4053592 0.4056034 0.4064274 0.4074345 0.4092657 0.4107917 0.4129891 0.4147287 0.4171397 0.4191845 0.4215955 0.4234267 0.4258683 0.4279436 0.4308429 0.4337118 0.4374962 0.4411585 0.4454312 0.4493988 0.4543429 0.4593481 0.4645669 0.46945 0.4736922 0.4770494 0.4791552 0.4806812 0.4815052 0.4821156 0.4826344 0.4830617 0.4836721 0.4840994 0.4845266 0.485076 0.4855338 0.4860831 0.4864494 0.4869682 0.487487 0.4880058 0.4884026 0.4888604 0.4892877 0.4898065 0.4902033 0.490539 0.4908136 0.4912104 0.4915156 0.4918208 0.4920039 0.492187 0.4923701 0.4926753 0.4928279 0.49295 0.4930721 0.4932552 0.4933773 0.4933162 0.4934383 0.4934383 0.4936214 0.4933773 0.4934994 0.4934689 0.4934689 0.4933468 0.4934078 0.4933468 0.4931331 0.49295 0.4928279 0.4927364 0.4924922 0.4923091 0.4920344 0.4919123 0.4918208 0.4915766 0.491363 0.4909968 0.4908747 0.4905695 0.4903253 0.4902033 0.4898065 0.4896844 0.4894403 0.4891961 0.489013 0.4887688 0.4884636 0.4880058 0.4871818 0.4856864 0.4833669 0.4800403 0.4761033 0.4713728 0.4661234 0.4604163 0.4544345 0.4479643 0.4424098 0.4377708 0.4341085 0.4305683 0.4273027 0.4236404 0.4209241 0.4181774 0.4169871 0.4158579 0.4154612 0.4140573 0.4127754 0.411402 0.4108222 0.4088079 0.4067631 0.4033754 0.4007813 0.3973936 0.3949826 0.3937618 0.3930599 0.3931514 0.3932735 0.393243 0.3933956 0.3917781 0.3903742 0.3879021 0.3857047 0.3847586 0.383904 0.3822865 0.3804248 0.3777391 0.3747482 0.3727644 0.3710859 0.3699872 0.3690716 0.3682781 0.3675151 0.3670573 0.3664469 0.3657755 0.3648599 0.3634865 0.3622963 0.3613502 0.3598242 0.3580846 0.3553989 0.3532625 0.3509125 0.349356 0.3472807 0.3452359 0.343069 0.3408716 0.3385216 0.3361411 0.3337301 0.332082 0.3307392 0.3298541 0.3291216 0.3282976 0.3275652 0.3270769 0.3270158 0.3274736 0.3278703 0.328023 0.3275957 0.3276262 0.3283587 0.3300678 0.3312275 0.3309833 0.3297931 0.3284808 0.3282061 0.3285418 0.3295794 0.32961 0.3291522 0.328084 0.3279314 0.3286639 0.3306476 0.3326619 0.3353476 0.3377281 0.3401697 0.3420314 0.3442898 0.3456937 0.3471586 0.347647 0.3477385 0.3476775 0.3476164 0.3483184 0.3493866 0.3507904 0.3515534 0.3527132 0.3539645 0.3561619 0.3583898 0.3614112 0.3638223 0.3671794 0.3699567 0.3737716 0.3765183 0.3795703 0.3809742 0.3827443 0.3841177 0.38543 0.386956 0.3892449 0.3919612 0.3956845 0.3980651 0.4015138 0.402643 0.4058475 0.4086248 0.412165 0.414393 0.4171702 0.4180553 0.4192761 0.4200085 0.420741 0.4215345 0.4227553 0.4245254 0.4272417 0.4306293 0.434902 0.4392663 0.4439968 0.4480254 0.4516267 0.4547091 0.4579747 0.4624 0.4682598 0.4758286 0.4839163 0.4908136 0.4952695 0.4974669 0.4985045 0.4988403 0.4989929 0.4991149 0.499176 0.4992675 0.4993896 0.4994507 0.4995117 0.4995117 0.4996032 0.4996032 0.4997253 0.4997558 0.4997864 0.4997864 0.4997864 0.4997864 0.4998169 0.499939 0.4999695 0.5 0.4999695 0.5 0.5 0.5 0.5 0.5 0.5 0.5 0.5 0.5 0.5 0.5 0.5 0.5 0.5 0.5 0.5 0.5 0.5 0.5 0.5 0.5
0.4980773 0.4979247 0.4978331 0.4977416 0.49765 0.4975279 0.4974059 0.4973448 0.4972532 0.4971312 0.4971312 0.4969786 0.4968565 0.496826 0.4967344 0.4966123 0.4965818 0.4965208 0.4963682 0.4962766 0.4961545 0.4960935 0.4959104 0.4959409 0.4957273 0.4955747 0.4952084 0.4948727 0.4935909 0.4919429 0.4894403 0.4872124 0.4851981 0.4839163 0.4823292 0.4797046 0.4769883 0.47415 0.4725935 0.4715254 0.4706708 0.470152 0.469389 0.468626 0.4675578 0.4660013 0.4640786 0.4613014 0.4583715 0.4556247 0.4523591 0.4493377 0.4467131 0.4445156 0.4426234 0.4407313 0.4384118 0.4355735 0.4323689 0.4282488 0.4242508 0.4206189 0.4170787 0.4133553 0.4086248 0.404169 0.3998352 0.3961118 0.3922053 0.3885735 0.3845144 0.3805469 0.3767014 0.3726424 0.3685528 0.3645853 0.3604041 0.3563755 0.3511262 0.3458158 0.3405054 0.3361716 0.3325703 0.3291216 0.3259782 0.3228346 0.318745 0.3146249 0.3108405 0.3067814 0.3032717 0.3007081 0.2987853 0.2978697 0.2973204 0.2973204 0.2977172 0.2986633 0.3001587 0.302173 0.3039431 0.3057743 0.3074529 0.3090399 0.3110541 0.3132821 0.3147775 0.3166087 0.3189282 0.3214613 0.3243301 0.3268327 0.3291827 0.3317463 0.3336996 0.3354392 0.3359275 0.3369346 0.3377892 0.3395898 0.3405054 0.3412989 0.3416346 0.3423671 0.3435268 0.3449917 0.346945 0.3487762 0.3510041 0.352347 0.3525301 0.3519197 0.3517671 0.3521028 0.3527132 0.353232 0.3538119 0.3543307 0.354819 0.3558567 0.356406 0.3575658 0.357932 0.3586645 0.3582677 0.3579625 0.356345 0.3545443 0.3527742 0.351645 0.3507599 0.3514009 0.3524385 0.3542697 0.3557346 0.3567112 0.3569859 0.3574742 0.3577794 0.3579015 0.3576573 0.3569554 0.3568028 0.3566807 0.3567418 0.3566502 0.356345 0.3556125 0.354819 0.3540255 0.3538119 0.3538729 0.3546664 0.3559482 0.3583593 0.3610145 0.363456 0.3647684 0.3664774 0.3676982 0.3691326 0.3709028 0.373619 0.3766404 0.3795703 0.3822255 0.3855216 0.3882378 0.3896417 0.3918086 0.3929683 0.3941586 0.3953794 0.3963865 0.3974242 0.3981871 0.3990417 0.3997131 0.400354 0.4008118 0.4015443 0.4024293 0.4041079 0.4060917 0.4078923 0.4082891 0.4092047 0.4096625 0.4107306 0.412165 0.4142404 0.4162241 0.4185741 0.420741 0.4233046 0.425502 0.4281267 0.4303241 0.4327962 0.4353598 0.4385644 0.4418299 0.4454618 0.4490631 0.4530611 0.4574559 0.462339 0.4675578 0.4721052 0.4761033 0.4788806 0.4808948 0.482024 0.4828176 0.4833364 0.4836416 0.4840994 0.4845266 0.4850455 0.4855338 0.4859305 0.4863883 0.4868156 0.487426 0.4877312 0.488189 0.4886468 0.4891656 0.4895929 0.4899896 0.4903864 0.4907831 0.4911494 0.4915156 0.4918513 0.4920344 0.4923396 0.4926143 0.4928584 0.4929805 0.4932247 0.4933773 0.4934689 0.4936825 0.4938045 0.4940487 0.4940792 0.4941097 0.4942623 0.4942623 0.4942929 0.4942623 0.4941708 0.4942318 0.4942623 0.4941097 0.4942318 0.4941097 0.4940182 0.4938961 0.4937435 0.4935909 0.4934689 0.4932247 0.4931942 0.49295 0.4927364 0.4925533 0.4923701 0.4922175 0.4918513 0.4917903 0.4914851 0.491363 0.4911799 0.4908442 0.4907221 0.4904169 0.4903558 0.4901422 0.4898675 0.4895624 0.4892877 0.4885247 0.4876091 0.4856864 0.4832448 0.4797351 0.4753708 0.4702435 0.4639871 0.4573644 0.4504364 0.4447903 0.4400293 0.4360007 0.4325215 0.4286456 0.425502 0.4225111 0.420741 0.4194592 0.4189709 0.4175975 0.4164073 0.4151559 0.4144845 0.4128059 0.4108832 0.4076177 0.4047793 0.4013306 0.3989501 0.3974242 0.3968443 0.3968138 0.3968748 0.3969969 0.3970579 0.3954404 0.3938534 0.3912592 0.3889092 0.3875664 0.3865898 0.3845755 0.3824696 0.3794482 0.3766099 0.3745346 0.3730086 0.3720015 0.3714826 0.3707502 0.370506 0.3702008 0.3701703 0.3697735 0.3687359 0.367393 0.3657755 0.3645853 0.3625099 0.3604041 0.3578404 0.3559482 0.3537508 0.3518892 0.3495086 0.3471892 0.3445645 0.3423366 0.3397424 0.3373314 0.335134 0.333608 0.3326009 0.3316242 0.3307392 0.3298846 0.3294269 0.3290301 0.3293353 0.3295489 0.329671 0.3290911 0.3286944 0.3293048 0.3303119 0.3315632 0.3315022 0.3299457 0.3287859 0.3278703 0.3281755 0.3284502 0.3284808 0.3278703 0.3270463 0.3264665 0.3269548 0.328145 0.330434 0.3324483 0.3349814 0.336782 0.3388574 0.3401086 0.3418788 0.3429164 0.3440762 0.3440151 0.3441067 0.3436489 0.343832 0.3444729 0.3454801 0.3465788 0.3472502 0.348532 0.349997 0.3526521 0.3553684 0.3584813 0.3613502 0.3649515 0.3678203 0.3717573 0.3745956 0.3776475 0.3789599 0.38073 0.3820118 0.383019 0.3843924 0.3865287 0.3891534 0.3926021 0.3949826 0.3984008 0.399591 0.4027651 0.4053897 0.4090216 0.411341 0.414393 0.4153391 0.4165598 0.4173839 0.4181468 0.4189709 0.4201611 0.4217787 0.4242813 0.4273942 0.4314839 0.4356345 0.4400903 0.4443325 0.4480559 0.4510468 0.4536105 0.4566014 0.4605994 0.4668864 0.4748214 0.4830007 0.4899286 0.4945981 0.4973143 0.4982604 0.4987792 0.4989318 0.4990234 0.4990844 0.499237 0.4993591 0.4994201 0.4994812 0.4995117 0.4995422 0.4996338 0.4996948 0.4997253 0.4997558 0.4997558 0.4997558 0.4997558 0.4998474 0.4998474 0.499939 0.5 0.5 0.5 0.5 0.5 0.5 0.5 0.5 0.5 0.5 0.5 0.5 0.5 0.5 0.5 0.5 0.5 0.5 0.5 0.5 0.5 0.5
0.4977416 0.497589 0.497589 0.4974364 0.4973143 0.4971617 0.4970701 0.4969786 0.496887 0.4966734 0.4966123 0.4964598 0.4964292 0.4962766 0.4962156 0.4961545 0.496002 0.4959104 0.4958188 0.4956968 0.4956357 0.4955136 0.4953915 0.4952695 0.4950864 0.4947812 0.4942929 0.4934994 0.4915461 0.4893792 0.486724 0.4850455 0.48355 0.4823903 0.4808338 0.4778429 0.474913 0.472441 0.4713422 0.4702741 0.4695721 0.4686871 0.467741 0.4666117 0.465452 0.4635903 0.4613319 0.458341 0.4551975 0.4522371 0.4488494 0.4459806 0.4433559 0.4412196 0.4391137 0.4371605 0.4350546 0.431789 0.4283403 0.4244644 0.4205274 0.4170482 0.4134164 0.408991 0.4043521 0.3996215 0.3952573 0.3915949 0.3876579 0.3837209 0.379906 0.3756638 0.3714216 0.3671794 0.3630287 0.358695 0.3544223 0.3502716 0.3449612 0.3395593 0.334371 0.3296405 0.3259476 0.322621 0.3191723 0.3160593 0.311695 0.3075749 0.3039736 0.2996399 0.2961912 0.2937496 0.2920405 0.2910639 0.290484 0.2902704 0.2905756 0.2913996 0.2929866 0.2948178 0.2971373 0.2993042 0.3016847 0.3036074 0.3055912 0.3079412 0.3093756 0.310871 0.3134957 0.3161509 0.3195691 0.32256 0.3251846 0.3277483 0.3299762 0.332021 0.3330587 0.3340048 0.335134 0.3370567 0.3383385 0.3394067 0.3398035 0.3405664 0.3416041 0.3432827 0.3451138 0.3470061 0.3494171 0.3512482 0.3519502 0.3519502 0.3513703 0.351645 0.3519502 0.3528047 0.3535372 0.3542086 0.3547885 0.3558567 0.3568638 0.3583898 0.3591528 0.3599158 0.3598242 0.3599463 0.3588781 0.3572606 0.3553989 0.353995 0.3526827 0.3528047 0.3535677 0.3554599 0.357169 0.3583593 0.3591222 0.3599463 0.3608619 0.3611366 0.3611671 0.3603125 0.3600073 0.359519 0.3597327 0.3597021 0.3598852 0.3597327 0.3592749 0.358695 0.3580846 0.3578099 0.3579015 0.358695 0.3608314 0.3634255 0.365745 0.3670878 0.3689801 0.3703534 0.3717878 0.3732527 0.3759385 0.3787768 0.3819508 0.3844229 0.3878716 0.3905573 0.3920527 0.3941281 0.3953794 0.3966306 0.3977904 0.3990417 0.4002625 0.4012696 0.4021547 0.4029482 0.4036501 0.40423 0.4051151 0.4060612 0.4078923 0.409754 0.4115547 0.4119819 0.4127754 0.4132943 0.414454 0.4161326 0.4182689 0.4204358 0.4227858 0.4252579 0.4278215 0.4300494 0.4327962 0.4350546 0.4378624 0.4408228 0.44418 0.4477812 0.4512604 0.4554416 0.4597449 0.4648416 0.4697857 0.4743331 0.4777818 0.4804676 0.4822682 0.4832754 0.4838247 0.4844046 0.4848318 0.4853202 0.4855643 0.4860526 0.4864188 0.4868461 0.4873344 0.4876702 0.488189 0.4885552 0.4889825 0.4893792 0.489776 0.4902338 0.4906 0.4909662 0.491363 0.4916377 0.4920039 0.4924312 0.4926753 0.49295 0.4931331 0.4934994 0.4934994 0.4938045 0.4939266 0.4941403 0.4942318 0.4943844 0.4944455 0.4946896 0.4947201 0.4948727 0.4949338 0.4949643 0.4948727 0.4949948 0.4949948 0.4949338 0.4949033 0.4947506 0.4948727 0.4948727 0.4948117 0.4946591 0.4945981 0.4945675 0.4942929 0.4941708 0.4938656 0.4938045 0.4936214 0.4934689 0.4933773 0.4930721 0.4931026 0.4927974 0.4925533 0.4923701 0.4922786 0.4922481 0.4919734 0.4918208 0.4916682 0.491424 0.4913325 0.4911188 0.4909662 0.490539 0.4901117 0.4892572 0.4879448 0.4859916 0.4827565 0.4785753 0.4731124 0.4667948 0.4595923 0.4532137 0.4472929 0.4430812 0.4386864 0.4352072 0.4315449 0.4282793 0.426143 0.4245559 0.4239761 0.4225722 0.4213209 0.419917 0.419093 0.4174449 0.4157358 0.4121956 0.4092657 0.4054813 0.4027345 0.4008423 0.4000488 0.3999878 0.3998962 0.3998962 0.3999268 0.3982177 0.3966612 0.3936397 0.3912287 0.3897638 0.3886346 0.3864066 0.3843008 0.3811573 0.3781664 0.3763047 0.3748703 0.3745346 0.3742599 0.3741378 0.3740768 0.3741378 0.3741683 0.3734054 0.3722151 0.3706281 0.3688274 0.3674541 0.3652261 0.3632424 0.3604346 0.3585119 0.356345 0.354056 0.3513703 0.3487151 0.346182 0.3438625 0.3412074 0.3387048 0.3369957 0.3355002 0.3344626 0.3335164 0.3325093 0.3319294 0.3315327 0.3314411 0.3318074 0.3317768 0.331197 0.3305866 0.3304645 0.3313801 0.3324483 0.3323872 0.331197 0.3292437 0.328023 0.3277788 0.3280535 0.3279619 0.327321 0.3264359 0.325734 0.325673 0.3267411 0.328145 0.3303119 0.3321126 0.3339742 0.3353476 0.3368431 0.3380944 0.3397119 0.3405054 0.3409327 0.3408106 0.3404138 0.3398645 0.3396509 0.3402613 0.3411768 0.3422145 0.3433132 0.3449612 0.3470976 0.350119 0.3530489 0.3564976 0.3593969 0.3629982 0.3659891 0.3698041 0.3726424 0.3751755 0.3765183 0.3779833 0.379082 0.3802417 0.381432 0.3834157 0.3860099 0.3894891 0.3918696 0.3951962 0.3963255 0.3993164 0.4017579 0.4054508 0.4077092 0.4108222 0.4116767 0.4131112 0.4139657 0.4147897 0.4156748 0.4168651 0.4184215 0.420741 0.4240676 0.4278826 0.4318806 0.4365196 0.441067 0.4446683 0.4476897 0.4499786 0.4524812 0.4548618 0.4594091 0.4659708 0.47415 0.4824208 0.4893487 0.4943844 0.4969786 0.4980773 0.4986571 0.4988708 0.4989623 0.4990844 0.4992065 0.4992675 0.4993591 0.4994201 0.4994812 0.4995117 0.4995727 0.4996643 0.4996948 0.4997253 0.4997253 0.4997253 0.4997253 0.4997253 0.4999084 0.499939 0.499939 0.4999695 0.5 0.5 0.5 0.5 0.5 0.5 0.5 0.5 0.5 0.5 0.5 0.5 0.5 0.5 0.5 0.5 0.5 0.5 0.5
0.4973753 0.4973143 0.4971617 0.4970091 0.4968565 0.496826 0.4966734 0.4965818 0.4963377 0.4962461 0.496124 0.4959714 0.4958188 0.4956968 0.4956662 0.4955747 0.4954221 0.4953305 0.4951779 0.4951169 0.4948727 0.4948117 0.4946591 0.494537 0.4942318 0.4939266 0.4930416 0.4915156 0.4890741 0.4865409 0.4844351 0.4832143 0.4823292 0.4809864 0.4789721 0.4756455 0.4729598 0.4703656 0.4692974 0.4680461 0.4668559 0.4656046 0.4643228 0.4628273 0.4616065 0.4591345 0.4564488 0.4534579 0.4499786 0.4470488 0.4436611 0.4406397 0.4381981 0.4360618 0.4341696 0.4321553 0.4297137 0.4267533 0.4231826 0.419093 0.4156137 0.4122261 0.4084417 0.4040163 0.3993164 0.3947995 0.3907404 0.3868034 0.3828359 0.3788378 0.3746566 0.3704755 0.3660197 0.3618995 0.3574132 0.3528963 0.3486236 0.3441983 0.3386132 0.3332418 0.3279009 0.3233535 0.3195996 0.3159067 0.3125801 0.3094366 0.3049808 0.3005555 0.2972288 0.2931087 0.2895685 0.2870048 0.2851126 0.2843496 0.2838308 0.2838918 0.2841665 0.2846548 0.2858451 0.2879204 0.290423 0.2932003 0.2957944 0.2982055 0.3004028 0.3026308 0.3043093 0.3058658 0.3084905 0.3113593 0.3149301 0.3182873 0.3212171 0.324147 0.3266801 0.3290301 0.3304645 0.3315937 0.332784 0.3346457 0.3364158 0.3377587 0.338308 0.3389794 0.339956 0.3418788 0.3435574 0.3456937 0.3482268 0.3505768 0.3513398 0.3518281 0.3512482 0.3514009 0.351706 0.3527437 0.3535067 0.3543002 0.3549716 0.3561313 0.357169 0.3590307 0.3604346 0.3616859 0.361869 0.3622658 0.36193 0.3601905 0.3585424 0.3568333 0.3552158 0.3548801 0.3552768 0.3568638 0.3587255 0.360282 0.3610145 0.3621742 0.3636391 0.3645547 0.3651041 0.364219 0.3638223 0.3630593 0.3628151 0.362693 0.3629677 0.3634255 0.3634865 0.3634255 0.3629677 0.3625099 0.3620521 0.3622047 0.3637612 0.3659281 0.3683086 0.3694684 0.3715437 0.372795 0.3742599 0.3759385 0.37838 0.3814014 0.3843008 0.3868339 0.39013 0.3929988 0.3942501 0.3963865 0.3976378 0.3988891 0.4000183 0.401117 0.4022768 0.403406 0.404291 0.4052371 0.4061222 0.4068547 0.4077702 0.4090521 0.4111274 0.4130806 0.4147592 0.4153696 0.4163462 0.4170176 0.4184826 0.4203748 0.4226332 0.4249222 0.4274553 0.430141 0.4326741 0.4350241 0.4378014 0.4404261 0.4431423 0.4463773 0.4495514 0.4532137 0.4568455 0.4616676 0.4666728 0.4719526 0.4763474 0.4799182 0.4822377 0.4837026 0.4845877 0.485137 0.4854422 0.4858085 0.4861747 0.4866019 0.4869682 0.4873039 0.4877312 0.4881585 0.4884942 0.488952 0.4892572 0.4896844 0.4900812 0.4904169 0.4907831 0.4912409 0.4916072 0.4918818 0.492187 0.4925533 0.4928584 0.4931636 0.4933468 0.493652 0.4938961 0.4941403 0.4942929 0.4945675 0.4946286 0.4948117 0.4948422 0.4949643 0.4951779 0.4953305 0.4953915 0.4955136 0.4954831 0.4955136 0.4956052 0.4956662 0.4956662 0.4955747 0.4955442 0.4954831 0.4954526 0.4953915 0.4954221 0.4953305 0.4953 0.4951779 0.4952084 0.4950559 0.4949643 0.4946591 0.4945981 0.4944455 0.4942318 0.4940792 0.4940182 0.4938961 0.4936825 0.4935604 0.4933773 0.4932247 0.4930721 0.4929805 0.4927669 0.4925533 0.4925838 0.4923701 0.4922786 0.4920344 0.4917903 0.4914851 0.4909968 0.4899896 0.488189 0.4856253 0.4814747 0.4762864 0.4694805 0.4625832 0.4553806 0.4499176 0.4445462 0.4408228 0.4366111 0.4331929 0.4303241 0.4283403 0.4273332 0.426143 0.4250137 0.4234267 0.4226332 0.4210157 0.4196118 0.4164378 0.4135079 0.4095404 0.4066716 0.4045352 0.4032839 0.4029787 0.4027345 0.4028566 0.4025819 0.4006592 0.3988891 0.395654 0.3930904 0.3915644 0.3904047 0.3881768 0.3860709 0.3830495 0.3803638 0.3788378 0.3778917 0.3776475 0.3775865 0.3777696 0.3778917 0.3781053 0.3781053 0.3769151 0.3752365 0.3733443 0.37133 0.3699567 0.3679118 0.3662028 0.3633339 0.3611671 0.3584508 0.3557957 0.3530184 0.3503632 0.347708 0.3452359 0.3425502 0.3403528 0.3387658 0.3375145 0.3363548 0.3355612 0.3345846 0.3340658 0.3341879 0.3341268 0.3341879 0.3334554 0.3326619 0.3322957 0.332845 0.3338522 0.3340963 0.3327229 0.3307392 0.328908 0.3279009 0.3280535 0.3279924 0.3275041 0.3264054 0.3254898 0.3250626 0.3254898 0.3268022 0.3282671 0.3301288 0.3314411 0.332845 0.3338827 0.3352561 0.3362937 0.337545 0.3378197 0.3377281 0.3370872 0.3362021 0.3357139 0.3357749 0.3363853 0.337484 0.3385827 0.3401697 0.3423671 0.3450223 0.3481047 0.3512177 0.3545443 0.3575963 0.3611366 0.364158 0.3676982 0.3701093 0.3723372 0.3732833 0.3745651 0.3753586 0.3765489 0.3776475 0.3796008 0.3819508 0.3853995 0.3877495 0.3909235 0.3920222 0.3948605 0.3971495 0.4005677 0.4029177 0.4060307 0.4068852 0.4083806 0.4092352 0.4100897 0.4110664 0.4120125 0.4135384 0.4159189 0.4190624 0.4227553 0.4266618 0.4313923 0.4361838 0.4400903 0.4436001 0.4465604 0.4491851 0.4511079 0.4540072 0.4585851 0.4650857 0.4734481 0.481963 0.4892572 0.4942013 0.4966734 0.4980773 0.4985656 0.4987792 0.4988098 0.4989929 0.4990539 0.499176 0.499237 0.4993896 0.4994812 0.4994507 0.4994812 0.4996032 0.4996338 0.4996948 0.4996948 0.4996948 0.4996948 0.4997864 0.4998474 0.499939 0.4999695 0.499939 0.4999695 0.5 0.5 0.5 0.5 0.5 0.5 0.5 0.5 0.5 0.5 0.5 0.5 0.5 0.5 0.5 0.5 0.5
0.4970396 0.496887 0.4967649 0.4965818 0.4964903 0.4961851 0.496124 0.4959104 0.4958188 0.4956968 0.4955442 0.4954221 0.4953305 0.495239 0.4951474 0.4949338 0.4947812 0.4946896 0.494476 0.4943539 0.4942318 0.4940487 0.4938045 0.4936825 0.4932857 0.4924922 0.4910578 0.4889214 0.4864188 0.4841299 0.482726 0.4818409 0.4810169 0.4789721 0.4765306 0.4728377 0.4697857 0.4673137 0.4657572 0.4642312 0.4628578 0.4614234 0.459928 0.4583105 0.4568455 0.4543124 0.4513825 0.4482695 0.4448209 0.4415247 0.4381981 0.4351157 0.4327046 0.4306293 0.4282793 0.426143 0.423915 0.4204969 0.4169261 0.4130501 0.4094183 0.4065495 0.4023988 0.3981566 0.3935177 0.3892144 0.3853995 0.3815846 0.3777696 0.3737411 0.3694378 0.3650736 0.3605872 0.3561008 0.3517365 0.3471281 0.3427028 0.3383385 0.3324788 0.3269548 0.3217665 0.3170359 0.3132516 0.3096502 0.3061405 0.3028139 0.2983275 0.2940243 0.2905756 0.2862723 0.2829457 0.2805957 0.2787341 0.2781542 0.2777574 0.2777574 0.2780626 0.2786425 0.2798938 0.2814808 0.2838918 0.2867607 0.2899042 0.2925899 0.295184 0.2978697 0.3000061 0.3015931 0.3037905 0.3066288 0.3103522 0.3143808 0.3177074 0.3206983 0.3235976 0.3262833 0.328084 0.3294574 0.3308002 0.3326314 0.3346457 0.3361411 0.3371788 0.3378807 0.3388879 0.3406885 0.3424586 0.3447171 0.3469145 0.3495697 0.3512177 0.3518892 0.3517365 0.351645 0.3519197 0.3527132 0.3536288 0.3546054 0.3555515 0.356406 0.3575963 0.3597632 0.3615943 0.3632424 0.3639748 0.3647378 0.3647989 0.3633034 0.3620827 0.3602515 0.3585729 0.3575352 0.3575047 0.358695 0.3604956 0.3622352 0.3630593 0.3645242 0.3663859 0.3677287 0.3687969 0.3680645 0.3678813 0.3671794 0.3667826 0.3665995 0.36663 0.3669352 0.3672099 0.3676372 0.3675762 0.3672404 0.3667521 0.3666911 0.3677287 0.3694989 0.3714826 0.3724287 0.3742599 0.3754807 0.376793 0.3784411 0.3808521 0.3836599 0.3866508 0.3890008 0.3924495 0.3951657 0.3964475 0.3986449 0.3998352 0.4009339 0.4020936 0.4032534 0.4044131 0.4053592 0.4064884 0.4074345 0.408228 0.4091436 0.4102118 0.4115547 0.4137215 0.4155222 0.4171397 0.4176585 0.4185131 0.4194287 0.4210462 0.4232436 0.4254715 0.4280352 0.4306293 0.4332235 0.4358481 0.4384728 0.4410975 0.444241 0.4472929 0.4508637 0.454404 0.4588598 0.4635903 0.4692364 0.4743942 0.4787279 0.4818104 0.4837942 0.4850149 0.4857474 0.4862052 0.4866325 0.4868766 0.4871818 0.4876091 0.4879143 0.4881585 0.4886163 0.4888909 0.4893182 0.4896234 0.4899896 0.4903253 0.4906611 0.4910883 0.491424 0.4917597 0.492065 0.4924006 0.4927974 0.4930416 0.4932552 0.4936214 0.4938961 0.4941708 0.4943539 0.4945675 0.4947812 0.4949338 0.4951474 0.495239 0.4954221 0.4955747 0.4956662 0.4957273 0.4958188 0.4959104 0.4959714 0.496124 0.4960935 0.496124 0.4962156 0.4961851 0.4962156 0.4961545 0.496124 0.496063 0.496002 0.4960325 0.4960935 0.4959409 0.4959409 0.4959104 0.4957273 0.4956968 0.4955747 0.4955136 0.495239 0.4950864 0.4950864 0.4949033 0.4947506 0.4945981 0.4944455 0.4943539 0.4942318 0.4940792 0.4939572 0.4938351 0.4937435 0.493652 0.4935604 0.4934994 0.4932857 0.4931942 0.4930416 0.4927059 0.4922175 0.4915156 0.4902338 0.4876702 0.4841604 0.478789 0.4722578 0.4647501 0.4579747 0.4517793 0.4472014 0.4425319 0.4390832 0.4352988 0.4330098 0.4315144 0.430202 0.4291033 0.4274858 0.426265 0.4248306 0.4235793 0.4204053 0.4172923 0.4130501 0.4099677 0.407343 0.405756 0.405054 0.4048404 0.4047183 0.4043216 0.4023683 0.4005066 0.3972716 0.3946164 0.3932125 0.3922358 0.3900079 0.3881463 0.3851859 0.3831411 0.3821034 0.381493 0.3816761 0.3817677 0.3818898 0.3816456 0.3815846 0.3813099 0.3797534 0.3779528 0.3762131 0.3742904 0.3729171 0.3707807 0.3686443 0.3656839 0.3631203 0.3599463 0.3572911 0.3543918 0.3519807 0.3493866 0.3467924 0.3442593 0.3421229 0.3407496 0.3393762 0.3384911 0.3374535 0.3368736 0.3366905 0.3367515 0.3368736 0.3362632 0.3354392 0.3348593 0.3347983 0.3356833 0.3358665 0.3347067 0.3325398 0.3304645 0.3292132 0.3285418 0.3284502 0.3274736 0.3267716 0.325673 0.3250015 0.3250321 0.3258561 0.3271684 0.3284502 0.3298846 0.3307087 0.3318074 0.3322651 0.333547 0.33431 0.3349814 0.3348898 0.334371 0.3334249 0.3324788 0.3316853 0.3318379 0.3329976 0.3345236 0.3358359 0.3379723 0.3404444 0.3433742 0.3463041 0.349356 0.3524995 0.3553989 0.358695 0.3613502 0.3644326 0.36663 0.3688274 0.3697125 0.3707502 0.3716963 0.3726424 0.3737105 0.3756638 0.3780138 0.3812794 0.3834157 0.3866203 0.3874748 0.3903131 0.3927242 0.3960203 0.3982482 0.4015748 0.4024293 0.404169 0.4051151 0.4060612 0.4069462 0.4078923 0.4093267 0.4115547 0.4145456 0.4177806 0.421504 0.426204 0.4311176 0.4350851 0.4391442 0.4423488 0.4453092 0.4472624 0.4496124 0.4526338 0.4577611 0.4646585 0.4733565 0.4815968 0.4889214 0.493774 0.4966734 0.4978942 0.4985045 0.4986877 0.4987792 0.4989623 0.4991149 0.499176 0.4992065 0.4993591 0.4994507 0.4994507 0.4994507 0.4995422 0.4996643 0.4996948 0.4996948 0.4996948 0.4997558 0.4998169 0.4998169 0.4999084 0.499939 0.4999695 0.5 0.5 0.5 0.5 0.5 0.5 0.5 0.5 0.5 0.5 0.5 0.5 0.5 0.5 0.5 0.5 0.5
0.4965513 0.4964292 0.4962461 0.496124 0.4958188 0.4957273 0.4956052 0.4953915 0.4951779 0.4950559 0.4949338 0.4947506 0.4945675 0.4944455 0.4942623 0.4940792 0.4939266 0.4938045 0.4936214 0.4934383 0.4933468 0.4931942 0.49295 0.4926448 0.4920955 0.4905695 0.4887383 0.4862663 0.4839468 0.4820546 0.4812 0.4799487 0.4787585 0.4760422 0.4728072 0.4686871 0.4652689 0.4626137 0.460813 0.459226 0.4576695 0.4560215 0.4546176 0.452939 0.4515351 0.4487884 0.4456754 0.4428981 0.4390832 0.4360618 0.432552 0.4296527 0.4274248 0.4251663 0.4229384 0.42068 0.4182079 0.4146982 0.4106086 0.4067631 0.4030397 0.3998047 0.3957151 0.3911982 0.3865898 0.3824086 0.379082 0.3757554 0.3720625 0.3682171 0.3638528 0.3596716 0.3550327 0.3504242 0.3458158 0.3413599 0.3369651 0.3325398 0.3266191 0.3208509 0.3154795 0.3107795 0.3070561 0.3032106 0.2999145 0.2965269 0.2919795 0.2876457 0.2842581 0.2798328 0.2765366 0.2741867 0.2726607 0.2721113 0.2719282 0.2719282 0.2723555 0.2728743 0.2740341 0.2755295 0.2778795 0.2805042 0.2839529 0.2874016 0.2902704 0.2935055 0.2956418 0.2977782 0.2997314 0.3025392 0.3063541 0.3105658 0.3144418 0.3180126 0.3209424 0.324086 0.3261307 0.3277178 0.3291827 0.3311664 0.3329366 0.3350424 0.3363242 0.3372398 0.3379723 0.339834 0.3419093 0.3442898 0.3463346 0.3489288 0.350821 0.3523164 0.3523164 0.3525301 0.3525301 0.353171 0.3541171 0.3549411 0.3560093 0.3571995 0.3585424 0.3606482 0.3628151 0.3648599 0.3662333 0.3673015 0.3676982 0.3663859 0.3657755 0.3640969 0.3626015 0.3611366 0.3606482 0.3612281 0.3628151 0.3643716 0.3652872 0.3667521 0.3686138 0.3705671 0.372093 0.3720015 0.3721846 0.3717268 0.371208 0.3708112 0.370445 0.3706281 0.3707502 0.371208 0.3715742 0.3718489 0.3718794 0.3718794 0.3726119 0.3738326 0.3754196 0.3758164 0.3773424 0.3784716 0.3796619 0.3809437 0.3833242 0.3860099 0.3890618 0.3912592 0.3949216 0.3975462 0.398767 0.4009339 0.4020936 0.4031313 0.4041384 0.4052982 0.4064579 0.4075566 0.4085027 0.4093572 0.4103644 0.4111579 0.4123787 0.4138436 0.416041 0.4179943 0.4195813 0.4201916 0.4209852 0.422328 0.4240981 0.4264481 0.4287676 0.4313923 0.4341085 0.4368248 0.4394494 0.4422572 0.4452176 0.4488494 0.4522371 0.4565403 0.4611793 0.4664286 0.4716474 0.4768052 0.4806812 0.4835805 0.4852591 0.4862663 0.4868766 0.4872734 0.4875786 0.4878533 0.488189 0.4885247 0.4888299 0.4891046 0.4894097 0.4896539 0.4899591 0.4902948 0.4906916 0.4910273 0.4913935 0.4916682 0.4920344 0.4923091 0.4926753 0.4930111 0.4932552 0.4934994 0.493713 0.4940792 0.4942318 0.494476 0.4947201 0.4949643 0.4951474 0.4952084 0.4954526 0.4956662 0.4957578 0.4959714 0.496002 0.4961851 0.4961545 0.4962766 0.4964903 0.4964598 0.4966123 0.4966123 0.4967344 0.4966734 0.4967039 0.4966123 0.4967649 0.4966734 0.4966734 0.4965818 0.4965513 0.4963987 0.4964292 0.4964598 0.4963682 0.4962766 0.4962156 0.4962156 0.4961545 0.4959104 0.4957883 0.4956357 0.4956052 0.4954526 0.4953915 0.4952695 0.4952695 0.4950253 0.4950253 0.4948422 0.4946591 0.4947812 0.494537 0.4944455 0.4942929 0.4943539 0.4942623 0.4940792 0.4938961 0.4938351 0.4934383 0.492889 0.4917292 0.4894403 0.4861137 0.4807728 0.4742416 0.4668559 0.459928 0.4541598 0.4486053 0.4443631 0.4398462 0.4369163 0.4344442 0.4330404 0.4315754 0.4298968 0.4284624 0.4267839 0.4255936 0.4229994 0.4201001 0.4156748 0.4124092 0.4090826 0.4076177 0.4066105 0.4062443 0.4060001 0.4056644 0.4040774 0.4022462 0.3991638 0.3969359 0.395654 0.3949216 0.3930599 0.3915339 0.3887261 0.3866203 0.3858268 0.3852164 0.3854605 0.3853079 0.3851859 0.3850638 0.384606 0.3843313 0.3824696 0.3806385 0.3791735 0.3772813 0.3758774 0.3732527 0.3708723 0.3675151 0.3648294 0.3616859 0.3587866 0.3559788 0.3535372 0.3509736 0.3483489 0.3460294 0.3440151 0.3427944 0.341543 0.3405359 0.339956 0.3396204 0.3397424 0.3396814 0.3393151 0.3386742 0.3377281 0.3377281 0.3379112 0.3380333 0.3371177 0.3350119 0.3326314 0.3307392 0.3300678 0.3293048 0.3285723 0.32726 0.3264054 0.3254593 0.3252152 0.3254593 0.3264054 0.3275957 0.3284197 0.3293353 0.3297931 0.3306781 0.331258 0.3321736 0.3325093 0.3325398 0.3318074 0.3306171 0.3293048 0.3283892 0.3279924 0.3287249 0.3303424 0.3322651 0.3339132 0.3359885 0.3388268 0.3418788 0.3446255 0.3474028 0.3502716 0.3528353 0.3558262 0.3584813 0.3613502 0.3632729 0.365043 0.365806 0.36663 0.367332 0.3680645 0.3690411 0.3709638 0.3734969 0.3769151 0.379143 0.3823476 0.3835073 0.3862846 0.3889397 0.3924495 0.3946469 0.3980651 0.3991332 0.4010254 0.4020021 0.4028261 0.4038027 0.4048099 0.4059696 0.408106 0.4108222 0.4138741 0.4171397 0.4213819 0.426143 0.4299884 0.4342306 0.4375877 0.4405786 0.4428981 0.4450955 0.4477812 0.4514741 0.4570897 0.4649026 0.4734786 0.4821156 0.4888299 0.493774 0.4964292 0.4978331 0.4984435 0.4985656 0.4987792 0.4988403 0.4990844 0.4991454 0.4992065 0.4993896 0.4993896 0.4993896 0.4994507 0.4995727 0.4996032 0.4996948 0.4996948 0.4997253 0.4997558 0.4997864 0.4998779 0.499939 0.5 0.5 0.5 0.5 0.5 0.5 0.5 0.5 0.5 0.5 0.5 0.5 0.5 0.5 0.5 0.5 0.5 0.5
0.496124 0.4959104 0.4957273 0.4955136 0.4953305 0.4951779 0.4948727 0.4947201 0.494476 0.4944149 0.4941403 0.4939877 0.493774 0.4936214 0.4934383 0.4931331 0.4930416 0.4928584 0.4927059 0.4925227 0.4924312 0.4921565 0.4918818 0.4914851 0.4904474 0.4885552 0.4862968 0.4833669 0.4814442 0.4795825 0.4783617 0.4767442 0.4746689 0.4708844 0.4670695 0.4624 0.4593481 0.4568455 0.455228 0.453763 0.4523591 0.4510773 0.4496429 0.448117 0.4466825 0.4438442 0.4407923 0.4378624 0.4339254 0.4305683 0.4272722 0.4241287 0.4218702 0.4195813 0.4173228 0.4149118 0.4125618 0.4085332 0.4044131 0.4005066 0.3965696 0.393304 0.3890313 0.3842398 0.3797534 0.3756943 0.3725203 0.3688579 0.3652872 0.3615028 0.3573216 0.3533846 0.3491119 0.3446561 0.3401697 0.3356223 0.3310444 0.3266801 0.3206678 0.3146249 0.3094061 0.3046145 0.3007996 0.2971983 0.2937801 0.2903925 0.2859367 0.2816334 0.2783983 0.2740646 0.2707685 0.2683269 0.2668925 0.2663737 0.2662211 0.2665263 0.2668315 0.2678691 0.2688458 0.2704023 0.2724776 0.2752243 0.2785204 0.2823048 0.2859977 0.2892327 0.29201 0.2943295 0.2963133 0.2987853 0.3023866 0.3069645 0.3114814 0.3154795 0.3188366 0.3218885 0.3245132 0.326497 0.3279619 0.3296405 0.3316548 0.3339742 0.3357444 0.3368736 0.3377281 0.3395898 0.3415125 0.3443508 0.3463346 0.3490203 0.3509431 0.3526827 0.3533236 0.3534762 0.3534456 0.3538119 0.3546969 0.3556736 0.3568943 0.3580541 0.3594275 0.3615943 0.3640054 0.3664469 0.3684002 0.3700177 0.3709638 0.3699872 0.3697125 0.3682171 0.3668437 0.3651041 0.364158 0.36428 0.3653177 0.3667216 0.3674541 0.3690106 0.3708723 0.3730391 0.3750229 0.3753586 0.3761521 0.3761216 0.3757859 0.3755112 0.3750534 0.3747787 0.3745956 0.3747787 0.375145 0.3756638 0.3761216 0.3765794 0.377617 0.3787463 0.3801501 0.3801807 0.381432 0.3819203 0.3826528 0.3836904 0.3859183 0.3886346 0.3914118 0.3936703 0.39718 0.3998352 0.4010254 0.4031313 0.4042605 0.4054202 0.4063663 0.4074345 0.4085027 0.4096014 0.4103339 0.41128 0.4121345 0.412867 0.4141793 0.4158884 0.4180858 0.4198865 0.4211988 0.4218397 0.4227858 0.4243728 0.426143 0.4288897 0.4312702 0.4340475 0.4366111 0.4396631 0.4427455 0.4461332 0.449704 0.4537325 0.4583715 0.4635598 0.4690838 0.4747604 0.479552 0.4832754 0.4855033 0.4869377 0.4876091 0.4881279 0.4883111 0.4885857 0.4887383 0.4891046 0.4892877 0.4895929 0.4899591 0.4902338 0.4904169 0.4907526 0.4910578 0.4913935 0.4916377 0.4919734 0.4923091 0.4926143 0.492889 0.4931636 0.4934689 0.493713 0.4939877 0.4941708 0.4944455 0.4946591 0.4949338 0.4950864 0.4952695 0.4954831 0.4957273 0.4959104 0.496002 0.496124 0.4962461 0.4964292 0.4964598 0.4966429 0.4967344 0.496826 0.4967954 0.496887 0.4970701 0.4969786 0.4970396 0.4970701 0.4972227 0.4972532 0.4970396 0.4971312 0.4970701 0.4970091 0.4969481 0.496826 0.4969481 0.496826 0.4968565 0.496826 0.4967039 0.4967344 0.4967039 0.4964598 0.4963377 0.4962461 0.4963071 0.496124 0.4959714 0.4958799 0.4958799 0.4957883 0.4956052 0.4954831 0.4955136 0.495361 0.4953305 0.4952695 0.4951474 0.4951779 0.4949948 0.4950559 0.4948117 0.4946286 0.4945675 0.4942623 0.4938351 0.492889 0.4912104 0.4878533 0.482726 0.4759812 0.4687786 0.4616065 0.4555332 0.4506806 0.4461027 0.442654 0.4393579 0.4374352 0.4356345 0.4338338 0.4321553 0.4303851 0.4291339 0.4266923 0.423793 0.4192761 0.4155527 0.4117988 0.4099066 0.4086553 0.4084111 0.408167 0.408106 0.4064579 0.4049625 0.4020936 0.3998657 0.3987975 0.3981566 0.3967222 0.3952878 0.3925411 0.3905268 0.3895196 0.3887872 0.3886651 0.3882073 0.3879631 0.3875054 0.3872612 0.3870476 0.3853079 0.3836599 0.3821339 0.3800586 0.3781359 0.3753586 0.3724593 0.3691326 0.3662943 0.3630898 0.360221 0.3576573 0.3549716 0.3524385 0.3497528 0.3476164 0.3461515 0.3449307 0.3438931 0.3431606 0.3428859 0.3428249 0.3425502 0.3423976 0.3415736 0.3409327 0.340597 0.3408106 0.3408716 0.339956 0.3378197 0.3350424 0.3331197 0.3316853 0.331197 0.3300372 0.328908 0.3274431 0.3262833 0.3255509 0.325795 0.3261613 0.32726 0.3279009 0.3285113 0.3289691 0.3292132 0.3297015 0.3299457 0.330373 0.3301288 0.3296405 0.3283587 0.3270769 0.3258255 0.3250626 0.3253677 0.3268327 0.3282976 0.3305866 0.3323262 0.3347067 0.3372703 0.3401697 0.3427638 0.3450528 0.3474333 0.3495697 0.352408 0.3549411 0.3576573 0.3593664 0.3608619 0.3615638 0.3622658 0.3629372 0.3637917 0.3646463 0.3667521 0.3693768 0.3730696 0.3756028 0.3790209 0.3803028 0.3835378 0.3862235 0.3898858 0.3923885 0.3957456 0.3968138 0.3988891 0.3999573 0.4009949 0.401819 0.4027956 0.4039858 0.4058475 0.4084417 0.41128 0.4142404 0.4182384 0.4226027 0.4261124 0.4300494 0.4331319 0.4360923 0.4384423 0.4406092 0.4429286 0.445767 0.4501618 0.4564793 0.4643838 0.473265 0.4816578 0.4889214 0.4936825 0.4965208 0.4979552 0.498413 0.4985351 0.4986877 0.4987792 0.4989623 0.4990539 0.499176 0.4993591 0.4993286 0.4993591 0.4994201 0.4995117 0.4996032 0.4996643 0.4996643 0.4996948 0.4997253 0.4997864 0.4998474 0.499939 0.499939 0.4999695 0.4999695 0.4999695 0.4999695 0.5 0.5 0.5 0.5 0.5 0.5 0.5 0.5 0.5 0.5 0.5 0.5
0.4956357 0.4953305 0.4951779 0.4948727 0.4946591 0.4943234 0.4942318 0.4939877 0.4937435 0.4934994 0.4933162 0.4931026 0.4929195 0.4927364 0.4924006 0.4922481 0.4920344 0.4919734 0.4918208 0.4916072 0.4913935 0.4911188 0.4907221 0.4897455 0.4882195 0.4857169 0.4828786 0.4799487 0.4775072 0.4750046 0.4727156 0.4699994 0.4666728 0.4621254 0.4573949 0.4526033 0.4492767 0.4467436 0.4449429 0.443478 0.4417994 0.4405786 0.4394189 0.4382897 0.4373131 0.4348105 0.4321248 0.4298663 0.4264787 0.4236709 0.4208936 0.418391 0.4164683 0.4144235 0.4122261 0.4099066 0.407404 0.4033449 0.3989196 0.3945858 0.3907709 0.3874443 0.3825917 0.3777391 0.3729781 0.3687359 0.3651346 0.3615028 0.3578099 0.353995 0.3503937 0.3463346 0.3426723 0.3383996 0.3341268 0.3298236 0.3254593 0.3208204 0.3146859 0.3087652 0.3033632 0.2986633 0.2949094 0.2913081 0.2877373 0.2847464 0.2799853 0.2758042 0.272447 0.2684185 0.2652139 0.2629555 0.2615211 0.2610328 0.2609107 0.261399 0.2620399 0.2628334 0.2641763 0.2659464 0.2680523 0.2706464 0.2737289 0.2776964 0.2815724 0.2855704 0.2886223 0.2912775 0.2933834 0.2956724 0.2991516 0.3037295 0.3087041 0.3129463 0.3167613 0.3202405 0.3232314 0.3256119 0.3271989 0.3289996 0.3307697 0.3332723 0.3353781 0.3369651 0.3379723 0.3396509 0.3415736 0.3443508 0.3465788 0.349295 0.3511872 0.3535067 0.3543002 0.3549716 0.3549716 0.3552463 0.3559177 0.3567418 0.3579625 0.3592138 0.3605261 0.3628151 0.3653787 0.3682171 0.3702618 0.3725813 0.3740768 0.3733138 0.3734054 0.3723677 0.3711469 0.3696515 0.3684307 0.3683086 0.3688274 0.3698651 0.3699872 0.3715132 0.3733748 0.3755417 0.3776781 0.3785937 0.379845 0.3802112 0.3801807 0.379967 0.3793261 0.379082 0.3789599 0.3789599 0.3792651 0.3795398 0.3801196 0.3807606 0.3821644 0.3836904 0.3851859 0.3851553 0.3861625 0.3862235 0.3866203 0.3873833 0.389306 0.3916255 0.3941281 0.3962339 0.39953 0.4020326 0.4032534 0.4053287 0.4063358 0.407343 0.4084111 0.4093572 0.4103949 0.411341 0.4122261 0.4131112 0.4138741 0.4144845 0.4160105 0.4177806 0.4199475 0.4216261 0.4229384 0.4235183 0.4245865 0.4263871 0.4284014 0.4314228 0.434017 0.4369774 0.4397852 0.4433559 0.4472319 0.4515046 0.4563267 0.4614539 0.4671611 0.4725935 0.4778734 0.4820546 0.485137 0.4869987 0.4882805 0.4887994 0.4891656 0.4893792 0.4895318 0.489837 0.4898981 0.4902948 0.4904169 0.4906611 0.4909968 0.4912104 0.4914851 0.4917292 0.4920039 0.4923091 0.4925533 0.4927974 0.4931026 0.4933468 0.4936214 0.4938656 0.4940792 0.4943844 0.494537 0.4948422 0.4951169 0.4952695 0.4955136 0.4956662 0.4959409 0.496063 0.4962766 0.4964292 0.4965513 0.4967649 0.4968565 0.4969175 0.4970091 0.4971007 0.4972532 0.4973143 0.4972227 0.4972838 0.4973753 0.4974364 0.497589 0.497589 0.4976195 0.4975279 0.4975584 0.4974974 0.4975279 0.4975584 0.4973448 0.4973143 0.4972838 0.4972532 0.4971922 0.4972227 0.4971617 0.4971922 0.4971617 0.4971007 0.4970091 0.4969175 0.4968565 0.4966429 0.4965818 0.4964598 0.4963987 0.4963071 0.4962766 0.4961851 0.4960935 0.4961545 0.496002 0.4959714 0.4958188 0.4958493 0.4957883 0.4956662 0.4956662 0.4955442 0.4954831 0.495361 0.4952084 0.4948422 0.4941403 0.4922786 0.4892877 0.4841604 0.4779344 0.4705182 0.4635598 0.4576695 0.4522066 0.448117 0.4444851 0.4420741 0.4397852 0.4381371 0.4361838 0.4343221 0.4327962 0.4308124 0.4281267 0.4236099 0.4199475 0.4157969 0.4135995 0.4119819 0.4115852 0.4114936 0.4114936 0.4102423 0.4086858 0.4060917 0.4037417 0.4024904 0.40188 0.400293 0.3986754 0.3959592 0.3935787 0.3923274 0.3915339 0.3913813 0.3910456 0.3908625 0.3904047 0.3902521 0.390069 0.3882073 0.3861625 0.3844229 0.382317 0.379906 0.3769456 0.3738021 0.3706586 0.3677287 0.3645547 0.3616859 0.3591222 0.3564976 0.3540255 0.3513398 0.3495697 0.3479522 0.3470976 0.3464567 0.3460599 0.3459989 0.3459378 0.3456632 0.3451444 0.3444119 0.3441067 0.343771 0.343771 0.3429775 0.3409632 0.3385216 0.335897 0.3343405 0.3332723 0.3321126 0.3305866 0.3290606 0.3276262 0.3267716 0.3263139 0.3266801 0.3271379 0.3279009 0.3280535 0.3282366 0.3282976 0.3285723 0.3287554 0.3287554 0.3286944 0.3279009 0.3266191 0.3250626 0.3236282 0.3227126 0.3228652 0.3236282 0.3253983 0.3271074 0.3290606 0.3308308 0.3331502 0.3354392 0.3378807 0.3399866 0.3421535 0.3443508 0.3466093 0.3492645 0.3514924 0.3537203 0.3550632 0.3561313 0.3567723 0.3575047 0.3584203 0.359458 0.3608314 0.3633339 0.3662943 0.3702618 0.3731917 0.3766099 0.3781969 0.381493 0.3844534 0.3882988 0.3908319 0.3943112 0.3954709 0.3974852 0.3986754 0.3996215 0.4005982 0.4015748 0.4027651 0.4047183 0.4070073 0.4097845 0.4123176 0.4160715 0.4202527 0.4235488 0.4273637 0.430202 0.4330709 0.4352377 0.4370079 0.438839 0.4408228 0.444302 0.4493377 0.4561741 0.4643838 0.4733565 0.4817188 0.4887383 0.4934383 0.4964903 0.4977416 0.498413 0.4985656 0.4986571 0.4988403 0.4989623 0.4990539 0.4991454 0.499298 0.4993286 0.4993286 0.4994201 0.4995117 0.4995727 0.4996643 0.4996948 0.4996948 0.4997253 0.4998169 0.4998169 0.4998474 0.4999695 0.4999695 0.499939 0.5 0.5 0.5 0.5 0.5 0.5 0.5 0.5 0.5 0.5 0.5 0.5 0.5
0.4950253 0.4947506 0.4945065 0.4941403 0.4939572 0.493713 0.4934383 0.4931636 0.4928584 0.4926143 0.4924312 0.4921565 0.4920344 0.4917292 0.4914545 0.4912104 0.4910883 0.4909968 0.4907526 0.4905084 0.4902643 0.489776 0.4888604 0.4870597 0.4845572 0.4808338 0.4768968 0.472502 0.4685955 0.4644448 0.4605384 0.4561436 0.4517793 0.4462247 0.4411891 0.436489 0.4331319 0.4308429 0.4290118 0.4276384 0.426204 0.4251969 0.4241592 0.42303 0.4222365 0.4200085 0.4177806 0.4160105 0.4131417 0.4110358 0.4092047 0.4076177 0.406641 0.4055729 0.40423 0.4025819 0.4005371 0.3966306 0.3922969 0.3882378 0.384545 0.3813099 0.3764573 0.3716352 0.3669047 0.3624184 0.3584813 0.3543918 0.3505463 0.3466093 0.3427638 0.3389489 0.3352255 0.3315327 0.3278093 0.3238723 0.3196301 0.3152048 0.3090399 0.3030886 0.2978392 0.2931087 0.2892327 0.285662 0.2821828 0.2789172 0.2744308 0.2704328 0.2671061 0.2631691 0.2602698 0.258164 0.2567601 0.2563938 0.2563633 0.2565769 0.2573704 0.2586523 0.2600256 0.2617958 0.2639321 0.2664652 0.2694561 0.2733626 0.2775133 0.2818775 0.2854483 0.2888055 0.2910944 0.2935665 0.2965269 0.3011964 0.3058658 0.31081 0.3149606 0.318684 0.3221327 0.3249405 0.3269853 0.3288164 0.3306171 0.3330281 0.3355612 0.3372093 0.3386132 0.3400781 0.3420008 0.3447171 0.3471586 0.3500275 0.3518281 0.3542697 0.3553684 0.3565891 0.3569859 0.3570469 0.3574742 0.3580846 0.3593969 0.3606482 0.3619911 0.3644326 0.3670573 0.3698651 0.3722151 0.3750839 0.3770372 0.3768846 0.3772508 0.3764878 0.3753891 0.3744125 0.3732222 0.3730086 0.3730391 0.3737716 0.3732222 0.3745346 0.3760605 0.3782885 0.3805164 0.381432 0.3829274 0.3836599 0.3840872 0.3843924 0.3843313 0.3841177 0.383904 0.3836904 0.3835378 0.3835989 0.3840261 0.3846976 0.3862235 0.3881157 0.3899469 0.39013 0.3913813 0.3915644 0.3916865 0.3920222 0.3933956 0.3953183 0.3974547 0.3991332 0.4022157 0.4046268 0.4055729 0.4074956 0.4085027 0.4094183 0.4103949 0.4112189 0.4122566 0.4131112 0.4139352 0.4146982 0.4155527 0.4164073 0.4179943 0.4197949 0.4219618 0.4233046 0.4243423 0.4251969 0.4264787 0.428615 0.4310261 0.4343832 0.4372826 0.4406702 0.4443325 0.4490936 0.4541903 0.4596228 0.4652384 0.4706098 0.4761033 0.4805896 0.4844351 0.4869682 0.4886773 0.4894403 0.489837 0.4900507 0.4903253 0.4904779 0.4905695 0.4908136 0.4909662 0.4912714 0.491424 0.4916072 0.4919429 0.492126 0.4923396 0.4925838 0.492889 0.4931331 0.4933468 0.4935604 0.4938045 0.4939572 0.4942318 0.494476 0.4948727 0.4950253 0.4953 0.4954526 0.4956357 0.4958493 0.4960935 0.4962461 0.4963071 0.4964903 0.4967954 0.4969175 0.4970091 0.4970701 0.4972838 0.4973448 0.4973753 0.4974364 0.4975279 0.49765 0.4976805 0.497711 0.49765 0.4977721 0.4978331 0.4978942 0.4979247 0.4978942 0.4980162 0.4980162 0.4978942 0.4978637 0.4979552 0.4978637 0.4979552 0.4978637 0.4978026 0.4977721 0.497711 0.4977416 0.49765 0.49765 0.497589 0.4975584 0.497589 0.4973753 0.4973143 0.4972227 0.4971007 0.4970396 0.4969481 0.4969786 0.496826 0.4967649 0.4967344 0.4966734 0.4966734 0.4966123 0.4964598 0.4964903 0.4964292 0.4964598 0.4963682 0.4962156 0.4961851 0.496002 0.4958799 0.4951169 0.4937435 0.4906611 0.4859916 0.4793689 0.4725325 0.4654215 0.4594091 0.4539767 0.4497955 0.446591 0.4441494 0.4426234 0.4405786 0.4387475 0.4370689 0.4353904 0.4329488 0.4290423 0.4250748 0.4206189 0.4178417 0.4158579 0.4151865 0.4150644 0.4150034 0.4139657 0.4125313 0.409693 0.407404 0.4059696 0.404993 0.4032534 0.4016053 0.3986144 0.3961729 0.39483 0.394067 0.3939144 0.3938228 0.3935482 0.3933346 0.3931209 0.3927242 0.3906183 0.3884209 0.3864982 0.3838125 0.3813709 0.3781359 0.3750229 0.3719099 0.3691632 0.3659891 0.3632729 0.3608619 0.3580236 0.355582 0.3530184 0.3515534 0.3505768 0.3499359 0.3496917 0.3494476 0.3492034 0.3489593 0.3486236 0.3482879 0.3477385 0.3473417 0.3468534 0.3462125 0.3446255 0.3419703 0.3392846 0.3372093 0.3355612 0.3346457 0.3329976 0.3312885 0.3293963 0.328084 0.3275957 0.3273515 0.3279009 0.328023 0.3284502 0.328084 0.3282671 0.3279924 0.328145 0.3279924 0.3276262 0.3267106 0.3253372 0.3235366 0.3219496 0.3207593 0.3203931 0.3211561 0.3224074 0.3243606 0.3257035 0.3276567 0.3293353 0.3316853 0.3333639 0.3355307 0.3371177 0.3392236 0.3410853 0.3432827 0.3455411 0.347708 0.3493866 0.3507904 0.3516145 0.3524995 0.3535372 0.354758 0.3561313 0.357993 0.3607703 0.3639748 0.3681255 0.3712385 0.3747482 0.3765489 0.379845 0.3828359 0.3867118 0.3893975 0.3928768 0.3940975 0.3961729 0.3973021 0.3983703 0.3993774 0.4003235 0.4015443 0.4035586 0.405878 0.4084722 0.4107917 0.414454 0.4185436 0.4216261 0.425502 0.4281267 0.4309956 0.4329183 0.4344442 0.4358176 0.4369163 0.4393274 0.4429897 0.4483611 0.4555332 0.4645059 0.4734481 0.4821766 0.4887994 0.4937435 0.4963987 0.4977721 0.4981993 0.4984435 0.4986266 0.4987182 0.4989013 0.4989623 0.4990539 0.499237 0.499298 0.4992675 0.4993286 0.4994201 0.4995422 0.4996338 0.4996643 0.4996948 0.4997253 0.4997558 0.4998169 0.4998474 0.4998779 0.499939 0.4999695 0.4999695 0.4999695 0.4999695 0.5 0.5 0.5 0.5 0.5 0.5 0.5 0.5 0.5
0.4944149 0.4941403 0.4938351 0.4935604 0.4931636 0.4929195 0.4926143 0.4923091 0.4920344 0.4918208 0.4915156 0.4913325 0.4909968 0.4907526 0.4904779 0.4902643 0.4899591 0.489837 0.4894403 0.4890741 0.4883111 0.4872429 0.4851065 0.4818104 0.477263 0.4716474 0.4656046 0.4598059 0.4546481 0.4499481 0.4455533 0.4410364 0.4365501 0.4311176 0.426265 0.4221449 0.4189709 0.4168651 0.4155222 0.4142098 0.4128059 0.4115852 0.4103034 0.4094183 0.4085332 0.4060307 0.4036196 0.4020936 0.399469 0.3975157 0.3962034 0.3952573 0.3949826 0.3946164 0.3941281 0.393243 0.3919307 0.3886346 0.3850027 0.381432 0.3781664 0.3750839 0.3701703 0.3651956 0.3601905 0.3556736 0.3514924 0.3476164 0.3434047 0.3395898 0.3355918 0.3317463 0.3279314 0.3244827 0.3207593 0.3170359 0.3130989 0.3091009 0.3033632 0.297473 0.2922847 0.2876457 0.2838308 0.2801074 0.277025 0.273973 0.2696393 0.2655497 0.2624977 0.2585607 0.2555393 0.2536165 0.2522432 0.251938 0.2520601 0.252762 0.2535555 0.2547153 0.2563328 0.2583165 0.2604834 0.2631386 0.266099 0.2696698 0.273973 0.2784899 0.2827931 0.2868828 0.2894464 0.292071 0.2946347 0.2988464 0.3036379 0.3088262 0.3136483 0.31786 0.3213392 0.3245437 0.3269853 0.3288775 0.3306171 0.3331197 0.3358665 0.3378197 0.3395288 0.3410242 0.3428554 0.3453885 0.3481047 0.3510956 0.353171 0.3552463 0.3566807 0.3581456 0.3591528 0.3592749 0.3597021 0.3599768 0.3610755 0.3622658 0.3638528 0.3662638 0.3688274 0.3718183 0.3741989 0.3773729 0.3796924 0.3800891 0.3808521 0.3806995 0.379845 0.3792956 0.3781969 0.3781359 0.3779833 0.3783495 0.3772203 0.3779833 0.3790209 0.3810352 0.3832631 0.3841177 0.3859183 0.3868034 0.3876579 0.3882073 0.388543 0.3888482 0.3887872 0.3885735 0.388543 0.3884209 0.388543 0.3889397 0.3902216 0.3919307 0.3937923 0.3944027 0.3958066 0.3961729 0.3966001 0.3969969 0.3983703 0.3998962 0.40188 0.4033449 0.4060307 0.4080755 0.4087469 0.4103034 0.4109748 0.4117683 0.4125923 0.4133553 0.4140878 0.4149728 0.4157358 0.4163462 0.4172618 0.4180858 0.4197949 0.4218092 0.4237624 0.4250748 0.4258683 0.427028 0.4287066 0.4315449 0.4342306 0.438015 0.4418299 0.4463468 0.451291 0.4573033 0.4633767 0.4692974 0.4748825 0.4797351 0.4840078 0.4869377 0.4888909 0.4899896 0.490539 0.4907831 0.4909968 0.4911494 0.4912714 0.491424 0.4916377 0.4917903 0.4919734 0.4922175 0.4923091 0.4925838 0.4928584 0.4930111 0.4932247 0.4934689 0.4937435 0.4939266 0.4940792 0.4943539 0.4945675 0.4947506 0.4949338 0.4950864 0.4953915 0.4956052 0.4957578 0.4959714 0.4961545 0.4962461 0.4965208 0.4966734 0.4967649 0.4969175 0.4971007 0.4971617 0.4973753 0.4974059 0.4975584 0.4976805 0.4977416 0.4978026 0.4978942 0.4980468 0.4981383 0.4981078 0.4980773 0.4981383 0.4981688 0.4982299 0.4982299 0.4983214 0.498413 0.4983825 0.498413 0.4983825 0.4984435 0.4983825 0.4983825 0.498352 0.4982604 0.4983214 0.4982299 0.4981688 0.4982299 0.4981993 0.4982299 0.4981993 0.4981383 0.4981078 0.4981383 0.4980468 0.4979857 0.4978637 0.4978942 0.4977721 0.49765 0.49765 0.49765 0.49765 0.497589 0.4975279 0.4974059 0.4974059 0.4973753 0.4973143 0.4972838 0.4973143 0.4971617 0.4971617 0.4970701 0.4969175 0.4963682 0.4950559 0.4924006 0.4877617 0.4815052 0.4739974 0.4667338 0.4602637 0.4556858 0.4515046 0.4486663 0.4464689 0.4443936 0.4426234 0.4407313 0.4391747 0.4368553 0.4336507 0.4296527 0.4248001 0.421565 0.419093 0.4183605 0.4179332 0.4178722 0.416804 0.4154306 0.4126839 0.4102118 0.4085943 0.4075566 0.4058475 0.4041384 0.401117 0.3988891 0.3975157 0.3968748 0.3966917 0.3965086 0.3962034 0.3957761 0.3953183 0.3947079 0.3923885 0.390069 0.3880242 0.3852164 0.3827443 0.3794482 0.3763352 0.3731612 0.3703839 0.3673625 0.3648599 0.3623573 0.35958 0.3570774 0.3550021 0.3542086 0.3534456 0.3530794 0.3527132 0.3524385 0.3520418 0.3519502 0.3519197 0.3517976 0.3514009 0.3506379 0.3496307 0.3480437 0.3456937 0.3431911 0.340597 0.3391015 0.337484 0.3359275 0.3336996 0.3318989 0.3301288 0.3291827 0.3287249 0.328847 0.3293353 0.3289691 0.3289996 0.3282671 0.3282671 0.3277788 0.3276872 0.3267106 0.3261307 0.3246963 0.3229872 0.3209729 0.3195691 0.3189892 0.3190807 0.3200574 0.3215223 0.3232619 0.3245743 0.3261307 0.3277178 0.3293963 0.3309528 0.3326924 0.3342489 0.3362021 0.3379418 0.3400781 0.3419398 0.343771 0.345358 0.3466093 0.3477995 0.3489593 0.3503632 0.3519502 0.3537203 0.3559482 0.3590002 0.3623573 0.3664774 0.3696515 0.3730696 0.3747482 0.3781969 0.3813709 0.3852774 0.3879021 0.3914729 0.3926326 0.3948605 0.3959287 0.3970274 0.3981261 0.3991332 0.400293 0.4022768 0.4045657 0.4072819 0.4094793 0.412928 0.4171092 0.4200085 0.4240676 0.4266618 0.4295306 0.4315449 0.4330404 0.4341696 0.4349326 0.4364585 0.4389306 0.4427455 0.448178 0.4559605 0.4641702 0.4731734 0.4814442 0.4887994 0.4936825 0.4965513 0.497711 0.4981688 0.4983214 0.4985045 0.4986877 0.4987792 0.4988708 0.4989929 0.4991149 0.499237 0.4992675 0.499298 0.4994507 0.4995117 0.4995117 0.4996338 0.4996948 0.4996948 0.4997253 0.4997558 0.4997864 0.4998779 0.4999084 0.4999084 0.499939 0.4999695 0.4999695 0.5 0.5 0.5 0.5 0.5 0.5 0.5 0.5
0.493774 0.4932857 0.4930721 0.4926448 0.4923396 0.4919429 0.4916987 0.4913325 0.4911799 0.4907831 0.490539 0.4900812 0.4899286 0.4896234 0.4893182 0.489013 0.4887383 0.4883721 0.4877007 0.4867546 0.4851676 0.4824513 0.478087 0.4723189 0.4649332 0.4571507 0.4495514 0.4427761 0.4375877 0.433254 0.4294696 0.4256241 0.4218397 0.4172313 0.4128365 0.409754 0.4072819 0.4060001 0.4048099 0.4037722 0.4026124 0.4016053 0.4003845 0.3991638 0.398004 0.3952267 0.3922969 0.3902521 0.3870476 0.3844229 0.3825307 0.3811573 0.3806995 0.3804553 0.3800891 0.379906 0.3799365 0.3778917 0.3753891 0.3731612 0.3706586 0.368095 0.3636697 0.3586034 0.3538119 0.3495697 0.3454801 0.3416041 0.3373314 0.3332723 0.328908 0.3248794 0.3206373 0.3170359 0.3132516 0.3096808 0.30611 0.3027223 0.2971983 0.2919185 0.2869438 0.2824879 0.2787341 0.2754074 0.2721113 0.269273 0.2649698 0.2610633 0.2579808 0.254288 0.2513276 0.2494964 0.2481841 0.248062 0.2485503 0.2489776 0.2501373 0.2513276 0.2530977 0.255112 0.2577062 0.2601477 0.2631386 0.2666484 0.2710126 0.2757126 0.2805042 0.2851737 0.2882561 0.2910334 0.293536 0.2973814 0.3019899 0.3073918 0.3125801 0.317158 0.321095 0.3242691 0.3271684 0.3293353 0.3313801 0.3336996 0.3361411 0.3385827 0.3403833 0.342184 0.343771 0.3464872 0.3495086 0.3528047 0.354758 0.3571995 0.3580846 0.3597937 0.361106 0.361869 0.3621437 0.3625099 0.3632424 0.364219 0.3657145 0.3681865 0.3707196 0.3738326 0.3761216 0.3796619 0.382195 0.38308 0.3843313 0.3846976 0.3841482 0.3836294 0.3828664 0.3832021 0.3833852 0.3836904 0.3825001 0.3826833 0.3832021 0.3844534 0.3863456 0.3868949 0.3886651 0.3896417 0.3906488 0.3915339 0.3922664 0.3928768 0.393304 0.3935177 0.3933956 0.3932125 0.3931819 0.3934566 0.3944638 0.3962644 0.3981261 0.3986449 0.4001404 0.4005371 0.4010865 0.4015443 0.4030702 0.4049014 0.4067936 0.408228 0.4106391 0.4124703 0.4128059 0.4140267 0.414393 0.4149728 0.4155832 0.4162546 0.4168956 0.4176585 0.4182689 0.4189709 0.4196423 0.4207105 0.4225416 0.4245559 0.4263261 0.4275469 0.428554 0.430141 0.4325215 0.4359397 0.439541 0.4443631 0.4493682 0.4555332 0.461576 0.4680461 0.4737838 0.47885 0.4830617 0.4862357 0.4886163 0.4899896 0.4909662 0.4914545 0.4916987 0.4918513 0.4919734 0.4920955 0.4922786 0.4923396 0.4924006 0.4927669 0.49295 0.4930416 0.4931942 0.4934383 0.4936825 0.493774 0.4939266 0.4942623 0.4944149 0.4946591 0.4948727 0.4950864 0.4952695 0.4953915 0.4954831 0.4957883 0.4958799 0.496063 0.4962461 0.4964292 0.4966123 0.4967039 0.4969786 0.4971007 0.4972532 0.4974059 0.4975279 0.4976805 0.4976805 0.4978942 0.4979552 0.4980773 0.4981383 0.4982604 0.498413 0.4984435 0.4985045 0.4985045 0.4986266 0.4986266 0.4985961 0.4985656 0.4986266 0.4986877 0.4987182 0.4987487 0.4988098 0.4988708 0.4989013 0.4989318 0.4988708 0.4988403 0.4989013 0.4988403 0.4988098 0.4987487 0.4988708 0.4988403 0.4987487 0.4987182 0.4987182 0.4986877 0.4986877 0.4986266 0.4985961 0.4985351 0.4985351 0.498413 0.4983825 0.4983825 0.4982604 0.4982604 0.4982604 0.4982909 0.4982604 0.4982604 0.4981993 0.4981078 0.4981383 0.4981993 0.4981078 0.4979857 0.4979857 0.4979247 0.4977721 0.4973143 0.496124 0.4934994 0.4892572 0.4831533 0.4759507 0.4684124 0.4621559 0.4566929 0.4532137 0.450589 0.4484832 0.4465299 0.4446377 0.4431728 0.4410364 0.4385949 0.4347494 0.4299579 0.4258378 0.4227248 0.4216871 0.4208631 0.4207105 0.4198254 0.4184215 0.4157663 0.4132027 0.4114326 0.4103949 0.4086248 0.4068852 0.4039553 0.4014832 0.4000488 0.3992248 0.3989806 0.3987975 0.3984618 0.3976988 0.39718 0.3964475 0.3939449 0.3915644 0.3896112 0.3865898 0.3841482 0.3808826 0.377556 0.3745041 0.3715437 0.3687969 0.3661723 0.3638528 0.3612281 0.3590002 0.3574742 0.3569859 0.3567723 0.3563145 0.3559788 0.3556125 0.3557651 0.3559788 0.3560703 0.3555515 0.3544528 0.3530489 0.351584 0.3496002 0.3470366 0.344534 0.3425502 0.3410242 0.3389794 0.3368736 0.334432 0.3326009 0.331197 0.3306476 0.330434 0.330373 0.330373 0.3298236 0.3295794 0.3286333 0.3284808 0.3275957 0.3271074 0.3259171 0.3244216 0.3221937 0.3205762 0.3190197 0.3180736 0.3177989 0.3183178 0.319508 0.3208509 0.3221022 0.3232619 0.3246048 0.3255204 0.3271074 0.3286333 0.3300983 0.3313496 0.3328145 0.3342794 0.3363242 0.3381249 0.3400476 0.3419093 0.3434963 0.3448392 0.3464262 0.3478911 0.3497223 0.3517365 0.3540865 0.3574437 0.3608008 0.3648599 0.3680645 0.3713605 0.3732833 0.3764573 0.3796924 0.3835683 0.3863151 0.3896722 0.390954 0.3928462 0.3938534 0.3949521 0.3959592 0.3968138 0.3980345 0.3998657 0.4021547 0.4048404 0.4069767 0.4106086 0.4145761 0.4175365 0.4218092 0.424617 0.427791 0.4299579 0.431728 0.4330404 0.4336202 0.4345968 0.4362144 0.4388696 0.4428981 0.4491546 0.4562046 0.464628 0.4731734 0.4816273 0.4886163 0.4935299 0.4963987 0.4974669 0.4979857 0.4982604 0.4983825 0.4985656 0.4986266 0.4987792 0.4989013 0.4989929 0.499176 0.499176 0.4992675 0.4994201 0.4994201 0.4994201 0.4996032 0.4996643 0.4996948 0.4997253 0.4997558 0.4997864 0.4998169 0.4998474 0.4999084 0.499939 0.4999695 0.4999695 0.5 0.5 0.5 0.5 0.5 0.5 0.5
0.4928279 0.4925227 0.4920955 0.4917597 0.4913935 0.4910578 0.4906305 0.4903558 0.4899591 0.4896539 0.4892572 0.4889214 0.4886163 0.4883111 0.4879753 0.4873039 0.4864799 0.4854422 0.483611 0.4810169 0.4770799 0.4715559 0.463865 0.455289 0.4459195 0.4377403 0.430904 0.4261124 0.4224196 0.4197339 0.4173839 0.4146371 0.4118904 0.4078923 0.4043826 0.4019715 0.4000488 0.3991027 0.3982177 0.3972716 0.3962034 0.3951962 0.3941586 0.3929378 0.3915949 0.388482 0.3856437 0.383019 0.379082 0.37603 0.3733138 0.3708112 0.3694073 0.3682171 0.3675456 0.3670573 0.3668742 0.3648599 0.3629677 0.3611671 0.3597327 0.3579625 0.3545443 0.3503937 0.3465177 0.3425807 0.3388268 0.3348898 0.3309223 0.3266801 0.3226515 0.3184093 0.3142892 0.3101386 0.3066593 0.3027223 0.2994567 0.2960386 0.2909418 0.2860892 0.2816334 0.2776964 0.2742172 0.2709211 0.2678386 0.2647867 0.2608191 0.2569737 0.2541049 0.2506256 0.2478179 0.2458646 0.2447659 0.2447049 0.2451321 0.2460477 0.2471159 0.2486724 0.2506562 0.2527925 0.255112 0.2579808 0.2610328 0.2644815 0.2686016 0.2733321 0.2787035 0.2836782 0.2873405 0.2903925 0.2930782 0.2968016 0.3010743 0.3065068 0.3117866 0.3167308 0.3208509 0.3245437 0.3279924 0.330373 0.3324483 0.3345541 0.3369651 0.3393762 0.3416041 0.3437405 0.3454495 0.3481353 0.350882 0.3544223 0.3568638 0.3592749 0.3600684 0.3617164 0.3631814 0.36428 0.364982 0.3654093 0.3657755 0.366569 0.3676982 0.3702313 0.3728255 0.3758164 0.378319 0.3817677 0.3846365 0.3856437 0.3874443 0.3881157 0.3882073 0.3880852 0.387841 0.3880852 0.3887566 0.3890924 0.3881157 0.3879937 0.3882378 0.3887566 0.3900079 0.390191 0.3919002 0.3926936 0.3935787 0.3945553 0.3954099 0.3962339 0.3969359 0.3974852 0.3977599 0.3979735 0.3982787 0.3986144 0.3997131 0.4011781 0.4027651 0.4029482 0.4041079 0.4043216 0.4048099 0.4055729 0.4072209 0.4092962 0.4115241 0.4129891 0.4155222 0.4173534 0.4176891 0.4187267 0.4190319 0.4193676 0.4199475 0.4204663 0.4208936 0.421443 0.4220533 0.4226332 0.4233657 0.424617 0.4266313 0.4286761 0.4303851 0.4316975 0.4329183 0.4350546 0.4383813 0.4426845 0.4477812 0.4534884 0.46005 0.4663676 0.4725325 0.4778429 0.4820546 0.4857779 0.48825 0.4902338 0.4911494 0.4920344 0.4922175 0.4925227 0.4925838 0.4927669 0.4929805 0.4930416 0.4932552 0.4932857 0.4934383 0.4935299 0.493713 0.493774 0.4939572 0.4942318 0.4943539 0.4945065 0.4946896 0.4948422 0.4950864 0.4952084 0.4953915 0.4955747 0.4957578 0.4958799 0.4960935 0.4962156 0.4963987 0.4966734 0.4967649 0.4969481 0.4970701 0.4972838 0.4973448 0.4975584 0.49765 0.4978026 0.4979247 0.4981078 0.4981688 0.4982299 0.4983825 0.498413 0.4985045 0.4985656 0.4986266 0.4986571 0.4988098 0.4988708 0.4989623 0.4989929 0.4989929 0.4990539 0.4990234 0.4990539 0.4990844 0.4991454 0.499298 0.4992065 0.499298 0.499298 0.499298 0.4992675 0.4992675 0.4992675 0.499176 0.499237 0.499237 0.4991454 0.4991454 0.4991149 0.4990844 0.4990844 0.4990539 0.4990234 0.4990234 0.4989929 0.4989623 0.4989318 0.4989013 0.4988708 0.4988098 0.4987792 0.4988098 0.4987487 0.4987182 0.4987182 0.4987182 0.4986571 0.4986571 0.4985961 0.4985351 0.4985656 0.498474 0.498413 0.4983825 0.4982299 0.4978026 0.496826 0.494476 0.4903558 0.4845572 0.4773546 0.4704266 0.4635293 0.4584936 0.4545566 0.4520845 0.4499481 0.4481475 0.4466825 0.4447293 0.4428676 0.4393579 0.4350241 0.4304767 0.4268754 0.4248611 0.423793 0.4235488 0.4226027 0.4214735 0.4188793 0.4162852 0.4141183 0.4129586 0.411341 0.4095099 0.4065189 0.4039858 0.4024599 0.4014222 0.4009644 0.4005066 0.3998962 0.3993164 0.3985534 0.3978209 0.3953794 0.3929683 0.3909846 0.3879631 0.3855826 0.382195 0.3790514 0.3758774 0.372856 0.3702313 0.3678203 0.3657755 0.3636086 0.3617164 0.3606788 0.3601599 0.3598242 0.3595495 0.3593359 0.3593664 0.3597937 0.3600989 0.3597937 0.3583898 0.3570469 0.3552463 0.3536288 0.3515534 0.3486236 0.3462125 0.3443814 0.3427028 0.340597 0.3380028 0.3354087 0.333608 0.3326924 0.3322041 0.3321431 0.3321736 0.3315937 0.3307697 0.3301593 0.3293353 0.3287249 0.327382 0.3264359 0.3246658 0.3228041 0.3205762 0.3187145 0.3175853 0.3169749 0.317097 0.3178905 0.3191418 0.32021 0.321095 0.3216444 0.3226515 0.3235366 0.3246963 0.3259171 0.3271684 0.3281755 0.3294574 0.3308918 0.3329061 0.3349814 0.3373314 0.3392541 0.3409937 0.3425502 0.3442593 0.3459989 0.3476775 0.3499664 0.3525606 0.3559177 0.3593054 0.3633034 0.3664469 0.3695599 0.371269 0.3745651 0.3773729 0.3812794 0.3838735 0.386956 0.3879937 0.3898553 0.3908625 0.3917475 0.3926936 0.3938534 0.3949216 0.3969969 0.3991943 0.40188 0.4040163 0.4074956 0.4114326 0.4142404 0.4188183 0.4215345 0.4249527 0.4272417 0.4294085 0.4310261 0.4318196 0.4327962 0.4341085 0.4361838 0.4392663 0.4440884 0.449704 0.4566014 0.4646585 0.4731734 0.4816883 0.4888299 0.4939877 0.4963682 0.4975584 0.4978331 0.4981383 0.4982299 0.498474 0.4985961 0.4987182 0.4987792 0.4989318 0.4990844 0.4991454 0.4992065 0.4993591 0.4994201 0.4994201 0.4996032 0.4996643 0.4996948 0.4996948 0.4997558 0.4997864 0.4997864 0.4998169 0.4998474 0.499939 0.4999695 0.4999695 0.5 0.5 0.5 0.5 0.5 0.5
0.4919734 0.4916072 0.4911799 0.4907831 0.4904169 0.4898675 0.4895318 0.4891351 0.4887383 0.4883721 0.4879753 0.4875175 0.4870597 0.4865104 0.4856864 0.484374 0.4824818 0.4795215 0.4755234 0.470091 0.4628578 0.4542819 0.4450955 0.4360618 0.4277605 0.4213209 0.4166209 0.4138131 0.4117073 0.4101202 0.408991 0.4070073 0.4047488 0.4012086 0.3978514 0.3957761 0.3944027 0.3933956 0.3926631 0.3917781 0.3909846 0.3899774 0.3890313 0.387841 0.3866508 0.3835683 0.3804248 0.377617 0.3733748 0.3697125 0.3663248 0.3632424 0.3609534 0.3588781 0.3569249 0.3553989 0.3540255 0.3513093 0.3489593 0.3479522 0.3470061 0.3465788 0.3441983 0.3413905 0.3381554 0.3351645 0.332021 0.3282671 0.3244522 0.3206067 0.3164256 0.3124275 0.3081853 0.3038821 0.3000671 0.2961301 0.2926814 0.2893243 0.2847159 0.2804126 0.2762925 0.2726607 0.2695782 0.2665263 0.2636269 0.2611549 0.2571263 0.2537386 0.2507172 0.2474211 0.2447049 0.2429958 0.2416835 0.2418971 0.2425075 0.2435757 0.2447964 0.2465666 0.2483977 0.2509308 0.2534945 0.2563938 0.2596899 0.2632302 0.2672587 0.2718062 0.2769639 0.2823048 0.2867301 0.290362 0.2934444 0.2968321 0.3008606 0.3058963 0.3114509 0.3166392 0.3211561 0.3252152 0.3287554 0.3315937 0.3340353 0.336019 0.3381554 0.3404138 0.343069 0.3455106 0.3474028 0.3499664 0.3528047 0.3565586 0.3590917 0.3617469 0.3625404 0.3639748 0.3653177 0.3665995 0.3675762 0.3683391 0.3686748 0.3690716 0.3701093 0.3725508 0.3751755 0.378258 0.3806995 0.3843008 0.3870781 0.3882683 0.3903436 0.3912897 0.3918086 0.3921443 0.3923885 0.3931514 0.394067 0.3946774 0.3939144 0.3937923 0.3937923 0.3938534 0.3945553 0.3940365 0.3951657 0.395593 0.3963865 0.3973936 0.3982177 0.3990417 0.4001099 0.4008729 0.4014832 0.4020021 0.4024599 0.4030397 0.4044436 0.4060307 0.4075566 0.4076177 0.4086248 0.4086858 0.4092962 0.4099371 0.4116157 0.4137215 0.4157969 0.4174449 0.419917 0.4216566 0.4219313 0.4229689 0.4233046 0.4236709 0.4242508 0.424678 0.4251969 0.4257157 0.426204 0.4268754 0.4277605 0.429378 0.4314533 0.4335897 0.4351767 0.4367027 0.4387475 0.4417689 0.4462247 0.4513825 0.4576695 0.4640176 0.4707929 0.4765306 0.4816273 0.4854422 0.4882805 0.4902643 0.4915461 0.4922786 0.4928279 0.4929805 0.4931942 0.4934078 0.4934383 0.4936214 0.493713 0.4939266 0.4939266 0.4940487 0.4941708 0.4943234 0.4944455 0.4946591 0.4946896 0.4949948 0.4950253 0.4951474 0.4953 0.4954831 0.4956662 0.4958188 0.4959409 0.4961545 0.4962461 0.4964903 0.4965818 0.4968565 0.4969481 0.4970701 0.4972227 0.4973448 0.4975584 0.4976805 0.4978637 0.4979552 0.4980162 0.4981688 0.4982909 0.498352 0.4984435 0.4985351 0.4985961 0.4986571 0.4988098 0.4988708 0.4988708 0.4989623 0.4991149 0.4991454 0.499176 0.499237 0.4992675 0.499298 0.4992675 0.499298 0.4993286 0.4994201 0.4994507 0.4995117 0.4995117 0.4994507 0.4994201 0.4994507 0.4994201 0.4993896 0.4993591 0.4993591 0.4993591 0.4992675 0.4992675 0.4992675 0.4992675 0.4992065 0.4992065 0.499237 0.499176 0.4991454 0.4991149 0.4990539 0.4990234 0.4989013 0.4989013 0.4989013 0.4988708 0.4988708 0.4988403 0.4988708 0.4988403 0.4988403 0.4988098 0.4987792 0.4987792 0.4987792 0.4987182 0.4988098 0.4987487 0.4987182 0.4986266 0.498352 0.4975279 0.4955747 0.4918208 0.4861747 0.4789721 0.4712812 0.4645059 0.4588293 0.4551975 0.4525728 0.4507111 0.4490325 0.4474455 0.445889 0.4430202 0.4392053 0.4344137 0.4302631 0.4274553 0.4260514 0.4258378 0.4250442 0.4240066 0.421565 0.4187878 0.4164988 0.4150644 0.4132027 0.4114326 0.4084417 0.4057254 0.4039248 0.4026124 0.4021242 0.4016358 0.4009949 0.4004151 0.3997436 0.3991332 0.3966001 0.3943112 0.392419 0.389367 0.3869255 0.3835073 0.3804553 0.3772813 0.3744125 0.3721541 0.369682 0.3680339 0.3660807 0.3646158 0.3636391 0.3632119 0.3628456 0.3627541 0.3633034 0.3639138 0.3644021 0.3639748 0.3628456 0.3609229 0.3591222 0.3572911 0.3557041 0.3532625 0.3509736 0.3486846 0.3466398 0.3441983 0.3415736 0.3386132 0.3364463 0.3351645 0.3345846 0.3344626 0.3341268 0.3339742 0.3328145 0.3319294 0.3309528 0.3299152 0.3286639 0.3271379 0.3255509 0.3236282 0.3211866 0.3192944 0.3177684 0.3167613 0.3166087 0.3168528 0.3177379 0.3183483 0.3192334 0.319447 0.3199353 0.3206678 0.3215834 0.3225905 0.3234145 0.3243911 0.3250321 0.3263139 0.3278398 0.330434 0.3327534 0.3353476 0.3373314 0.3390099 0.3406275 0.3423366 0.3440457 0.3458768 0.3482879 0.3508515 0.3544223 0.3578099 0.3615638 0.3643411 0.3670878 0.3690106 0.3718489 0.3748093 0.3785937 0.3811268 0.3841482 0.3852469 0.3869255 0.3880242 0.3890008 0.3900079 0.3910761 0.3923274 0.3943112 0.3967527 0.3991943 0.4013001 0.4048404 0.4085332 0.4114326 0.4159495 0.4186657 0.422206 0.4245559 0.4269975 0.4289202 0.4298053 0.4309345 0.4320942 0.4339865 0.4368248 0.4407618 0.4453397 0.4511384 0.4579442 0.4651163 0.4732955 0.4814442 0.4890741 0.4939572 0.4964292 0.4974364 0.4978942 0.4980468 0.4982299 0.498352 0.4985351 0.4986571 0.4987792 0.4989013 0.4989929 0.4992065 0.499237 0.4993286 0.4993896 0.4994507 0.4995727 0.4996338 0.4996948 0.4996948 0.4997253 0.4997864 0.4998169 0.4997864 0.4998779 0.499939 0.5 0.5 0.5 0.5 0.5 0.5 0.5
0.4911188 0.4906 0.4901422 0.4896539 0.4892266 0.4887994 0.4882805 0.4878227 0.4873344 0.4869377 0.4863578 0.485839 0.4850149 0.4837637 0.4816578 0.4787279 0.4746078 0.4689312 0.4620033 0.4535494 0.4436001 0.4341085 0.4251663 0.4178417 0.4120125 0.4080144 0.4054508 0.4041384 0.4032839 0.4027956 0.4020021 0.4001709 0.3982787 0.3950436 0.3922053 0.3903742 0.3889397 0.3882988 0.3874138 0.3865592 0.3857962 0.3847281 0.383782 0.3825612 0.3812183 0.3781053 0.3747787 0.3718794 0.3675762 0.3640664 0.3608924 0.3578099 0.3552768 0.3527132 0.3500275 0.3474638 0.3447781 0.340719 0.3373009 0.3350729 0.3338827 0.3334554 0.3314411 0.3293048 0.3275652 0.3256424 0.3237502 0.3210035 0.317921 0.3142282 0.3102606 0.3062931 0.3023256 0.298297 0.29436 0.2903315 0.2866081 0.2831899 0.2786425 0.2744003 0.2706769 0.2675639 0.2650003 0.2625588 0.2599951 0.2575535 0.2541049 0.2506562 0.2479705 0.2445828 0.2422023 0.2404627 0.2393945 0.2396997 0.2403406 0.2415919 0.2431789 0.244827 0.2470549 0.2494049 0.2524263 0.2556614 0.2588049 0.2624367 0.2664347 0.2706769 0.2758957 0.2814503 0.2866691 0.2908198 0.2940548 0.2973204 0.3009827 0.30611 0.3114509 0.3169139 0.3217665 0.3261002 0.3298846 0.3331502 0.3357749 0.3379112 0.3400171 0.3421229 0.3446255 0.3473417 0.3494171 0.3525301 0.3551547 0.358756 0.3614417 0.3645853 0.3652261 0.3667216 0.3678508 0.3689801 0.3702313 0.3714216 0.3721235 0.3725508 0.3731612 0.3753891 0.3778002 0.3808826 0.3832326 0.3867424 0.3895807 0.390893 0.3929073 0.3942501 0.3950436 0.3958982 0.3965696 0.3975462 0.3987365 0.3996215 0.3990112 0.3992553 0.39953 0.4000183 0.4005066 0.3997436 0.3999268 0.3998352 0.3998657 0.4004151 0.4009949 0.4017274 0.4025819 0.4035891 0.4045047 0.4052677 0.4059696 0.4068852 0.4086553 0.410517 0.4122566 0.4125313 0.4133248 0.4135995 0.4139657 0.414515 0.4160715 0.4179943 0.4200696 0.4215955 0.4239761 0.4257157 0.426143 0.427028 0.4274248 0.4279131 0.4283403 0.4287371 0.4293475 0.4298663 0.4304767 0.4311787 0.4323689 0.434139 0.4366111 0.438839 0.4404261 0.4425319 0.4455228 0.4496124 0.4554111 0.4617592 0.4686565 0.4746994 0.4802845 0.484374 0.4877617 0.4898065 0.4914545 0.4924006 0.4931636 0.4934689 0.493713 0.4938045 0.4939877 0.4942318 0.4942013 0.4942623 0.4944455 0.4945675 0.4946591 0.4947812 0.4949033 0.4950559 0.495239 0.495361 0.4954221 0.4956357 0.4956662 0.4958493 0.4959104 0.4961545 0.4962766 0.4965208 0.4966123 0.4967039 0.4969481 0.4970701 0.4972532 0.4973753 0.4974669 0.4976805 0.4977721 0.4978942 0.4979857 0.4981383 0.4983214 0.498413 0.4985351 0.4986266 0.4986877 0.4988403 0.4989318 0.4990234 0.4990234 0.499176 0.4992065 0.4992675 0.4993591 0.4994507 0.4994507 0.4995117 0.4995117 0.4995727 0.4996032 0.4996032 0.4996338 0.4996948 0.4997253 0.4997253 0.4997253 0.4997253 0.4997558 0.4997558 0.4997558 0.4997558 0.4997253 0.4996948 0.4996948 0.4996032 0.4995422 0.4995117 0.4995422 0.4995422 0.4995117 0.4994812 0.4994507 0.4993896 0.4993896 0.4993591 0.4993286 0.499298 0.499237 0.499237 0.499176 0.4991149 0.4990539 0.4990539 0.4990539 0.4989929 0.4989929 0.4990234 0.4989623 0.4989623 0.4989623 0.4988403 0.4988708 0.4988708 0.4987792 0.4988098 0.4988098 0.4987182 0.4983825 0.4975584 0.4956968 0.4924312 0.4871818 0.4806201 0.473326 0.4663981 0.4605689 0.4561436 0.4531832 0.4508942 0.4489715 0.4475371 0.4453702 0.4421351 0.4375267 0.4330098 0.4291339 0.4274248 0.4266923 0.4261124 0.4251663 0.4229689 0.4203748 0.4178112 0.4161631 0.4144235 0.4126534 0.4096319 0.4068547 0.4049319 0.4037417 0.4030702 0.4024904 0.4019105 0.4014222 0.4006898 0.4001099 0.3977904 0.3955625 0.3937313 0.3906794 0.3882073 0.3846365 0.3818592 0.3787768 0.3761216 0.374321 0.3723677 0.3706281 0.3688579 0.3674846 0.3669047 0.3667521 0.3670573 0.3673015 0.3677898 0.3680034 0.3679118 0.3666606 0.3651041 0.3629372 0.3614722 0.3599463 0.3581151 0.3554904 0.3531099 0.3507904 0.3484405 0.3452969 0.3423671 0.3395288 0.3380638 0.3372398 0.3368736 0.336782 0.3360496 0.3353476 0.3339437 0.3331197 0.3318379 0.3305866 0.3289691 0.3269243 0.3245743 0.3221327 0.3200879 0.3183483 0.3172191 0.3164561 0.316395 0.3168528 0.3176158 0.3176463 0.3177989 0.317982 0.3186229 0.3191723 0.3196301 0.32021 0.3203321 0.3211561 0.3220106 0.3240249 0.3259476 0.328847 0.331258 0.333547 0.3353171 0.3371788 0.3387658 0.340597 0.342245 0.3440457 0.3464567 0.3492034 0.3527742 0.3560093 0.359458 0.36193 0.3644021 0.3659281 0.3688274 0.3717878 0.3754502 0.3780443 0.3810962 0.3823476 0.3840261 0.3852164 0.386193 0.3872612 0.3881463 0.3894281 0.3913203 0.3935482 0.3961423 0.3980956 0.4015138 0.4052371 0.4078923 0.4124703 0.4151865 0.4188183 0.4212293 0.423915 0.4260514 0.4269364 0.4281572 0.4292865 0.4311481 0.4337728 0.4374657 0.4417079 0.4468962 0.4529085 0.4590429 0.4659708 0.4736922 0.4822377 0.4892877 0.4941097 0.4964292 0.4973753 0.4977721 0.4979857 0.4981383 0.4983214 0.4985045 0.4985656 0.4987792 0.4988708 0.4989929 0.4991454 0.4992675 0.4993286 0.4993591 0.4994507 0.4995727 0.4996032 0.4996643 0.4996948 0.4997558 0.4997864 0.4997864 0.4998474 0.4998779 0.499939 0.5 0.5 0.5 0.5 0.5 0.5
