0.2152231 0.2266984 0.2349997 0.2406153 0.2442166 0.2470244 0.2497101 0.2515717 0.2537692 0.2562107 0.2586523 0.260514 0.2623451 0.2640237 0.2659769 0.2680523 0.2711042 0.2750412 0.2800769 0.2853262 0.2903315 0.2942379 0.2978697 0.3008912 0.3048587 0.3089788 0.3141671 0.3191723 0.3245743 0.3298846 0.3354697 0.339895 0.3433132 0.3452969 0.3470061 0.3482268 0.349295 0.3499359 0.3505768 0.3513703 0.352469 0.3541781 0.3559788 0.357932 0.3597021 0.3616859 0.36428 0.3684917 0.3748093 0.3835989 0.3959897 0.4111884 0.4284014 0.4442105 0.4572117 0.4661539 0.4726546 0.4778429 0.4820851 0.485961 0.4895624 0.4931331 0.4966429 0.4998169 0.5021363 0.5033571 0.5026857 0.5006714 0.4981688 0.4956968 0.4936825 0.4922786 0.4894708 0.4875786 0.4850455 0.4838552 0.4825124 0.4812611 0.4783007 0.4754624 0.4713117 0.4674968 0.4632241 0.4605994 0.4572728 0.45535 0.449704 0.4423793 0.430904 0.4183605 0.403467 0.3880547 0.3708112 0.3550632 0.3420924 0.3303424 0.3223158 0.3170665 0.3117256 0.307697 0.3026613 0.2993347 0.295123 0.292834 0.2912165 0.2902094 0.2881646 0.2845328 0.2797717 0.2754074 0.2724165 0.2705548 0.2693646 0.2678691 0.2659464 0.262986 0.2593542 0.2555393 0.251999 0.2489776 0.246414 0.2445828 0.2429347 0.2420497 0.240951 0.2411036 0.2410731 0.2420497 0.2423854 0.2426296 0.2419886 0.2400659 0.237777 0.2348166 0.2321309 0.2290179 0.2256913 0.2209608 0.2149484 0.2083562 0.2021913 0.1973082 0.1941342 0.1916926 0.1903498 0.1886101 0.1869621 0.184429 0.1811329 0.1767076 0.1714277 0.1663004 0.1620582 0.1591894 0.1572362 0.1555271 0.1533602 0.1501556 0.146707 0.1427089 0.1393518 0.1360862 0.1338277 0.1321187 0.131142 0.130318 0.1295855 0.1287005 0.1275102 0.12632 0.1251297 0.1237258 0.122444 0.120918 0.1197583 0.118507 0.1172252 0.1155771 0.1133797 0.110633 0.1061771 0.1000732 0.09204663 0.08371483 0.07504731 0.0664103 0.05685772 0.04666422 0.03656229 0.02710126 0.01834218 0.01138375 0.006317524 0.003235061 0.001312336 0.0005798694 0.0001525972 0.0000610389 0.0000305194 0 0 0 0 0 0 0 0 0 0 0 0 0 0 0 0 0 0 0 0 0 0 0 0 0 0 0 0 0 0 0 0 0 0 0 0 0 0 0 0 0 0 0 0 0 0 0 0 0 0 0 0 0 0 0 0 0 0 0 0 0 0 0 0 0 0 0 0 0 0 0 0 0 0 0 0 0 0 0 0 0 0 0 0 0 0 0 0 0 0 0 0 0 0 0.0000305194 0.0001831166 0.0006103888 0.002624672 0.00875908 0.02188244 0.03647073 0.05179149 0.06134408 0.06897394 0.0742538 0.07898431 0.08353171 0.089483 0.09537325 0.1002869 0.1038577 0.1070317 0.1116401 0.1172557 0.1227492 0.1287005 0.13337 0.1373375 0.1390771 0.1400842 0.1409388 0.1418238 0.1429836 0.1439907 0.1446927 0.1450284 0.1451199 0.145181 0.1452115 0.1454557 0.1458829 0.1467375 0.1477446 0.1488738 0.1499725 0.1509492 0.1522004 0.1532381 0.1545504 0.1558628 0.1572362 0.1587316 0.160044 0.1613563 0.1624245 0.16334 0.1640115 0.1645913 0.1650491 0.1655374 0.1662394 0.1670024 0.1680095 0.1693524 0.1709699 0.1732894 0.1764939 0.1806446 0.1856192 0.1912653 0.1971556 0.2028017 0.2076848 0.2114692 0.2141854 0.2158335 0.2167796 0.2168711 0.2167186 0.2161082 0.2156504 0.2151621 0.2145822 0.2137276 0.2125069 0.211164 0.2096075 0.2082647 0.2067997 0.2058536 0.2053653 0.2053348 0.2052738 0.2046939 0.2042361 0.2037173 0.2034731 0.2028017 0.2009705 0.1976744 0.1918757 0.1832692 0.1725264 0.1617225 0.1504914 0.1402979 0.130318 0.1215284 0.1092901 0.09287066 0.07751938 0.06372459 0.05676616 0.05215772 0.05063175 0.04892267 0.04764085 0.04620643 0.04480254 0.04352072 0.04229994 0.04141488 0.04037722 0.03915644 0.03750839 0.03531099 0.03262528 0.02981749 0.02658243 0.02365257 0.02020387 0.01718245 0.01400842 0.01168895 0.00982726 0.008575963 0.007782457 0.007233107 0.006592199 0.00601233 0.005310383 0.004547397 0.003753891 0.002929866 0.002227919 0.001556491 0.001007142 0.0006409083 0.0003662333 0.0002136361 0.0001525972 0.0001831166 0.0003051944 0.0004883111 0.0007019471 0.0009766221 0.001251297 0.001525972 0.001800647 0.002044803 0.002258439 0.002441555 0.002563633 0.002685711 0.002777269 0.002929866 0.003235061 0.003967527 0.006439602 0.01031557 0.01620582 0.02243179 0.02801685 0.03317463 0.03778307 0.04153696 0.04388696 0.04504669 0.04550449 0.04565708 0.04562657 0.04562657 0.0456876 0.04590124 0.04629799 0.04684734 0.04748825 0.0481902 0.04883111 0.04931942 0.04977721 0.05011292 0.0503876 0.05063175 0.05078435 0.05087591 0.05093694 0.05087591 0.05084539 0.05072331 0.05060123 0.05047916 0.05035708 0.05026552 0.05017396 0.05005188 0.04999084 0.04989929 0.04977721 0.04965513 0.04953305 0.04934993 0.0491363 0.04889214 0.04858695 0.04828176 0.04776292 0.04724409 0.04666422 0.04617591 0.04571812 0.04544345 0.04522981 0.04510773
0.2121101 0.2242263 0.2329854 0.2391198 0.2428737 0.2458036 0.2487334 0.2506562 0.252762 0.2548984 0.2573704 0.2594763 0.2614906 0.2631386 0.2650003 0.2667399 0.2693036 0.2724776 0.2769639 0.2816944 0.2870659 0.2916438 0.2956724 0.2986633 0.302112 0.3056827 0.3102606 0.3150217 0.3203321 0.3257035 0.3314411 0.3365989 0.3408106 0.3432522 0.3451444 0.3465788 0.3480742 0.3491424 0.3500275 0.3506989 0.3513398 0.3524385 0.3537813 0.3554904 0.3572301 0.3589697 0.3609534 0.3636697 0.3679424 0.374321 0.3841787 0.3970884 0.4134774 0.430965 0.4473845 0.4596838 0.4684734 0.4748214 0.4794299 0.4834279 0.4869072 0.4906 0.4941403 0.4977416 0.5002747 0.5016481 0.5009766 0.499298 0.4969786 0.4945675 0.492065 0.4900507 0.4868156 0.4846793 0.4820546 0.4804981 0.47885 0.4774156 0.4747604 0.4723799 0.4689312 0.465391 0.4609656 0.4579137 0.454404 0.4517793 0.4454618 0.437191 0.4247391 0.4112189 0.3953183 0.3792346 0.3617469 0.3459989 0.3327534 0.3212782 0.3134652 0.3080632 0.3027834 0.2983581 0.2933834 0.2898737 0.2861503 0.2835561 0.2818165 0.2800769 0.2780016 0.2746444 0.2713178 0.268449 0.2668315 0.2654581 0.2638711 0.2617347 0.2593847 0.2565769 0.253464 0.2501984 0.2470854 0.2440335 0.2415919 0.2396387 0.2381127 0.2370445 0.2362205 0.2364341 0.2365562 0.2373497 0.2375328 0.2372581 0.2361594 0.2336263 0.2313679 0.2284685 0.2259965 0.2227614 0.2187634 0.2131783 0.2067082 0.2006348 0.1956296 0.1918757 0.1893121 0.1872368 0.1856192 0.1838491 0.1816517 0.1785998 0.1743881 0.1693219 0.1638589 0.1594336 0.1561375 0.1538485 0.151529 0.1489044 0.1456082 0.1419154 0.1381005 0.1345602 0.1318135 0.1293719 0.1277544 0.1267167 0.1259232 0.1251602 0.1242752 0.1232985 0.1218946 0.1206128 0.1190258 0.1174693 0.1160349 0.1146615 0.1132576 0.1117927 0.1099005 0.1078557 0.1047427 0.1007142 0.09430507 0.08664469 0.07764146 0.06882134 0.05945187 0.04971617 0.03958371 0.02972594 0.02090582 0.01352011 0.007965574 0.004120125 0.001922725 0.0007019471 0.0002136361 0.0000610389 0 0 0 0 0 0 0 0 0 0 0 0 0 0 0 0 0 0 0 0 0 0 0 0 0 0 0 0 0 0 0 0 0 0 0 0 0 0 0 0 0 0 0 0 0 0 0 0 0 0 0 0 0 0 0 0 0 0 0 0 0 0 0 0 0 0 0 0 0 0 0 0 0 0 0 0 0 0 0 0 0 0 0 0 0 0 0 0 0 0 0 0 0 0 0 0 0 0 0.0000610389 0.0002136361 0.00161753 0.006348044 0.01751816 0.03137399 0.04672527 0.05716291 0.0653116 0.07065251 0.0759934 0.08160898 0.08820118 0.09461027 0.09992065 0.1039797 0.1084051 0.1137154 0.1202466 0.1258927 0.1316303 0.1355368 0.1385888 0.1397485 0.140542 0.1416102 0.1427394 0.1439907 0.1446621 0.1450589 0.1451199 0.145181 0.1453031 0.1455167 0.1461576 0.1469511 0.1481109 0.1491485 0.1502777 0.1513764 0.1524751 0.1537875 0.1550998 0.1566868 0.1579991 0.1594336 0.1607764 0.1619667 0.1630959 0.1639504 0.1646524 0.1651407 0.1655985 0.1660868 0.1668498 0.1678264 0.1692608 0.1710615 0.173503 0.1764939 0.180492 0.1854056 0.1908991 0.1966978 0.2023744 0.2074406 0.2115913 0.2145212 0.216627 0.2177257 0.218153 0.2178478 0.2172069 0.2164133 0.2156809 0.2152231 0.2145822 0.2136971 0.2126289 0.2113777 0.2100348 0.2086004 0.2074712 0.2067997 0.2067082 0.207227 0.2079595 0.2086309 0.2087835 0.2091497 0.2097601 0.2103095 0.2104315 0.2095465 0.2074712 0.202466 0.194653 0.1838796 0.1728621 0.1609595 0.1501251 0.1399622 0.1309284 0.120033 0.1043154 0.08856742 0.07324666 0.06442654 0.0590246 0.05795642 0.05701032 0.05639993 0.05569798 0.05472136 0.05386681 0.05279863 0.05218824 0.05160838 0.0513337 0.05081487 0.04986877 0.04831228 0.04620643 0.04321553 0.04001099 0.03622658 0.03256425 0.02844412 0.02462919 0.02099738 0.01822011 0.01602271 0.01461881 0.01352011 0.01266557 0.01171947 0.01071232 0.009674663 0.008575963 0.007416224 0.006378563 0.005249344 0.004303241 0.003448697 0.002899347 0.002533114 0.002441555 0.002533114 0.00274675 0.003051944 0.003357138 0.003631813 0.003937008 0.004150644 0.004333761 0.004425319 0.004455838 0.004455838 0.004425319 0.004425319 0.004577916 0.004974669 0.006500641 0.009949338 0.01486297 0.02108893 0.0271623 0.0325032 0.03778307 0.04248306 0.04590124 0.04773241 0.04834279 0.04855643 0.04855643 0.04877007 0.04904474 0.04944149 0.04989929 0.05044863 0.05096747 0.05145578 0.05191357 0.0522798 0.05249344 0.05267655 0.05276811 0.05282915 0.05285967 0.05285967 0.05282915 0.05279863 0.05273759 0.05267655 0.05255448 0.05237136 0.05215772 0.05194409 0.05166941 0.05142526 0.05112007 0.05084539 0.05060123 0.05035708 0.05014344 0.04999084 0.04986877 0.04974669 0.04962461 0.04947201 0.0492889 0.04895318 0.04855643 0.04809864 0.04764085 0.04712202 0.04660319 0.04611488 0.0456876
0.208814 0.2212965 0.2305133 0.2373497 0.2414393 0.2445523 0.2475432 0.2497711 0.251938 0.2537692 0.2560581 0.2581029 0.2602698 0.2620704 0.2640847 0.2656412 0.2678386 0.2703412 0.2740951 0.2783678 0.2835561 0.2884087 0.2928951 0.2961912 0.2995483 0.3027223 0.3066899 0.3112678 0.3161814 0.3214918 0.3269243 0.3324788 0.3373009 0.3408106 0.3432522 0.3449612 0.3465483 0.3477385 0.3488067 0.3496612 0.3503632 0.3511872 0.3521028 0.3533846 0.3550021 0.3566502 0.3584508 0.360282 0.3628151 0.3667521 0.3732833 0.3830495 0.3972105 0.4149423 0.4338033 0.4501618 0.4621254 0.4703961 0.4760117 0.4806201 0.4844351 0.4880669 0.4915156 0.4953 0.4981383 0.4998474 0.4992675 0.4974669 0.495239 0.49295 0.4903864 0.4879448 0.4841604 0.4815968 0.4790331 0.477202 0.4754319 0.4734481 0.4707013 0.4687176 0.4659403 0.4629189 0.4584936 0.4551669 0.4514436 0.4477507 0.4404566 0.4310261 0.4179332 0.4032839 0.3862846 0.3696209 0.3523164 0.3358054 0.3220106 0.3104438 0.3033327 0.298297 0.2937801 0.2890496 0.2841055 0.2801074 0.2767503 0.2737594 0.2718367 0.2690594 0.2668009 0.2640847 0.2624061 0.2609717 0.2604224 0.2595068 0.2579503 0.2554172 0.2524263 0.2494354 0.2467192 0.2442776 0.2419276 0.239425 0.2373497 0.2351828 0.2338094 0.2325887 0.2321919 0.2321309 0.232314 0.2325581 0.2324971 0.2315205 0.2298419 0.2271257 0.2247757 0.2219679 0.219038 0.2153147 0.2101569 0.2042361 0.1978575 0.1928523 0.1889459 0.1862601 0.1843374 0.1827199 0.1809192 0.1785998 0.1753647 0.1709394 0.1658426 0.1609595 0.1562901 0.1531466 0.1505524 0.1485076 0.1455777 0.1423427 0.1383141 0.1343466 0.130318 0.1270524 0.1246414 0.1229323 0.1218641 0.1211011 0.1204297 0.1197278 0.1186596 0.1175914 0.116157 0.1149362 0.1133187 0.1119453 0.1104804 0.109107 0.1076116 0.1060245 0.1038271 0.1010804 0.09686871 0.09091742 0.08298236 0.07382653 0.06393823 0.05386681 0.04333761 0.03317463 0.02389672 0.01602271 0.00979674 0.005554538 0.00274675 0.001220778 0.0003967527 0.0001220778 0.0000305194 0 0 0 0 0 0 0 0 0 0 0 0 0 0 0 0 0 0 0 0 0 0 0 0 0 0 0 0 0 0 0 0 0 0 0 0 0 0 0 0 0 0 0 0 0 0 0 0 0 0 0 0 0 0 0 0 0 0 0 0 0 0 0 0 0 0 0 0 0 0 0 0 0 0 0 0 0 0 0 0 0 0 0 0 0 0 0 0 0 0 0 0 0 0 0 0 0 0 0 0.0000305194 0.0000915583 0.0009461027 0.004333761 0.01345907 0.02630776 0.04175059 0.0532259 0.06210706 0.06747849 0.07309406 0.07928951 0.08630898 0.09332845 0.09903558 0.1038882 0.1090765 0.1150278 0.1223219 0.1280901 0.1336446 0.1370628 0.1393823 0.1403589 0.1412134 0.1424953 0.1436245 0.1446927 0.1449673 0.1451199 0.145181 0.1453031 0.1456082 0.1461576 0.1471342 0.1481414 0.1493011 0.1503388 0.1516816 0.1529634 0.1544589 0.1559238 0.1572667 0.1587926 0.160044 0.1615394 0.1626686 0.1636758 0.1643472 0.1647745 0.1650491 0.1654459 0.1661478 0.1673076 0.168803 0.1707257 0.1730452 0.1758835 0.1797595 0.1842459 0.1895562 0.1950497 0.2008484 0.2058841 0.2102789 0.2134224 0.2156809 0.2170848 0.2178783 0.2178172 0.2176341 0.2169627 0.2163218 0.2157114 0.2152231 0.2147043 0.2137887 0.21269 0.2113777 0.2103095 0.2089971 0.2079595 0.207227 0.2075322 0.2083257 0.209638 0.2109199 0.2120491 0.2127815 0.2136056 0.2146432 0.2150095 0.2148874 0.2138497 0.2120185 0.2075017 0.2009705 0.1913874 0.1816822 0.17039 0.1595862 0.1495453 0.1406946 0.1309589 0.116218 0.100409 0.083196 0.07239211 0.06613563 0.06528109 0.06485381 0.06485381 0.06473173 0.06439602 0.06396875 0.0632668 0.06256485 0.0620155 0.06167979 0.06155771 0.06134408 0.06045901 0.05908564 0.0568272 0.05408045 0.05078435 0.0469389 0.04272722 0.03808826 0.03363242 0.02932918 0.02597204 0.02328633 0.02160776 0.02029543 0.01941036 0.01840322 0.0175792 0.01660258 0.01556491 0.01431362 0.01278765 0.01126167 0.00982726 0.008606482 0.007751938 0.007172069 0.006958432 0.006836355 0.006836355 0.006897394 0.006988952 0.00708051 0.007141549 0.007202588 0.007202588 0.00711103 0.006927913 0.006836355 0.006622719 0.006897394 0.007690899 0.00982726 0.01425258 0.02008179 0.02664347 0.0328084 0.03805774 0.04312397 0.04730513 0.05017396 0.05176097 0.05231032 0.05276811 0.0532259 0.05386681 0.05435512 0.05484343 0.05520967 0.0555759 0.05569798 0.05591162 0.05603369 0.05609473 0.05606421 0.05597265 0.05575902 0.05554538 0.05527071 0.05502655 0.05475188 0.05450772 0.0543246 0.05414149 0.05398889 0.05377525 0.05356162 0.05331746 0.05301227 0.05270708 0.05234084 0.05197461 0.05163889 0.05127266 0.05096747 0.05066227 0.05044863 0.05029604 0.05017396 0.0500824 0.04999084 0.04977721 0.04956357 0.04931942 0.04895318 0.04849539 0.047885 0.04724409 0.04657267
0.2053043 0.218214 0.2275835 0.2353049 0.2399438 0.243362 0.2462614 0.2487029 0.2510224 0.252701 0.2548373 0.2568516 0.2590795 0.2608802 0.2630471 0.264573 0.2665568 0.2685711 0.2716841 0.2752243 0.2798328 0.2846243 0.28966 0.2937191 0.2971067 0.3001282 0.3032717 0.3074529 0.3120002 0.3173717 0.3225294 0.3279924 0.3331197 0.3376366 0.340719 0.3429164 0.3444729 0.3459684 0.3472502 0.3485015 0.349295 0.3500885 0.3506989 0.3514619 0.3527132 0.3541476 0.3559788 0.357871 0.3600073 0.3624794 0.3663859 0.3723677 0.3821339 0.3964781 0.4146066 0.434017 0.4507721 0.4635293 0.4716474 0.4773241 0.4818104 0.4855338 0.4889825 0.4924617 0.4954831 0.4973753 0.4971007 0.4952695 0.4932247 0.4911494 0.4886163 0.4859 0.4816578 0.4786974 0.4758897 0.4738753 0.4714949 0.4690533 0.4664591 0.4649026 0.4628578 0.4599585 0.4557468 0.4519929 0.448178 0.443417 0.4350241 0.4241592 0.4098761 0.3938839 0.3762437 0.3588171 0.3412074 0.3245437 0.3111152 0.3005249 0.2938412 0.288134 0.2831594 0.2774522 0.2728438 0.2687542 0.2663737 0.2635049 0.2614295 0.2577367 0.2551425 0.2529451 0.2529146 0.252762 0.2525484 0.2514497 0.2498932 0.248001 0.2456815 0.243362 0.2410731 0.2389672 0.237075 0.2349692 0.2331685 0.2310627 0.2296893 0.2285296 0.2282549 0.2280413 0.2279192 0.2275835 0.2266374 0.2249588 0.2230666 0.2206861 0.2183971 0.2153147 0.2116523 0.2069523 0.2009705 0.194714 0.1889459 0.1851614 0.1823231 0.1807361 0.1789355 0.1773485 0.1749374 0.1719465 0.1675212 0.1622108 0.1569615 0.1525972 0.1492095 0.1469816 0.1446011 0.1417323 0.1378563 0.1338277 0.1294635 0.1260758 0.1229934 0.120796 0.119331 0.1182628 0.1174083 0.1164927 0.1155771 0.1144784 0.1132271 0.1121284 0.110633 0.1093206 0.1077336 0.1064518 0.1050784 0.1036135 0.1019349 0.09967649 0.09696026 0.09296222 0.08685833 0.07855704 0.06869926 0.05786486 0.04699994 0.03640969 0.02658243 0.01803699 0.01150583 0.00656168 0.003479216 0.001525972 0.0006409083 0.0001831166 0.0000305194 0 0 0 0 0 0 0 0 0 0 0 0 0 0 0 0 0 0 0 0 0 0 0 0 0 0 0 0 0 0 0 0 0 0 0 0 0 0 0 0 0 0 0 0 0 0 0 0 0 0 0 0 0 0 0 0 0 0 0 0 0 0 0 0 0 0 0 0 0 0 0 0 0 0 0 0 0 0 0 0 0 0 0 0 0 0 0 0 0 0 0 0 0 0 0 0 0 0 0 0 0 0 0.0000305194 0.0004577916 0.002899347 0.009979857 0.0216688 0.03656229 0.04895318 0.05865837 0.06454862 0.07083562 0.07730574 0.08438625 0.09116157 0.0971739 0.1027284 0.1092596 0.1158518 0.1237869 0.1296466 0.1348654 0.1377648 0.1395349 0.1406031 0.1417933 0.1431667 0.1441433 0.1448758 0.1449979 0.1451199 0.145181 0.1454862 0.1461271 0.1471037 0.1483855 0.1495758 0.1508271 0.1518953 0.1532992 0.1545504 0.1561985 0.1577245 0.1593115 0.1607764 0.1619972 0.1630959 0.1637978 0.1644388 0.164805 0.1652933 0.1658121 0.1666361 0.1677959 0.1696271 0.1717024 0.1745407 0.1778673 0.1821095 0.1873283 0.1926387 0.1981933 0.2028627 0.2075322 0.2110724 0.2140023 0.2160776 0.2172679 0.2177562 0.2179088 0.2174205 0.2169017 0.2161692 0.2156504 0.2151926 0.2145517 0.2137582 0.2126289 0.2115608 0.2102789 0.2093328 0.2084173 0.2080815 0.2084783 0.2098211 0.2116828 0.2134224 0.2149789 0.215925 0.216688 0.2171763 0.2176341 0.2172069 0.2165049 0.2146737 0.2123848 0.2076543 0.2022218 0.1944088 0.1871452 0.1779589 0.1687115 0.1596167 0.1513459 0.1429836 0.1297992 0.1147836 0.09659403 0.08392847 0.07577977 0.07443692 0.07306354 0.07278886 0.07254471 0.07239211 0.0720564 0.07175121 0.07098822 0.07022523 0.06930965 0.06872978 0.06824147 0.06802783 0.06757005 0.06659342 0.06500641 0.06271745 0.05972654 0.05600318 0.05169993 0.04690838 0.04181163 0.03692852 0.03274736 0.02987853 0.02777269 0.02633828 0.02533114 0.02462919 0.02392724 0.02337789 0.0227675 0.021974 0.02108893 0.02011231 0.01873894 0.01724348 0.0153818 0.01370323 0.0120857 0.01089544 0.009949338 0.009399988 0.009125313 0.008972716 0.008881157 0.008820118 0.008698041 0.008606482 0.008545443 0.008575963 0.009308429 0.01086492 0.01385583 0.01925777 0.02563633 0.03210645 0.03787462 0.04245254 0.04703046 0.05081487 0.05316487 0.05472136 0.0557285 0.05685772 0.05804798 0.05914668 0.05994018 0.06039798 0.06055057 0.06058109 0.06036745 0.06003174 0.05963499 0.05914668 0.0587194 0.05835317 0.0579259 0.05765122 0.05725447 0.05688824 0.05655252 0.05618629 0.05585058 0.05551486 0.05527071 0.05502655 0.0547824 0.05459928 0.05438564 0.05414149 0.05389733 0.05359214 0.05328694 0.05276811 0.05224928 0.05166941 0.0511811 0.05072331 0.05044863 0.050235 0.0500824 0.05002137 0.04996032 0.04989929 0.04974669 0.04953305 0.04916682 0.04867851 0.04809864
0.2014893 0.214277 0.2242263 0.2328633 0.2383873 0.2422023 0.244888 0.2475432 0.2500153 0.2516938 0.2535555 0.2554782 0.2576451 0.2596594 0.2619483 0.2635659 0.2653971 0.2671061 0.2695172 0.2725386 0.2764756 0.2809925 0.285784 0.2905146 0.29436 0.2978087 0.3006165 0.3042483 0.3079412 0.3126717 0.3174327 0.3229567 0.3282366 0.3337301 0.3378502 0.3408411 0.3425197 0.3440151 0.3452664 0.3467008 0.3478911 0.3490203 0.3499359 0.3506684 0.3514619 0.3523775 0.3535677 0.3550632 0.3566197 0.3585119 0.3608619 0.3644937 0.3703839 0.3805164 0.3951657 0.4141488 0.4337728 0.451291 0.4638955 0.4725935 0.4785448 0.4825734 0.4860831 0.4894708 0.4925533 0.4945675 0.4945981 0.4927364 0.4909052 0.4887994 0.4866935 0.4838857 0.4793078 0.4757676 0.4726546 0.470152 0.4675884 0.4649637 0.4624306 0.4609046 0.4589514 0.456113 0.4522371 0.4482695 0.4441189 0.4381676 0.4287981 0.4162852 0.4007203 0.383904 0.3656839 0.3477995 0.3293048 0.3124275 0.2991211 0.2893243 0.2828542 0.2765366 0.2714094 0.2657328 0.2617958 0.258225 0.255875 0.2528536 0.2498321 0.2459867 0.2430263 0.2414393 0.2418971 0.2426601 0.2431789 0.2426296 0.2415919 0.240188 0.2384179 0.2367698 0.2349692 0.2335348 0.2320393 0.2305439 0.229201 0.2277971 0.2267594 0.2256607 0.225264 0.224562 0.2239517 0.2228224 0.2206556 0.2181224 0.2154367 0.2132699 0.2107367 0.2075932 0.2029238 0.1973387 0.190777 0.1850394 0.1804309 0.1776842 0.1755783 0.1744491 0.1729231 0.1709394 0.1677654 0.1634316 0.1583043 0.1528719 0.1485992 0.1451505 0.1424648 0.1395349 0.1362693 0.132607 0.128792 0.1251297 0.121742 0.1191479 0.1171031 0.1156992 0.1146615 0.113746 0.1129524 0.1120064 0.1109687 0.1096258 0.1082525 0.1067875 0.1052921 0.1039492 0.1026674 0.1012635 0.09979858 0.09802844 0.09589209 0.09287066 0.08835378 0.08163951 0.07266679 0.06204602 0.05078435 0.03964476 0.02939022 0.02044803 0.01309284 0.007874016 0.004242202 0.002136361 0.0009155832 0.0003357138 0.0000915583 0 0 0 0 0 0 0 0 0 0 0 0 0 0 0 0 0 0 0 0 0 0 0 0 0 0 0 0 0 0 0 0 0 0 0 0 0 0 0 0 0 0 0 0 0 0 0 0 0 0 0 0 0 0 0 0 0 0 0 0 0 0 0 0 0 0 0 0 0 0 0 0 0 0 0 0 0 0 0 0 0 0 0 0 0 0 0 0 0 0 0 0 0 0 0 0 0 0 0 0 0 0 0 0 0 0.0001831166 0.001678569 0.006897394 0.01739608 0.0314045 0.04464994 0.05520967 0.06177135 0.06854667 0.07538302 0.08237197 0.08899469 0.09537325 0.1017823 0.1094122 0.1168589 0.124855 0.130318 0.1345602 0.1369102 0.1384667 0.1399622 0.1415797 0.1430751 0.1440212 0.1445706 0.1447842 0.1450589 0.1453641 0.1461576 0.1471342 0.1483855 0.1495453 0.150766 0.1521089 0.1534212 0.1550082 0.1564427 0.1580907 0.159403 0.1608985 0.1621193 0.1631264 0.1637063 0.164042 0.1642556 0.1644998 0.1651407 0.1663309 0.16804 0.1702069 0.1729842 0.175914 0.1798205 0.1843679 0.1897699 0.1951108 0.200177 0.2046634 0.2084173 0.2116523 0.2141549 0.215864 0.2169932 0.2174815 0.2175731 0.2170848 0.2164744 0.215925 0.2154062 0.2150095 0.2144601 0.2135751 0.2125984 0.2115302 0.2105841 0.209638 0.2092108 0.2091803 0.2099432 0.2113471 0.2134224 0.2157724 0.2172679 0.2183666 0.2186413 0.218977 0.2189465 0.2186718 0.2176341 0.2164744 0.2140939 0.2111945 0.2063725 0.2017945 0.1957822 0.1906549 0.1840933 0.1776232 0.1705121 0.1631264 0.1549777 0.1427699 0.1286394 0.1100836 0.09580053 0.08499664 0.08243301 0.08032717 0.08008301 0.07977782 0.07944211 0.07883172 0.07822133 0.07715315 0.0759934 0.07452847 0.07327718 0.07217848 0.07153757 0.07123238 0.07086614 0.06998108 0.0687603 0.06668498 0.0642129 0.06064213 0.05685772 0.0521272 0.04742721 0.04245254 0.03869865 0.03567722 0.0340597 0.03286944 0.03232009 0.0318623 0.03149606 0.03134347 0.03109931 0.03091619 0.03048892 0.02945126 0.02792529 0.02588049 0.02346945 0.02105841 0.01870842 0.0164805 0.01455777 0.01309284 0.0119331 0.01110908 0.01065128 0.01034609 0.01022401 0.01034609 0.01095648 0.01248245 0.01501556 0.01919673 0.02566685 0.0325032 0.03857657 0.04358176 0.04721358 0.05105902 0.05438564 0.0566746 0.05838369 0.05957395 0.06079473 0.06192394 0.06283953 0.06338888 0.06363303 0.06366356 0.06354147 0.06317525 0.06262589 0.06198499 0.06125252 0.06064213 0.0601233 0.05963499 0.05926875 0.05896356 0.05859733 0.05829213 0.0577733 0.05725447 0.05664408 0.05615577 0.05566746 0.05533174 0.05505707 0.05487395 0.05475188 0.0546298 0.0544772 0.05429409 0.05395837 0.05356162 0.05310383 0.05264603 0.0521272 0.05160838 0.05112007 0.05069279 0.0503876 0.05020448 0.0500824 0.05002137 0.04992981 0.04974669 0.04950253 0.0491363
0.1971251 0.2101264 0.2205335 0.230025 0.2366477 0.241012 0.243362 0.2461393 0.2487334 0.2507783 0.2525484 0.2543795 0.2563023 0.258286 0.2603308 0.2622841 0.2642678 0.2659464 0.267747 0.2702496 0.2734847 0.2776659 0.2820912 0.2870048 0.2911555 0.2950009 0.2977477 0.3010437 0.3042178 0.3084905 0.3130074 0.3180431 0.3231398 0.3285418 0.3335164 0.3375755 0.3402307 0.3420924 0.3434963 0.3449612 0.3462431 0.3474333 0.3484405 0.3492034 0.3500275 0.3507599 0.3516755 0.3528047 0.3541476 0.3557651 0.3575047 0.3597632 0.3628456 0.3683696 0.377495 0.3922053 0.4111274 0.4318806 0.4501312 0.4641091 0.4732039 0.4787585 0.4830617 0.4864494 0.4895624 0.4913325 0.4915766 0.4898675 0.4882805 0.4861747 0.4840688 0.4812 0.4766831 0.4730513 0.4695416 0.4666423 0.4635903 0.4607825 0.4581273 0.4565708 0.4548312 0.452115 0.4484221 0.4441189 0.4393884 0.4321553 0.4212904 0.4069462 0.3899164 0.3717573 0.352408 0.3340658 0.3153269 0.2996704 0.2875847 0.2788866 0.2718977 0.2644815 0.2586523 0.2533114 0.2502594 0.2474516 0.2445828 0.2405237 0.2364952 0.2328939 0.2308796 0.2302692 0.2306965 0.2317036 0.232314 0.2325887 0.232375 0.2320393 0.2311848 0.2305744 0.2295062 0.2285601 0.2272478 0.2259965 0.2249588 0.2240432 0.2234939 0.2226698 0.2219374 0.2208692 0.2195263 0.2175121 0.2145212 0.2116523 0.2085393 0.2059757 0.2026491 0.1988036 0.1932186 0.1869926 0.1807666 0.1759751 0.1725569 0.1704206 0.1688641 0.1674602 0.1652017 0.1619361 0.1574803 0.1524751 0.1477446 0.1433498 0.1402368 0.1373985 0.1346518 0.1312641 0.1274797 0.123268 0.1195446 0.1162485 0.113807 0.1121895 0.1110602 0.1102973 0.1096869 0.1088934 0.1080693 0.1068486 0.1058109 0.1044375 0.1031557 0.1016603 0.1001343 0.09869987 0.09729598 0.09567845 0.09381676 0.09119209 0.08780443 0.0825856 0.07532198 0.06549472 0.05414149 0.04242202 0.03161814 0.02218763 0.01461881 0.00875908 0.004852591 0.002472075 0.0010987 0.0004577916 0.0001220778 0.0000305194 0 0 0 0 0 0 0 0 0 0 0 0 0 0 0 0 0 0 0 0 0 0 0 0 0 0 0 0 0 0 0 0 0 0 0 0 0 0 0 0 0 0 0 0 0 0 0 0 0 0 0 0 0 0 0 0 0 0 0 0 0 0 0 0 0 0 0 0 0 0 0 0 0 0 0 0 0 0 0 0 0 0 0 0 0 0 0 0 0 0 0 0 0 0 0 0 0 0 0 0 0 0 0 0 0 0 0.0000915583 0.001037661 0.004577916 0.01342855 0.02578893 0.03961423 0.05099799 0.05899408 0.06653238 0.07404016 0.08115119 0.08756027 0.09406091 0.1007447 0.1087713 0.1168284 0.1249466 0.1305927 0.134194 0.1362693 0.1378868 0.1394433 0.1410609 0.1421901 0.1429225 0.1433803 0.1436855 0.1442044 0.1448453 0.146066 0.1472563 0.1486602 0.1498505 0.1512544 0.1527803 0.1543673 0.1559849 0.1573582 0.1589758 0.1602881 0.1615699 0.1623329 0.1628823 0.1631264 0.1634011 0.1638589 0.1650186 0.1664836 0.168681 0.1710309 0.1737777 0.1771959 0.1810718 0.1863212 0.191479 0.1968809 0.2010316 0.2050601 0.2082952 0.2112861 0.213453 0.2151926 0.2161387 0.2168406 0.2168406 0.216688 0.2161997 0.215803 0.2154978 0.2149789 0.2143991 0.2134835 0.2124458 0.2113777 0.2105536 0.2099127 0.209577 0.2098211 0.2110114 0.2129036 0.2153452 0.2176341 0.2196789 0.2203809 0.2205945 0.2202283 0.2199841 0.2193432 0.2184887 0.2171458 0.2159556 0.2131783 0.2098822 0.2050296 0.2011842 0.1962095 0.1922725 0.1878472 0.1836965 0.1791796 0.1735946 0.167155 0.1562595 0.1434414 0.1243667 0.1081914 0.09461027 0.09045962 0.08734664 0.0863395 0.08566807 0.08496612 0.08405054 0.08301288 0.08170054 0.08047976 0.07916743 0.07770249 0.07632912 0.07507782 0.07437588 0.07385705 0.07339925 0.07275835 0.07141549 0.06982848 0.06775316 0.0654642 0.06222914 0.05847525 0.05398889 0.04977721 0.04580968 0.04306293 0.04141488 0.0404993 0.04013307 0.03994995 0.03994995 0.03985839 0.03970579 0.0394006 0.03866813 0.03769151 0.03622658 0.03415126 0.03174022 0.02862724 0.02530062 0.02203504 0.01941036 0.01702985 0.01541232 0.01434414 0.01367271 0.01345907 0.01364219 0.01449673 0.0163279 0.01944088 0.02438503 0.03161814 0.03885125 0.04410059 0.04815968 0.05108954 0.05469084 0.05789538 0.05994018 0.06161875 0.06259537 0.06348044 0.06418239 0.06464018 0.06485381 0.06494537 0.06491485 0.06476225 0.06454862 0.06415187 0.06366356 0.06305316 0.06222914 0.06143563 0.06067265 0.06018434 0.0598181 0.05951291 0.05929928 0.05896356 0.05856681 0.05810902 0.05765122 0.05713239 0.05661356 0.05612525 0.05569798 0.05539279 0.05520967 0.05505707 0.05499603 0.0547824 0.05456876 0.0543246 0.05395837 0.05350058 0.05289019 0.05224928 0.05157785 0.05105902 0.05063175 0.05032656 0.05017396 0.05011292 0.05005188 0.04999084 0.04989929
0.1920283 0.2052432 0.2165965 0.2267289 0.2342978 0.2394861 0.2420497 0.2447659 0.247299 0.2496185 0.2513581 0.2532808 0.2549899 0.2569737 0.2587743 0.2608497 0.2628334 0.2646951 0.2662821 0.26851 0.2710737 0.2746444 0.2783373 0.2828542 0.2871879 0.2916438 0.2950925 0.2983581 0.3011658 0.3044925 0.30846 0.3129463 0.3178295 0.3230483 0.3284502 0.3333944 0.3373924 0.3399866 0.3416346 0.3428249 0.3440762 0.3452359 0.3465483 0.3476775 0.3487151 0.3495086 0.3502411 0.3509736 0.3518281 0.3529268 0.3543612 0.3559482 0.3581456 0.3614722 0.3666606 0.3756943 0.3895196 0.4075566 0.4273942 0.445767 0.4606604 0.4708539 0.4782701 0.4829701 0.4863578 0.4878838 0.4878227 0.4862663 0.4849844 0.4830922 0.4811085 0.4783007 0.474089 0.4703961 0.4666423 0.4631325 0.4595007 0.4563877 0.4538851 0.452176 0.4504059 0.4475371 0.444241 0.439541 0.4336507 0.4243728 0.4109138 0.3944333 0.37603 0.3573216 0.3379112 0.3196301 0.3011658 0.2866081 0.2750717 0.2666484 0.2594458 0.2527925 0.2476653 0.2435146 0.2400049 0.2361899 0.2312153 0.2261491 0.2210828 0.2179393 0.2161692 0.2163828 0.2172069 0.2192517 0.2208387 0.2224562 0.2232497 0.2237685 0.2237075 0.2238601 0.2234023 0.2230055 0.2222731 0.2218458 0.2215101 0.2211134 0.2207471 0.2200757 0.2190075 0.2170848 0.2144601 0.2115913 0.2082647 0.2053043 0.2018861 0.1983458 0.1939205 0.1882744 0.1819874 0.1757309 0.1710004 0.1675822 0.1652628 0.1633706 0.1614173 0.1588232 0.1553134 0.1508271 0.1457914 0.141244 0.137429 0.1342245 0.1313557 0.1277544 0.1240005 0.120033 0.1163096 0.1129524 0.110633 0.1087713 0.10752 0.1066044 0.1056888 0.1049564 0.1039492 0.1030336 0.101996 0.1007752 0.09961545 0.09805896 0.09668559 0.09528169 0.09393884 0.09241287 0.09049014 0.08826222 0.08530184 0.08118171 0.07526094 0.06677654 0.05649149 0.04507721 0.03369346 0.02383568 0.01574803 0.009613624 0.005279863 0.002685711 0.001251297 0.0005188305 0.0001525972 0.0000305194 0 0 0 0 0 0 0 0 0 0 0 0 0 0 0 0 0 0 0 0 0 0 0 0 0 0 0 0 0 0 0 0 0 0 0 0 0 0 0 0 0 0 0 0 0 0 0 0 0 0 0 0 0 0 0 0 0 0 0 0 0 0 0 0 0 0 0 0 0 0 0 0 0 0 0 0 0 0 0 0 0 0 0 0 0 0 0 0 0 0 0 0 0 0 0 0 0 0 0 0 0 0 0 0 0 0 0 0 0.0000305194 0.0005798694 0.002990905 0.0100409 0.02078374 0.03439541 0.04651163 0.05591162 0.0643655 0.07266679 0.07980834 0.08621742 0.0929317 0.1002869 0.1087102 0.1168589 0.1243057 0.1297076 0.1325459 0.1345297 0.1364524 0.1382836 0.1399622 0.1408777 0.1414576 0.1418849 0.1423427 0.1431667 0.1442959 0.1458524 0.1471647 0.1486907 0.149881 0.1514069 0.1529329 0.1546115 0.1563206 0.1578465 0.1593115 0.1603797 0.1612342 0.161753 0.1621193 0.1624855 0.1632485 0.1644082 0.1663004 0.1686199 0.1715498 0.1745102 0.1779589 0.1821095 0.1869621 0.1925166 0.1972471 0.2016419 0.2046634 0.207929 0.21034 0.2129341 0.2144296 0.2156809 0.2161692 0.2164439 0.2162302 0.2159556 0.2155283 0.2151926 0.2147348 0.2139718 0.2131783 0.2122017 0.2114387 0.2106452 0.2102484 0.2102789 0.2108588 0.2122322 0.214277 0.2168406 0.2191296 0.2209302 0.2218763 0.2216627 0.2211134 0.220503 0.219862 0.2190075 0.2178478 0.2164744 0.2151926 0.2122322 0.2089666 0.2046328 0.2014283 0.1971556 0.1937374 0.1906855 0.1881829 0.1859244 0.1823842 0.1775621 0.1677959 0.1560154 0.1368797 0.1196057 0.1040713 0.09860831 0.09427455 0.09244338 0.09107001 0.08969664 0.08856742 0.08722456 0.08603431 0.08466093 0.08331807 0.08167002 0.0800525 0.07800769 0.07651224 0.0753525 0.07483367 0.07452847 0.07404016 0.07342978 0.07257523 0.07153757 0.06995056 0.06778368 0.06476225 0.06055057 0.05633889 0.052585 0.05026552 0.04864799 0.0480376 0.04739669 0.04681682 0.04614539 0.04532137 0.04446682 0.04361228 0.04281878 0.04196423 0.04083501 0.03927852 0.0370506 0.03436489 0.03134347 0.02816944 0.02499542 0.02218763 0.02017335 0.01855582 0.01797595 0.01791491 0.01876946 0.02078374 0.02426296 0.03012269 0.03753891 0.0445889 0.04886162 0.0524324 0.05514863 0.05884148 0.06195446 0.06369407 0.06482329 0.06503693 0.06509797 0.06509797 0.06506745 0.06509797 0.06506745 0.06506745 0.06500641 0.06494537 0.06476225 0.06451809 0.06415187 0.063572 0.06290057 0.0621681 0.06149668 0.0609168 0.06039798 0.06015382 0.0598181 0.05957395 0.05932979 0.05896356 0.05850577 0.05789538 0.05725447 0.05658304 0.05606421 0.05563694 0.05533174 0.05514863 0.05505707 0.05496551 0.05490448 0.05475188 0.05453824 0.05417201 0.0536837 0.05310383 0.05234084 0.05160838 0.05090643 0.05050968 0.050235 0.0500824 0.05002137 0.04999084
0.1864128 0.1999939 0.2121406 0.2226393 0.2315205 0.2375023 0.2407373 0.2434231 0.2457731 0.2483977 0.2502594 0.2522432 0.2537386 0.2556309 0.2571568 0.2592627 0.2612769 0.2635354 0.2650613 0.2669841 0.2689068 0.2718367 0.2750412 0.2791308 0.2832509 0.2876762 0.2916133 0.295123 0.298236 0.3011964 0.3046145 0.3081853 0.3125801 0.317158 0.3225294 0.3277483 0.3329671 0.3369041 0.3397424 0.3411768 0.3423366 0.3433132 0.3444729 0.3455716 0.3467008 0.347769 0.3486541 0.3496002 0.3504242 0.3513703 0.3522859 0.3533236 0.3545749 0.3562534 0.3587866 0.3631814 0.3715132 0.3843008 0.4020631 0.4218702 0.441067 0.4566319 0.4685955 0.4764085 0.4812611 0.4833974 0.483489 0.4820851 0.4812 0.4797656 0.4777208 0.4747299 0.4705793 0.4672526 0.4635293 0.4597143 0.4556552 0.4521455 0.449704 0.4477812 0.4461332 0.4433559 0.4397241 0.4335897 0.4251663 0.4127754 0.3968138 0.3784411 0.3592749 0.3404749 0.321034 0.3032412 0.286486 0.2736373 0.2633522 0.2554172 0.248123 0.2420497 0.2369529 0.2327107 0.2275835 0.2222731 0.2161082 0.2107673 0.2062199 0.2037173 0.2024049 0.2023134 0.2030458 0.2050296 0.2075932 0.2105231 0.2130867 0.2149789 0.2163523 0.2169627 0.2171153 0.217451 0.217451 0.2176341 0.2176036 0.2175426 0.2171153 0.216566 0.2152536 0.2128121 0.209577 0.2060367 0.2024965 0.1992614 0.195416 0.1906244 0.184429 0.17744 0.1709089 0.1650491 0.1614173 0.1586706 0.1569005 0.1547641 0.1520479 0.1480498 0.1432277 0.1383141 0.133492 0.1294329 0.1256485 0.1224745 0.1190563 0.1155771 0.1121284 0.1090154 0.1064213 0.1042849 0.10282 0.1017518 0.1010499 0.100409 0.09989013 0.09924922 0.09815052 0.09711286 0.09583104 0.09457975 0.09326741 0.09192456 0.09049014 0.08890313 0.08685833 0.08459989 0.08170054 0.07794665 0.07291094 0.06592199 0.05707135 0.04654215 0.03589086 0.02566685 0.01715193 0.01065128 0.006073369 0.00326558 0.001495453 0.0006714277 0.0002441555 0.0000610389 0 0 0 0 0 0 0 0 0 0 0 0 0 0 0 0 0 0 0 0 0 0 0 0 0 0 0 0 0 0 0 0 0 0 0 0 0 0 0 0 0 0 0 0 0 0 0 0 0 0 0 0 0 0 0 0 0 0 0 0 0 0 0 0 0 0 0 0 0 0 0 0 0 0 0 0 0 0 0 0 0 0 0 0 0 0 0 0 0 0 0 0 0 0 0 0 0 0 0 0 0 0 0 0 0 0 0 0 0 0 0 0.000274675 0.001800647 0.007141549 0.01583959 0.02881035 0.04126228 0.05234084 0.06219862 0.07162913 0.07867911 0.08514924 0.09210767 0.1001343 0.1087408 0.1167063 0.1230544 0.127907 0.1305622 0.1328206 0.1353842 0.1374596 0.1391076 0.1398096 0.1402979 0.1407862 0.1415187 0.1425868 0.1439907 0.1454557 0.1467985 0.148416 0.1498199 0.1517121 0.1531466 0.1548862 0.1563511 0.1579076 0.1592504 0.1602881 0.1608069 0.1612037 0.1616615 0.1627297 0.1642251 0.1665751 0.1691998 0.1720686 0.1752426 0.1783861 0.1829335 0.1877251 0.1929134 0.1975218 0.2011536 0.2043277 0.2067997 0.209638 0.2116523 0.2134224 0.2144906 0.2153452 0.2157419 0.2157724 0.2155588 0.2153147 0.2149179 0.2144296 0.2137582 0.2128731 0.2120185 0.211225 0.2107673 0.2105231 0.2108283 0.2117134 0.2133004 0.2154978 0.2180309 0.2204419 0.22209 0.2227614 0.2224562 0.2216017 0.2208081 0.2203198 0.2194958 0.2185497 0.217451 0.2164439 0.2149789 0.2117744 0.2085088 0.2047549 0.2017945 0.197888 0.1944699 0.1923335 0.1908686 0.1902582 0.188427 0.1856803 0.1783861 0.1685894 0.1499725 0.1312641 0.1133492 0.1061161 0.100531 0.09784533 0.09567845 0.09363364 0.09232131 0.09097845 0.08984923 0.08841482 0.08691937 0.08511872 0.08337911 0.08105963 0.07901483 0.07724471 0.07648171 0.07642068 0.0767564 0.07715315 0.0773973 0.07733627 0.07690899 0.07553562 0.07391809 0.07049991 0.06705121 0.06274797 0.05936031 0.05636941 0.0547824 0.05331746 0.05221877 0.05096747 0.04974669 0.04852591 0.04730513 0.04648111 0.0456876 0.0448941 0.04416163 0.04281878 0.04117072 0.03891229 0.0362571 0.03341879 0.030611 0.028261 0.0260636 0.02472075 0.02395776 0.02420192 0.02618568 0.02993957 0.03637917 0.0434902 0.04974669 0.052585 0.0557285 0.05829213 0.0621681 0.06518953 0.06668498 0.067509 0.06705121 0.06653238 0.06592199 0.06552524 0.06525056 0.06509797 0.06506745 0.06506745 0.06506745 0.06506745 0.06500641 0.06491485 0.06460965 0.06415187 0.06354147 0.06268694 0.06183239 0.06103888 0.06055057 0.06018434 0.06003174 0.05994018 0.05975707 0.05954343 0.0591772 0.05868889 0.05810902 0.05734603 0.05661356 0.05591162 0.05551486 0.05524019 0.05508759 0.05505707 0.05499603 0.05493499 0.05475188 0.05450772 0.05414149 0.05356162 0.05289019 0.05215772 0.0514863 0.05090643 0.05041812 0.050235 0.0500824
0.1803088 0.1943478 0.207288 0.2180614 0.2280413 0.2350607 0.2393945 0.2421107 0.244186 0.2468412 0.2489166 0.251114 0.2526704 0.2545321 0.2559055 0.2577062 0.2594152 0.2617652 0.2636575 0.2657022 0.2671977 0.2694561 0.2721418 0.2755905 0.279497 0.2837087 0.2878899 0.2915827 0.2950314 0.2977477 0.3008606 0.3038821 0.3079412 0.3122749 0.3171275 0.3220717 0.327321 0.332082 0.335958 0.3386132 0.3403833 0.341482 0.3424892 0.3435574 0.3446255 0.3457547 0.3468229 0.3478301 0.3485625 0.349295 0.3500275 0.3507904 0.3517671 0.3529573 0.3544833 0.3568333 0.3609534 0.3680339 0.3798144 0.3955014 0.4139962 0.43243 0.4489104 0.4617286 0.4709455 0.4758897 0.4772325 0.4767747 0.4762864 0.4754319 0.4734481 0.4706403 0.4667338 0.4635293 0.4599585 0.4560825 0.4519319 0.4482695 0.4458585 0.4432949 0.4413722 0.4375572 0.4329793 0.4242508 0.4122871 0.3965086 0.3781664 0.3592138 0.3407801 0.3232009 0.3047671 0.288134 0.2722334 0.2602393 0.2501373 0.2422023 0.235488 0.2301471 0.2256302 0.2204724 0.2142159 0.207288 0.2004212 0.1948971 0.1908991 0.1887933 0.1879692 0.1882439 0.1892816 0.1912959 0.1942562 0.197827 0.2018861 0.2049991 0.2077153 0.2092718 0.2104621 0.2114692 0.2123848 0.2131478 0.2136666 0.2137887 0.2134224 0.2122627 0.2100958 0.2071354 0.2038699 0.2003296 0.1966978 0.1926387 0.1875725 0.1811939 0.1739608 0.1665446 0.1605628 0.1558323 0.1528414 0.1502167 0.1474394 0.1440823 0.1397485 0.1345907 0.1296161 0.1250687 0.1209485 0.1172252 0.1134713 0.1098395 0.1061771 0.1028505 0.1000122 0.09787585 0.09647195 0.09558689 0.0949765 0.09454922 0.09396936 0.09326741 0.09250443 0.0916804 0.09061222 0.08957456 0.08810963 0.08661418 0.0850882 0.08337911 0.08151743 0.07953367 0.07678691 0.07364341 0.0690655 0.063572 0.05582006 0.04696942 0.03692852 0.02700971 0.0183727 0.01147531 0.006744796 0.003570775 0.001709089 0.0007324666 0.0002441555 0.0000610389 0 0 0 0 0 0 0 0 0 0 0 0 0 0 0 0 0 0 0 0 0 0 0 0 0 0 0 0 0 0 0 0 0 0 0 0 0 0 0 0 0 0 0 0 0 0 0 0 0 0 0 0 0 0 0 0 0 0 0 0 0 0 0 0 0 0 0 0 0 0 0 0 0 0 0 0 0 0 0 0 0 0 0 0 0 0 0 0 0 0 0 0 0 0 0 0 0 0 0 0 0 0 0 0 0 0 0 0 0 0 0 0 0 0.0001525972 0.001129219 0.005005188 0.0120857 0.02343893 0.03567722 0.04761033 0.05920772 0.07004212 0.0775499 0.08435573 0.09164988 0.100531 0.1094732 0.1172252 0.1225661 0.1265336 0.1287615 0.1308674 0.1332174 0.1351401 0.1366355 0.1374901 0.1384057 0.1393518 0.1408167 0.1424342 0.1442654 0.1458524 0.1474394 0.1492095 0.1508271 0.1527803 0.1543063 0.156168 0.1575413 0.1589147 0.1597998 0.1604407 0.160868 0.1616615 0.1626991 0.1645303 0.1666361 0.1693219 0.1720686 0.1748459 0.1782641 0.182018 0.1872368 0.1922114 0.1968809 0.1999939 0.2028017 0.2052127 0.2079595 0.2103095 0.2123238 0.2136056 0.2146127 0.2151621 0.2154672 0.2154367 0.2152536 0.2149179 0.2142159 0.2133614 0.2124153 0.2116218 0.2109199 0.2104621 0.2104926 0.2109199 0.2121712 0.2140328 0.2166575 0.2192517 0.2214796 0.2230666 0.2234633 0.2230666 0.2220289 0.2212049 0.2204114 0.2199231 0.218916 0.218214 0.217451 0.2164744 0.2147348 0.2115302 0.2083867 0.2052738 0.2022523 0.1988647 0.1958738 0.194592 0.1936153 0.1931881 0.1919062 0.1902277 0.1855277 0.1782946 0.1619361 0.1428615 0.1231154 0.1132576 0.1060551 0.1030641 0.1008973 0.09860831 0.09671611 0.09488494 0.09323689 0.09161936 0.08981872 0.08774339 0.08582067 0.08374535 0.08203626 0.08054081 0.07980834 0.0800525 0.08081548 0.08188366 0.0825856 0.0825856 0.08221938 0.0809986 0.08026613 0.07794665 0.07559665 0.07150705 0.06760056 0.06308369 0.0599707 0.05728499 0.05533174 0.05380578 0.05234084 0.05093694 0.04950253 0.0481902 0.04696942 0.04602332 0.04544345 0.04498566 0.04464994 0.04400903 0.04278826 0.04107917 0.03866813 0.03586034 0.03311359 0.03091619 0.02972594 0.02945126 0.03189281 0.03656229 0.04376488 0.050235 0.05530123 0.05691876 0.05951291 0.06167979 0.06509797 0.06769212 0.06872978 0.06915705 0.06857719 0.06790575 0.06717329 0.06650186 0.06592199 0.06543368 0.06525056 0.06509797 0.06506745 0.06506745 0.06503693 0.06500641 0.06494537 0.06476225 0.06448758 0.06390771 0.06320576 0.0623207 0.06149668 0.06079473 0.06036745 0.06018434 0.06003174 0.05994018 0.05975707 0.05951291 0.05914668 0.05856681 0.05789538 0.05716291 0.05649149 0.05591162 0.0554233 0.05524019 0.05508759 0.05505707 0.05505707 0.05499603 0.05490448 0.05459928 0.05414149 0.0535311 0.05267655 0.05182201 0.0510285 0.05057071 0.050235
0.1738387 0.1880303 0.2014588 0.2127815 0.2239211 0.2316731 0.2374107 0.2407373 0.2429653 0.2453458 0.2474822 0.2497406 0.2514192 0.2531587 0.2545932 0.2562412 0.2578588 0.2599951 0.2620399 0.2641458 0.2657328 0.2675029 0.2697613 0.2725996 0.2759263 0.2795581 0.2835867 0.2873405 0.2912775 0.2945126 0.2978087 0.3006775 0.3039736 0.3074529 0.3113899 0.3158457 0.3206678 0.3258561 0.3308308 0.3350424 0.3380333 0.339895 0.3408716 0.3417262 0.3425197 0.3434353 0.3443508 0.3453275 0.3463041 0.3471586 0.3480742 0.3489288 0.3498443 0.3506684 0.3514009 0.3524995 0.3544223 0.3575352 0.3640664 0.374382 0.388543 0.4056339 0.4229689 0.4389001 0.4512299 0.4598059 0.4642007 0.4666423 0.4678935 0.4681682 0.4667338 0.4643838 0.4609962 0.4581578 0.4548007 0.4511384 0.4472929 0.4436001 0.4408838 0.4370994 0.4338644 0.428493 0.4211683 0.4088384 0.3928768 0.3742904 0.3558262 0.3386437 0.3222548 0.3061405 0.2884087 0.2726302 0.2580113 0.2467497 0.2374412 0.2301471 0.2237685 0.2176647 0.2111945 0.2038088 0.1963621 0.1894647 0.1841848 0.1806141 0.178142 0.176677 0.1759751 0.1756394 0.1760667 0.1771959 0.1793017 0.1823842 0.1866874 0.1910517 0.1959348 0.1996582 0.2030153 0.2052738 0.2070744 0.2084173 0.2090887 0.2092108 0.2084478 0.2066471 0.2041751 0.2013368 0.1984679 0.1948971 0.1909601 0.1855887 0.1787524 0.1710615 0.1633095 0.1567173 0.1516511 0.1476225 0.1440518 0.1399622 0.1354758 0.1302264 0.1246414 0.1190563 0.1137765 0.1092596 0.105231 0.1016297 0.0982726 0.09540378 0.0929317 0.09125313 0.08987975 0.08899469 0.08829274 0.08771287 0.0872856 0.08679729 0.08621742 0.08542392 0.08453885 0.08344015 0.08212782 0.08081548 0.07919795 0.0775499 0.07568821 0.07324666 0.07062198 0.06723433 0.06351095 0.05874992 0.05270708 0.04538241 0.03671489 0.02792529 0.01953244 0.01263505 0.007446744 0.003967527 0.001922725 0.0007935055 0.0003357138 0.0000610389 0 0 0 0 0 0 0 0 0 0 0 0 0 0 0 0 0 0 0 0 0 0 0 0 0 0 0 0 0 0 0 0 0 0 0 0 0 0 0 0 0 0 0 0 0 0 0 0 0 0 0 0 0 0 0 0 0 0 0 0 0 0 0 0 0 0 0 0 0 0 0 0 0 0 0 0 0 0 0 0 0 0 0 0 0 0 0 0 0 0 0 0 0 0 0 0 0 0 0 0 0 0 0 0 0 0 0 0 0 0 0 0 0 0 0 0.0000610389 0.0006714277 0.003235061 0.009003235 0.01858634 0.03024477 0.04233047 0.05575902 0.06805836 0.07684796 0.08411158 0.09143624 0.1006226 0.1095343 0.1168895 0.1214369 0.1247635 0.1270524 0.1292498 0.1315083 0.1330342 0.1342855 0.1352011 0.1364524 0.1377648 0.1396875 0.1414881 0.1434719 0.1449673 0.146768 0.1486297 0.1504303 0.1524446 0.1540621 0.1558933 0.1571751 0.1583349 0.1590063 0.1596472 0.1603491 0.1616004 0.1633706 0.1658121 0.1684673 0.1714277 0.1742965 0.1773179 0.1813465 0.1859244 0.1915095 0.1958127 0.1994751 0.2013978 0.2039614 0.2061283 0.2089056 0.2107367 0.2126289 0.2136056 0.2146127 0.2149789 0.215101 0.2147348 0.2142465 0.2136361 0.2128426 0.2120796 0.2112861 0.2107367 0.2104315 0.2104621 0.2112861 0.2125374 0.2147043 0.2171763 0.2199231 0.22209 0.2235244 0.2239822 0.2234328 0.2223646 0.2212659 0.2206556 0.2200452 0.2196484 0.2188244 0.2186718 0.2179698 0.2167796 0.2144601 0.2113166 0.2082036 0.2055179 0.2026186 0.1998718 0.1971861 0.1963316 0.1954465 0.1950803 0.1943783 0.1937679 0.1912348 0.1862296 0.1723738 0.1534823 0.1325154 0.120033 0.1113349 0.1078252 0.1057499 0.1030947 0.1005005 0.09802844 0.09589209 0.09415247 0.09207715 0.09018495 0.0883843 0.0869804 0.08585119 0.08505768 0.08435573 0.08453885 0.08499664 0.08609534 0.08670573 0.08673625 0.08627846 0.0852408 0.08453885 0.08313496 0.08142587 0.07846548 0.07431484 0.06937069 0.06482329 0.06116096 0.05810902 0.05615577 0.05444668 0.05313434 0.05176097 0.05032656 0.04895318 0.04776292 0.0469389 0.04651163 0.04654215 0.04675578 0.04666422 0.0459928 0.04455838 0.04223891 0.03982787 0.03769151 0.03640969 0.03613502 0.03918696 0.04446682 0.05163889 0.05694928 0.06052005 0.061222 0.06323628 0.0646707 0.06726485 0.06924861 0.06992004 0.0701642 0.06973692 0.06921809 0.06854667 0.06769212 0.06683758 0.06604407 0.06558628 0.06525056 0.06512849 0.06509797 0.06506745 0.06506745 0.06506745 0.06500641 0.06491485 0.06464018 0.06418239 0.06354147 0.06265641 0.06180187 0.06103888 0.06055057 0.06021485 0.0601233 0.06006226 0.06000122 0.05990966 0.05960447 0.05914668 0.05853629 0.05768174 0.0568272 0.05603369 0.0555759 0.05524019 0.05511811 0.05508759 0.05502655 0.05499603 0.05493499 0.05475188 0.0544772 0.05389733 0.05319539 0.05231032 0.0514863 0.05078435
0.1670024 0.181377 0.1949277 0.2068913 0.2188854 0.227553 0.2347861 0.2390588 0.241836 0.2438198 0.2459257 0.2482451 0.2501068 0.251877 0.253586 0.2549899 0.2564549 0.2579808 0.2600562 0.2622841 0.2642983 0.2659159 0.267686 0.2697918 0.2726912 0.2758957 0.2798328 0.2835561 0.2875237 0.2908808 0.2941158 0.2969847 0.299884 0.3031801 0.3065373 0.3104438 0.3145639 0.3193249 0.3241775 0.3290911 0.3332418 0.3365074 0.3385827 0.3401392 0.3409937 0.3417262 0.3424586 0.3431606 0.3439846 0.3448086 0.3457547 0.3466398 0.3474638 0.3481963 0.3488677 0.3495697 0.3506073 0.3520418 0.3548801 0.3600378 0.3684917 0.3810352 0.3959287 0.4117378 0.4257767 0.436428 0.4431728 0.4479643 0.4514741 0.4536715 0.4537936 0.452939 0.4509247 0.4486968 0.4456449 0.4419215 0.4384728 0.4347799 0.4312702 0.4262345 0.4214735 0.4142098 0.4042605 0.3891229 0.3712385 0.3526216 0.3355002 0.3199658 0.3051029 0.2889581 0.2713789 0.2561802 0.2420192 0.2310322 0.2221205 0.2149789 0.2083257 0.2013062 0.193829 0.186077 0.1792102 0.1736251 0.1696271 0.1670634 0.1653238 0.1641946 0.1636452 0.1635842 0.1639504 0.1648355 0.1662394 0.168681 0.1720991 0.1764939 0.1818043 0.1870231 0.192303 0.1964231 0.1996887 0.201764 0.2027712 0.2027712 0.2015504 0.1994751 0.1970335 0.1942868 0.191479 0.1876335 0.1825063 0.175792 0.1680706 0.1606238 0.1536043 0.1480498 0.1432277 0.1382531 0.1331258 0.1271745 0.1207349 0.1142343 0.1080999 0.1026064 0.09781481 0.0935726 0.08997131 0.08688885 0.08444729 0.08237197 0.08081548 0.07996093 0.07938106 0.07910639 0.07870964 0.07840444 0.07782458 0.07712263 0.07632912 0.07526094 0.07422328 0.07291094 0.07150705 0.06998108 0.06808887 0.06619667 0.06406031 0.06155771 0.05859733 0.0544772 0.04950253 0.04309345 0.03598242 0.02819996 0.02053958 0.01394738 0.008545443 0.004852591 0.002472075 0.001190258 0.0004883111 0.0001525972 0.0000305194 0 0 0 0 0 0 0 0 0 0 0 0 0 0 0 0 0 0 0 0 0 0 0 0 0 0 0 0 0 0 0 0 0 0 0 0 0 0 0 0 0 0 0 0 0 0 0 0 0 0 0 0 0 0 0 0 0 0 0 0 0 0 0 0 0 0 0 0 0 0 0 0 0 0 0 0 0 0 0 0 0 0 0 0 0 0 0 0 0 0 0 0 0 0 0 0 0 0 0 0 0 0 0 0 0 0 0 0 0 0 0 0 0 0 0 0 0.0000610389 0.0004577916 0.002014283 0.00653116 0.01431362 0.02493438 0.03628761 0.05115058 0.06509797 0.07596289 0.08420314 0.09164988 0.1009583 0.1095648 0.1166148 0.1204908 0.1234511 0.1258622 0.1280901 0.1299213 0.1309589 0.1317829 0.1327291 0.1341329 0.1358115 0.1379479 0.1398401 0.142129 0.1440212 0.1463407 0.148355 0.1504608 0.152353 0.1541232 0.1558323 0.156992 0.1577245 0.1582433 0.1589758 0.1602576 0.1621498 0.1646829 0.1674297 0.1702069 0.1729537 0.1759446 0.1798205 0.1846121 0.1896173 0.1941342 0.1971251 0.1997497 0.2016725 0.2045413 0.2068608 0.2096075 0.2111335 0.2129036 0.2138497 0.2147348 0.2146737 0.2144296 0.2138497 0.2131173 0.2122932 0.2115302 0.2107978 0.2102484 0.2100958 0.2103705 0.2112556 0.2128426 0.215101 0.2178172 0.2204419 0.2225478 0.2238296 0.2241348 0.2236159 0.2225172 0.2215101 0.2207471 0.2204419 0.2199841 0.2197095 0.2193432 0.2195569 0.2184582 0.216688 0.2133614 0.2105231 0.2076543 0.2055179 0.2028932 0.2009705 0.1987731 0.1982848 0.1974608 0.1971251 0.1964231 0.1961179 0.1945309 0.1912348 0.1801868 0.1629433 0.1419154 0.1276018 0.1168895 0.1123115 0.10987 0.1072148 0.104346 0.1014161 0.09839468 0.09628884 0.09424403 0.09296222 0.091833 0.09119209 0.09097845 0.09097845 0.09027651 0.08981872 0.08908625 0.0891778 0.08914728 0.08905573 0.08865897 0.08801807 0.08740768 0.08649209 0.08502716 0.08276872 0.07910639 0.07477263 0.0697064 0.06540316 0.06140511 0.0587194 0.05646097 0.05490448 0.05362266 0.05234084 0.05108954 0.05005188 0.04919734 0.04886162 0.04886162 0.04910578 0.04916682 0.04901422 0.04815968 0.04654215 0.04477202 0.04333761 0.04278826 0.04342917 0.04690838 0.05221877 0.05838369 0.06244278 0.06488433 0.06549472 0.06708173 0.06799731 0.06988952 0.07101874 0.07114082 0.07089666 0.07040835 0.06995056 0.06952329 0.06891289 0.06821095 0.06732589 0.06650186 0.06579991 0.06537265 0.06518953 0.06509797 0.06506745 0.06506745 0.06506745 0.06506745 0.06503693 0.06488433 0.06464018 0.06390771 0.06305316 0.06198499 0.06116096 0.06048953 0.06021485 0.06009278 0.06003174 0.06000122 0.05994018 0.05975707 0.05948239 0.05890252 0.05820058 0.05731551 0.05649149 0.05578954 0.05536227 0.05517915 0.05508759 0.05505707 0.05505707 0.05499603 0.05490448 0.0546298 0.05417201 0.0535311 0.05264603 0.05179149
0.1596777 0.1739913 0.1877556 0.2004517 0.2131173 0.2226088 0.2312763 0.2368919 0.2406458 0.2424464 0.2444302 0.2465055 0.2485503 0.250351 0.2523958 0.2539217 0.2554477 0.2564854 0.2581945 0.2600867 0.2623451 0.2641458 0.266099 0.2677165 0.270097 0.2726912 0.2760178 0.279497 0.2833425 0.2869743 0.2903009 0.2934139 0.2961301 0.29906 0.3019288 0.3055912 0.3091924 0.3134041 0.3177989 0.3223463 0.3269243 0.331258 0.3347678 0.3372398 0.3387658 0.3397119 0.3405359 0.3411463 0.3418177 0.3425807 0.3433437 0.3440762 0.3448086 0.3455411 0.346182 0.346884 0.3475249 0.34841 0.3496612 0.3521028 0.3563145 0.3636697 0.3737411 0.3858878 0.397943 0.408106 0.41598 0.4223891 0.4276689 0.4313312 0.4329793 0.4331319 0.4326741 0.4315449 0.4296832 0.4265092 0.4236099 0.4197339 0.4158884 0.4099371 0.4039858 0.3954404 0.3836599 0.3669352 0.3485015 0.3312885 0.3164561 0.3021425 0.2875237 0.2709516 0.2530062 0.2372581 0.2234633 0.2128731 0.2041751 0.1966978 0.1891595 0.1813465 0.1737167 0.1670634 0.1620277 0.1586095 0.1565647 0.155466 0.1549777 0.1544894 0.1541537 0.1537264 0.1537264 0.1539401 0.1543673 0.1556492 0.1574193 0.1605628 0.164805 0.1701154 0.1759751 0.1819569 0.1870537 0.1908686 0.1924556 0.193066 0.192364 0.1912653 0.1894647 0.1869926 0.1834524 0.1784167 0.1717024 0.163981 0.1560459 0.1489654 0.1425258 0.1369713 0.1306842 0.124031 0.1168284 0.1095038 0.1023012 0.09573948 0.09000183 0.0853934 0.08136483 0.0781908 0.07577977 0.07388756 0.07275835 0.07184276 0.07135445 0.0708051 0.07046939 0.07013367 0.06976745 0.06937069 0.0687603 0.06799731 0.06708173 0.06589147 0.06470121 0.06314472 0.06167979 0.05987914 0.05789538 0.05551486 0.05264603 0.04925838 0.04535189 0.04031618 0.03460905 0.02768113 0.02102789 0.01464933 0.009399988 0.005524019 0.002899347 0.001434414 0.0005493499 0.0002136361 0.0000305194 0 0 0 0 0 0 0 0 0 0 0 0 0 0 0 0 0 0 0 0 0 0 0 0 0 0 0 0 0 0 0 0 0 0 0 0 0 0 0 0 0 0 0 0 0 0 0 0 0 0 0 0 0 0 0 0 0 0 0 0 0 0 0 0 0 0 0 0 0 0 0 0 0 0 0 0 0 0 0 0 0 0 0 0 0 0 0 0 0 0 0 0 0 0 0 0 0 0 0 0 0 0 0 0 0 0 0 0 0 0 0 0 0 0 0 0 0 0 0 0.0002441555 0.001190258 0.004577916 0.01077336 0.02035647 0.03064152 0.04602332 0.06070317 0.07355185 0.08377586 0.09226027 0.1015382 0.1095343 0.1160654 0.1193921 0.1221998 0.1246719 0.1268998 0.1284563 0.1295245 0.1304401 0.1315998 0.1331563 0.1349265 0.1369713 0.1387109 0.1409388 0.142831 0.1453641 0.1472868 0.1495758 0.1514069 0.1531466 0.1543673 0.1553134 0.1559238 0.1569005 0.1580297 0.1601355 0.1623634 0.1652628 0.1681621 0.1710004 0.1741744 0.1776232 0.1825368 0.187664 0.1925472 0.1957212 0.1979491 0.200238 0.2025881 0.2057316 0.208051 0.2104926 0.2120185 0.213453 0.2141244 0.214277 0.2137582 0.2131783 0.2124153 0.2117439 0.2110114 0.2104315 0.2098211 0.2094854 0.2097906 0.2108588 0.2127205 0.2152231 0.218153 0.2208997 0.2229445 0.2241043 0.2242874 0.2236465 0.2227004 0.2216627 0.2208997 0.2204419 0.2201672 0.2199841 0.2199841 0.2200757 0.2202588 0.2183361 0.2160471 0.2125069 0.2103705 0.207929 0.2061283 0.2034731 0.2016419 0.1995972 0.199353 0.198651 0.1987731 0.1982543 0.1980101 0.1967283 0.1946225 0.186016 0.171092 0.150766 0.1353232 0.122383 0.1165537 0.1131356 0.1103888 0.1074895 0.1046206 0.1015687 0.09943233 0.09769273 0.09692974 0.09662455 0.09656351 0.09641092 0.09619728 0.09519014 0.09390832 0.09219923 0.09119209 0.09061222 0.09076482 0.09079534 0.09070378 0.08984923 0.08890313 0.08719404 0.08560703 0.08243301 0.07913691 0.07422328 0.069859 0.06515901 0.06174083 0.05865837 0.05664408 0.05533174 0.05438564 0.05362266 0.05298175 0.05221877 0.05157785 0.05096747 0.05060123 0.05011292 0.04989929 0.04959409 0.0491363 0.04889214 0.04907526 0.04986877 0.05145578 0.05511811 0.06003174 0.06448758 0.06708173 0.06836355 0.06851614 0.06979796 0.07059146 0.07227004 0.07321614 0.07309406 0.07254471 0.07169016 0.07089666 0.07028627 0.06982848 0.06921809 0.06854667 0.0676616 0.06680705 0.06604407 0.06555576 0.06522004 0.06512849 0.06506745 0.06506745 0.06506745 0.06503693 0.06500641 0.06491485 0.06457914 0.06406031 0.0632668 0.0623207 0.0613746 0.06067265 0.06030641 0.06009278 0.06006226 0.06006226 0.06000122 0.05990966 0.05963499 0.0591772 0.05853629 0.05765122 0.05679668 0.05603369 0.05554538 0.05520967 0.05511811 0.05505707 0.05505707 0.05505707 0.05502655 0.05487395 0.0546298 0.05389733 0.05304279
0.152231 0.1665751 0.1803394 0.1936153 0.2064335 0.2169017 0.2266984 0.23384 0.2387841 0.241012 0.2430874 0.2450406 0.2470854 0.2488555 0.2508393 0.2524873 0.2541659 0.2551731 0.2565464 0.2579808 0.2602088 0.262223 0.2643899 0.2659769 0.2678081 0.2699139 0.2726607 0.2757737 0.2791613 0.2827321 0.2861503 0.2895074 0.2924373 0.2953672 0.2980834 0.3011353 0.3042788 0.3076665 0.3114204 0.3153574 0.3196301 0.3240554 0.3284502 0.3323262 0.3352255 0.3373314 0.3386437 0.3395898 0.3402613 0.3408106 0.3413905 0.3418483 0.3423366 0.3428859 0.3434658 0.3441067 0.3447171 0.3452969 0.3460294 0.346945 0.348532 0.3520723 0.3575352 0.3653482 0.3741378 0.3824086 0.3900079 0.3963865 0.4014832 0.4044741 0.4059696 0.406641 0.4068241 0.4063663 0.4054202 0.4032229 0.4009644 0.3976683 0.3939755 0.3892449 0.3830495 0.3740463 0.3611671 0.3433742 0.3260087 0.3103827 0.2971067 0.2820607 0.26616 0.2476042 0.2292315 0.2137276 0.2015199 0.1917842 0.1830556 0.1751205 0.1673381 0.1605628 0.1548862 0.1508881 0.1482329 0.146768 0.1457608 0.145242 0.1449368 0.1446011 0.144479 0.144357 0.1442654 0.1443875 0.1448147 0.1456082 0.1467375 0.1486602 0.1511628 0.1546115 0.1586401 0.1630959 0.1674907 0.1714277 0.174266 0.1763718 0.1771043 0.1771348 0.1758835 0.1729231 0.1680095 0.1614784 0.1541232 0.1463712 0.138955 0.1321797 0.1251297 0.1181102 0.1107856 0.1033388 0.09613624 0.08951352 0.08389794 0.07892327 0.07510834 0.07199536 0.06952329 0.0676616 0.06625771 0.06522004 0.06451809 0.06393823 0.0634194 0.06287005 0.06238174 0.06164927 0.06088629 0.06018434 0.05932979 0.05844473 0.05734603 0.05621681 0.05499603 0.0535311 0.05188305 0.05005188 0.04785448 0.04538241 0.04181163 0.03759995 0.0325032 0.02691815 0.02099738 0.01516816 0.01028505 0.006287005 0.003601294 0.001770128 0.0007935055 0.0003357138 0.0000915583 0.0000305194 0 0 0 0 0 0 0 0 0 0 0 0 0 0 0 0 0 0 0 0 0 0 0 0 0 0 0 0 0 0 0 0 0 0 0 0 0 0 0 0 0 0 0 0 0 0 0 0 0 0 0 0 0 0 0 0 0 0 0 0 0 0 0 0 0 0 0 0 0 0 0 0 0 0 0 0 0 0 0 0 0 0 0 0 0 0 0 0 0 0 0 0 0 0 0 0 0 0 0 0 0 0 0 0 0 0 0 0 0 0 0 0 0 0 0 0 0 0 0 0 0.0000915583 0.0006103888 0.003174022 0.007690899 0.0161753 0.02530062 0.04068241 0.05536227 0.07025576 0.0828908 0.09308429 0.1026979 0.1099921 0.115455 0.1181102 0.120796 0.1231765 0.1254044 0.1267167 0.1278154 0.128792 0.1302875 0.1320576 0.1340414 0.1360251 0.1379174 0.1402063 0.1422206 0.1446927 0.1465849 0.1489654 0.1506745 0.152353 0.1532686 0.1541232 0.1547946 0.1562901 0.1580297 0.1607154 0.1634316 0.1663615 0.1692913 0.1720991 0.1759446 0.1800342 0.1857718 0.1903192 0.1943478 0.1964231 0.1984069 0.20094 0.2038088 0.2067692 0.2089666 0.2108588 0.2121712 0.2130867 0.2133309 0.2130867 0.2124763 0.2118049 0.211164 0.2104315 0.2096991 0.2092108 0.2091497 0.209516 0.2107367 0.2125069 0.2152536 0.2180004 0.2209608 0.2230361 0.2241958 0.2243789 0.2237685 0.2227309 0.2216322 0.2209913 0.220564 0.2206556 0.220503 0.220625 0.2207166 0.2206861 0.2201062 0.2172374 0.2144601 0.2114997 0.2101874 0.2080815 0.2064335 0.2036867 0.2023134 0.2008179 0.2009095 0.2004517 0.2004212 0.1994751 0.1988342 0.1975829 0.1963926 0.189892 0.1775011 0.1586095 0.1427394 0.1275713 0.1206433 0.1161265 0.113105 0.1103583 0.1079778 0.1051395 0.1030641 0.1015077 0.1013551 0.1018129 0.101996 0.1016908 0.1007752 0.0993713 0.09735702 0.09503753 0.09314533 0.09207715 0.09216871 0.09256546 0.09268754 0.091833 0.09082586 0.08875053 0.08713301 0.08447781 0.08209729 0.07806873 0.07397912 0.06930965 0.0653116 0.06161875 0.0587194 0.05704083 0.05600318 0.05578954 0.05566746 0.05536227 0.0546298 0.05356162 0.05252396 0.05136422 0.05072331 0.05060123 0.05084539 0.05206617 0.0536837 0.05615577 0.05862784 0.06256485 0.06723433 0.07068302 0.07199536 0.07202588 0.07107978 0.07193432 0.07257523 0.07437588 0.0753525 0.0751999 0.07449795 0.07321614 0.07202588 0.07111029 0.07059146 0.07007264 0.0697064 0.06894342 0.06805836 0.06699017 0.06616615 0.06549472 0.06522004 0.06509797 0.06506745 0.06506745 0.06506745 0.06506745 0.06506745 0.06494537 0.06470121 0.0642129 0.06338888 0.06244278 0.06143563 0.06076421 0.0602759 0.0601233 0.06006226 0.06006226 0.06006226 0.06003174 0.05987914 0.05963499 0.05890252 0.05804798 0.0569798 0.05615577 0.05548434 0.05520967 0.05508759 0.05505707 0.05505707 0.05502655 0.05499603 0.05490448 0.05456876 0.05404993
0.1445401 0.1588537 0.1724043 0.186077 0.1990478 0.2107367 0.2210828 0.2298724 0.2361594 0.2396081 0.2418666 0.2434536 0.2453763 0.2471464 0.2492218 0.2510224 0.2529146 0.254227 0.2554172 0.2563938 0.2579503 0.259812 0.2620704 0.2640237 0.2658243 0.2675945 0.2695782 0.2721418 0.2751327 0.2787341 0.2821828 0.285784 0.2888055 0.2917048 0.2942074 0.2968321 0.2994262 0.3022951 0.3055912 0.3089483 0.3128243 0.3169139 0.3212476 0.3254593 0.3294269 0.3325093 0.3351035 0.3366599 0.3378197 0.3384606 0.339071 0.3396204 0.3401697 0.3407496 0.3412684 0.3417872 0.342306 0.3427028 0.3431606 0.3437099 0.3443508 0.3456022 0.3480132 0.3512177 0.3554599 0.3600684 0.3657755 0.3714216 0.3764573 0.3790514 0.3800586 0.3799365 0.3796008 0.3786242 0.3773424 0.3758469 0.3742294 0.3717268 0.3687664 0.3649209 0.3584508 0.3492645 0.3365074 0.3196301 0.3034243 0.2888665 0.2756821 0.258225 0.2399438 0.2195569 0.2017945 0.1869621 0.1761582 0.1674602 0.1597387 0.1526582 0.1466459 0.1419764 0.138894 0.1371849 0.136605 0.1362693 0.135781 0.1355063 0.1352011 0.1351706 0.1352927 0.1354453 0.13572 0.1359336 0.1362083 0.1367576 0.1372459 0.1380394 0.1388635 0.1403894 0.1420375 0.1436855 0.1455777 0.1477141 0.1502167 0.1524751 0.1541232 0.1541537 0.1524141 0.148294 0.1424342 0.1350485 0.1276323 0.1198498 0.1128914 0.105933 0.09918818 0.09253494 0.08603431 0.08020509 0.07504731 0.0709577 0.06769212 0.06506745 0.06320576 0.06171031 0.06058109 0.05975707 0.05911615 0.05859733 0.05817005 0.05783434 0.05749863 0.05701032 0.056522 0.05578954 0.05505707 0.05420253 0.05319539 0.05218824 0.05096747 0.04974669 0.04825123 0.04642007 0.04428371 0.04150644 0.03842398 0.03463957 0.03018373 0.02539217 0.02005127 0.01519868 0.01062077 0.006897394 0.004089605 0.002258439 0.001129219 0.0004272722 0.0001831166 0.0000610389 0.0000305194 0 0 0 0 0 0 0 0 0 0 0 0 0 0 0 0 0 0 0 0 0 0 0 0 0 0 0 0 0 0 0 0 0 0 0 0 0 0 0 0 0 0 0 0 0 0 0 0 0 0 0 0 0 0 0 0 0 0 0 0 0 0 0 0 0 0 0 0 0 0 0 0 0 0 0 0 0 0 0 0 0 0 0 0 0 0 0 0 0 0 0 0 0 0 0 0 0 0 0 0 0 0 0 0 0 0 0 0 0 0 0 0 0 0 0 0 0 0 0 0 0 0.0000610389 0.0003051944 0.002014283 0.005127266 0.01248245 0.02063114 0.03573827 0.04989929 0.06573887 0.08047976 0.09290118 0.1036135 0.1104499 0.1151804 0.1173472 0.1196667 0.1218031 0.1237869 0.1248856 0.1261674 0.1275102 0.1293719 0.1314167 0.1336446 0.135781 0.1378563 0.1401453 0.1420985 0.1443264 0.1460355 0.1481414 0.1495147 0.1508576 0.151468 0.152353 0.1536349 0.1556797 0.1581517 0.1611732 0.1641335 0.1670939 0.1702374 0.1735641 0.1783861 0.1832998 0.1887933 0.1924861 0.1954465 0.1971556 0.1995972 0.2023439 0.2053653 0.2078069 0.2097906 0.211103 0.211988 0.2122932 0.2121101 0.2115913 0.2110114 0.21034 0.2097601 0.2090887 0.2086004 0.2083562 0.2090276 0.2101874 0.2123543 0.2149789 0.218153 0.2208692 0.2230666 0.2241653 0.2242568 0.2237075 0.2226698 0.2217237 0.2209608 0.2208081 0.2206861 0.2208692 0.2209302 0.2212965 0.2213575 0.2206861 0.2187939 0.2154672 0.2129341 0.2109809 0.2105841 0.2085699 0.2066166 0.2039919 0.2028627 0.2020692 0.2021913 0.2018251 0.2014283 0.2002075 0.1992919 0.1982848 0.1976744 0.1930049 0.1826589 0.1648355 0.1488738 0.132607 0.1248856 0.1193921 0.1158213 0.113044 0.1113349 0.1095038 0.108344 0.1073369 0.1068486 0.106818 0.1062687 0.1053226 0.103644 0.1017518 0.09952389 0.09741805 0.09525117 0.09412196 0.09381676 0.094183 0.09424403 0.09326741 0.09204663 0.08997131 0.0883843 0.0861869 0.0841421 0.08093756 0.0773973 0.07312458 0.0690655 0.06525056 0.06183239 0.0598181 0.05844473 0.05823109 0.05798694 0.05768174 0.05679668 0.05548434 0.05404993 0.05270708 0.05169993 0.05166941 0.05267655 0.05508759 0.05826161 0.0620155 0.06506745 0.06872978 0.07297198 0.07608496 0.07666484 0.07559665 0.07342978 0.07349081 0.07364341 0.07544406 0.07678691 0.07709211 0.07669535 0.0753525 0.07394861 0.07263627 0.0715986 0.07077459 0.07022523 0.0697064 0.06909601 0.06827199 0.06732589 0.06637979 0.06567784 0.0653116 0.06509797 0.06506745 0.06506745 0.06506745 0.06506745 0.06506745 0.06500641 0.06485381 0.0643655 0.06366356 0.0624733 0.06143563 0.06055057 0.06024538 0.06009278 0.06006226 0.06006226 0.06003174 0.06000122 0.05990966 0.05957395 0.05905512 0.05826161 0.05731551 0.05636941 0.05566746 0.05530123 0.05508759 0.05505707 0.05505707 0.05505707 0.05505707 0.05493499 0.05469084
0.1367881 0.1505829 0.1639504 0.1775926 0.1907465 0.2033816 0.2144906 0.2247757 0.2321919 0.2373192 0.2405237 0.2423244 0.244064 0.2456205 0.2474211 0.2491607 0.2510529 0.2529451 0.254349 0.2554477 0.2564243 0.2577672 0.2595373 0.2616127 0.2635659 0.2655497 0.2672282 0.2694561 0.2718367 0.2747665 0.277788 0.2811146 0.2843191 0.2874931 0.2903009 0.2927425 0.2952146 0.2975645 0.3004028 0.3033938 0.306873 0.3106269 0.3143808 0.3181652 0.3220106 0.325734 0.3290911 0.3318684 0.3339742 0.3354392 0.3364768 0.3373314 0.3380028 0.3386437 0.339132 0.3395288 0.3399255 0.3402613 0.3405664 0.3408411 0.3411768 0.3415736 0.3420924 0.3423366 0.3424586 0.3429469 0.3453885 0.3488982 0.3525606 0.3543918 0.3549716 0.3545138 0.3533541 0.3518281 0.3503021 0.3493255 0.3475859 0.3464262 0.3438931 0.3408716 0.33431 0.32491 0.3122444 0.2966184 0.2820912 0.2679302 0.2526704 0.2316731 0.2106147 0.1896783 0.1732894 0.1604102 0.1511323 0.143655 0.1375511 0.1328511 0.129494 0.1275713 0.1266252 0.1264115 0.1263505 0.12632 0.1262284 0.1261369 0.1260453 0.1262284 0.1265336 0.1268388 0.127205 0.1275713 0.1279985 0.1283343 0.1285479 0.1284563 0.1278459 0.1269914 0.1260148 0.1250687 0.1244583 0.1241531 0.1243667 0.1247024 0.1238784 0.12162 0.1174998 0.1121589 0.105933 0.09927974 0.09305377 0.08716352 0.08191418 0.07681743 0.07214796 0.06784472 0.06439602 0.06149668 0.05923823 0.05774278 0.05649149 0.05566746 0.05511811 0.05469084 0.05429409 0.05383629 0.05334798 0.05279863 0.05209669 0.05151682 0.05081487 0.0500824 0.04931942 0.04849539 0.04757981 0.04663371 0.04553501 0.04434475 0.04284929 0.0412928 0.03946164 0.0372032 0.03451749 0.03122139 0.02755906 0.02331685 0.01889153 0.01440518 0.01022401 0.006775316 0.004089605 0.002380516 0.001190258 0.0005188305 0.0001831166 0.0000610389 0.0000305194 0 0 0 0 0 0 0 0 0 0 0 0 0 0 0 0 0 0 0 0 0 0 0 0 0 0 0 0 0 0 0 0 0 0 0 0 0 0 0 0 0 0 0 0 0 0 0 0 0 0 0 0 0 0 0 0 0 0 0 0 0 0 0 0 0 0 0 0 0 0 0 0 0 0 0 0 0 0 0 0 0 0 0 0 0 0 0 0 0 0 0 0 0 0 0 0 0 0 0 0 0 0 0 0 0 0 0 0 0 0 0 0 0 0 0 0 0 0 0 0 0 0 0 0.0000305194 0.0001525972 0.001220778 0.003326619 0.009216871 0.01620582 0.03097723 0.04498566 0.06128304 0.07715315 0.09097845 0.1029726 0.1103888 0.1150278 0.1170115 0.1190258 0.1206433 0.1221388 0.1230849 0.1244888 0.1261369 0.1284868 0.1306842 0.1330953 0.1351401 0.1373985 0.1396875 0.1419459 0.1443264 0.1463102 0.1482634 0.1496063 0.1506745 0.1515901 0.1528414 0.1548251 0.1571751 0.1601355 0.1632485 0.1663309 0.1693219 0.1725264 0.176555 0.1818653 0.1870842 0.1916316 0.1941342 0.19624 0.1977965 0.2004822 0.2029543 0.2058536 0.2077153 0.209516 0.2104315 0.211164 0.2111945 0.2108893 0.210401 0.2097296 0.2089971 0.2083257 0.2077153 0.2076848 0.2081731 0.2097906 0.2118965 0.2147653 0.2178478 0.2208997 0.2230361 0.2241043 0.2242263 0.2235244 0.2226393 0.2216932 0.2209608 0.2205945 0.2206556 0.2206861 0.2211439 0.2215406 0.2219374 0.2212965 0.2197705 0.2170543 0.214277 0.2125679 0.211225 0.2103705 0.2079595 0.2057621 0.2039919 0.2035952 0.2034731 0.2034121 0.2028932 0.2020692 0.200879 0.2000244 0.199353 0.1987121 0.1947446 0.1855277 0.1695355 0.153879 0.1371849 0.1286089 0.1226271 0.1190869 0.1165232 0.1153635 0.1144479 0.1139291 0.1131661 0.1120064 0.1109992 0.1096869 0.1080693 0.105933 0.1040103 0.1016908 0.1002258 0.09812 0.09674662 0.09537325 0.09509858 0.0948239 0.09406091 0.09305377 0.09125313 0.08957456 0.08752976 0.08569859 0.08310444 0.08002198 0.07648171 0.07263627 0.06903498 0.06555576 0.06329732 0.06125252 0.06033693 0.05969603 0.05932979 0.05853629 0.05725447 0.05575902 0.05423304 0.05310383 0.05319539 0.05456876 0.05771226 0.06158823 0.06613563 0.06998108 0.07416224 0.07858756 0.08109015 0.08090704 0.07913691 0.07617652 0.07553562 0.07504731 0.07635964 0.07773302 0.07822133 0.07828236 0.07721418 0.07593237 0.07452847 0.0731551 0.07196485 0.07111029 0.07043887 0.069859 0.06927913 0.06839406 0.06744796 0.06644082 0.0657694 0.06528109 0.06512849 0.06506745 0.06506745 0.06506745 0.06506745 0.06503693 0.06500641 0.06476225 0.0643655 0.06354147 0.06253433 0.06146615 0.06073369 0.06030641 0.06009278 0.06006226 0.06006226 0.06006226 0.06006226 0.05994018 0.05969603 0.05920772 0.05838369 0.05743759 0.05643044 0.05575902 0.05527071 0.05511811 0.05505707 0.05505707 0.05505707 0.05505707 0.05499603
0.1289446 0.1423427 0.1558017 0.1693829 0.1825063 0.1955075 0.2070439 0.2183971 0.2266679 0.2339315 0.2383263 0.2410731 0.2426906 0.2443081 0.2460477 0.2475737 0.2492218 0.251175 0.2527925 0.2542575 0.2551425 0.2561802 0.2573094 0.2591711 0.2611243 0.2633217 0.2650919 0.2670146 0.2688763 0.2711042 0.2736678 0.2766587 0.2798328 0.2830068 0.2861808 0.2889276 0.2916133 0.2939938 0.2963438 0.2986938 0.301349 0.3041262 0.3071171 0.3104743 0.314045 0.31786 0.3214307 0.3250321 0.3279619 0.3305255 0.3325093 0.3340658 0.3350424 0.3357444 0.3362021 0.3365989 0.3369957 0.3373314 0.337545 0.3377587 0.3378807 0.3378807 0.3373009 0.3352866 0.3323872 0.3293353 0.3279619 0.328145 0.3292742 0.3305561 0.3315022 0.3318989 0.3312275 0.330495 0.3290301 0.3282671 0.3262528 0.3251846 0.3221632 0.3182873 0.3103217 0.3007386 0.2887749 0.2748886 0.2610328 0.2454373 0.2263932 0.2022218 0.1796069 0.1597387 0.145242 0.1346212 0.1275407 0.1222914 0.1188732 0.1168589 0.1157908 0.1154856 0.1157602 0.1159739 0.1164317 0.1168284 0.1172252 0.1176219 0.1179271 0.1182323 0.1186596 0.1190869 0.1194531 0.1196057 0.1194531 0.1191479 0.118568 0.1175914 0.1160654 0.1139291 0.1117622 0.1093206 0.1070622 0.104346 0.1010499 0.09683818 0.09155832 0.08548495 0.07892327 0.07278886 0.06714277 0.06271745 0.05878044 0.05566746 0.05319539 0.05108954 0.04934993 0.04822072 0.04761033 0.04733565 0.04736617 0.04754929 0.04782397 0.04806812 0.04825123 0.04834279 0.04831228 0.04815968 0.047885 0.04761033 0.04712202 0.04654215 0.0458402 0.04510773 0.04434475 0.04333761 0.04233047 0.04104865 0.03961423 0.03790515 0.0357993 0.03341879 0.03033632 0.02713178 0.02362205 0.01992919 0.01623634 0.01254349 0.009155832 0.006256485 0.004059086 0.002411036 0.001281817 0.0006409083 0.000274675 0.0001220778 0.0000305194 0 0 0 0 0 0 0 0 0 0 0 0 0 0 0 0 0 0 0 0 0 0 0 0 0 0 0 0 0 0 0 0 0 0 0 0 0 0 0 0 0 0 0 0 0 0 0 0 0 0 0 0 0 0 0 0 0 0 0 0 0 0 0 0 0 0 0 0 0 0 0 0 0 0 0 0 0 0 0 0 0 0 0 0 0 0 0 0 0 0 0 0 0 0 0 0 0 0 0 0 0 0 0 0 0 0 0 0 0 0 0 0 0 0 0 0 0 0 0 0 0 0 0 0 0 0.0000305194 0.0000610389 0.0006409083 0.001953244 0.006500641 0.01236037 0.02630776 0.04016358 0.0566746 0.07309406 0.08777391 0.1009888 0.1094122 0.1147531 0.1170421 0.1189648 0.120155 0.1211622 0.1218641 0.1232985 0.1250687 0.1274187 0.129555 0.1320881 0.1343161 0.1369407 0.1392297 0.1415797 0.1438076 0.1457608 0.1474089 0.1485076 0.1493621 0.1506745 0.152292 0.1550082 0.1576634 0.160929 0.163981 0.1670329 0.170329 0.1740219 0.1790881 0.1843679 0.1892511 0.1923946 0.1941036 0.1960874 0.1979491 0.2010621 0.203351 0.2059757 0.2074406 0.2091192 0.2097906 0.2101874 0.2098211 0.2093328 0.2087835 0.2081731 0.2075932 0.2071049 0.207227 0.2078374 0.2093328 0.2114387 0.214338 0.2174205 0.220564 0.222914 0.2240737 0.2241348 0.2234328 0.2224562 0.2214796 0.2208997 0.2205945 0.2208081 0.2209302 0.2211744 0.2215711 0.2218763 0.2218763 0.2200452 0.2176341 0.2147348 0.2132393 0.2124763 0.2116218 0.2101874 0.2077153 0.2056095 0.2048465 0.2046023 0.2045413 0.2038393 0.2031374 0.2022218 0.2013368 0.2006348 0.2000244 0.1992614 0.1955075 0.1871757 0.1729537 0.1580907 0.1415797 0.1324849 0.1265336 0.1227187 0.1203687 0.1197278 0.1194836 0.1194226 0.1188122 0.1166453 0.1144479 0.1120369 0.1099921 0.1078862 0.1059635 0.1039492 0.1029421 0.1010194 0.09943233 0.09720442 0.0960752 0.09528169 0.09467131 0.09381676 0.09238235 0.0907343 0.08875053 0.08673625 0.08466093 0.08200574 0.07904536 0.07559665 0.07269731 0.06973692 0.06741744 0.06479277 0.06268694 0.06116096 0.06024538 0.05945187 0.05853629 0.05737655 0.05618629 0.05551486 0.0558811 0.05759019 0.06058109 0.06445706 0.0694012 0.073796 0.07837392 0.08264665 0.08466093 0.0841421 0.08215833 0.07928951 0.07816029 0.07721418 0.07761094 0.07855704 0.07907587 0.07953367 0.07886223 0.07788561 0.07657328 0.07501678 0.07349081 0.07214796 0.07120185 0.07043887 0.0700116 0.0694012 0.06866874 0.06747849 0.06644082 0.06555576 0.06525056 0.06509797 0.06506745 0.06506745 0.06506745 0.06506745 0.06506745 0.06500641 0.06485381 0.06439602 0.06354147 0.0624733 0.06140511 0.06067265 0.06018434 0.0601233 0.06006226 0.06006226 0.06006226 0.06006226 0.06000122 0.05984862 0.05936031 0.05865837 0.05746811 0.05643044 0.05554538 0.05524019 0.05508759 0.05505707 0.05505707 0.05505707 0.05502655
0.1209791 0.1336446 0.1471037 0.1606238 0.1738082 0.1866264 0.1988647 0.2110114 0.2200757 0.229262 0.235427 0.2396387 0.2413783 0.2429958 0.2444607 0.2458341 0.247238 0.2491607 0.2510224 0.2530062 0.2542575 0.2552646 0.2559665 0.2570958 0.2586218 0.2605445 0.2624977 0.2644204 0.26616 0.2679302 0.2700055 0.272386 0.2753769 0.2784594 0.281847 0.28496 0.2878899 0.2902399 0.2924678 0.2945431 0.2966795 0.29906 0.3015626 0.3042788 0.3071782 0.3103217 0.3135872 0.3169139 0.3202405 0.3232924 0.3259476 0.328145 0.3297931 0.3309528 0.3318684 0.3325398 0.3330281 0.3333639 0.3334859 0.3335164 0.3334859 0.3331197 0.3318074 0.3287859 0.3244216 0.3195385 0.31551 0.3122139 0.3097723 0.3081243 0.3078191 0.3084295 0.3087652 0.3094977 0.3095587 0.3095892 0.3078191 0.3059574 0.3016236 0.2959775 0.2869743 0.277025 0.2654276 0.2519685 0.2356101 0.2163828 0.1932491 0.1678264 0.1468596 0.1309284 0.1204908 0.1134713 0.1091375 0.1064518 0.105109 0.1046817 0.1048038 0.105231 0.1059025 0.1064213 0.1071232 0.1077336 0.1085271 0.1092596 0.10987 0.1104193 0.110694 0.1109687 0.1110297 0.1108161 0.1102973 0.1089849 0.1070927 0.1049869 0.1023622 0.09952389 0.09598364 0.09204663 0.08731612 0.08115119 0.07407068 0.06586096 0.05759019 0.04974669 0.04291033 0.03756943 0.0337545 0.03146555 0.03021425 0.02993957 0.03006165 0.0307636 0.03167918 0.03283892 0.03409021 0.03537203 0.03665385 0.03769151 0.03854606 0.039248 0.03970579 0.04004151 0.04013307 0.04007202 0.03985839 0.03958371 0.0390954 0.03857657 0.03775255 0.036898 0.03586034 0.03460905 0.03314411 0.03146555 0.02969542 0.02765061 0.02530062 0.02261491 0.01965452 0.01657206 0.01342855 0.01049869 0.007812977 0.00546298 0.003540255 0.002105841 0.001159739 0.0005798694 0.0002441555 0.0001220778 0.0000305194 0 0 0 0 0 0 0 0 0 0 0 0 0 0 0 0 0 0 0 0 0 0 0 0 0 0 0 0 0 0 0 0 0 0 0 0 0 0 0 0 0 0 0 0 0 0 0 0 0 0 0 0 0 0 0 0 0 0 0 0 0 0 0 0 0 0 0 0 0 0 0 0 0 0 0 0 0 0 0 0 0 0 0 0 0 0 0 0 0 0 0 0 0 0 0 0 0 0 0 0 0 0 0 0 0 0 0 0 0 0 0 0 0 0 0 0 0 0 0 0 0 0 0 0 0 0 0 0 0.0000305194 0.0003662333 0.001159739 0.004333761 0.008942196 0.0216688 0.03552463 0.05276811 0.06961484 0.08417262 0.09747909 0.1067265 0.112983 0.1164012 0.1187206 0.1198498 0.1204602 0.1211317 0.1225661 0.1243057 0.1265946 0.1286089 0.1312336 0.1335226 0.1363609 0.1386193 0.1411524 0.1431972 0.1450284 0.1462186 0.1473479 0.148416 0.1503693 0.1525667 0.1557407 0.1586401 0.1619361 0.1649576 0.167918 0.1718245 0.1760361 0.1816212 0.1863822 0.1901972 0.192242 0.1936153 0.1958432 0.1980712 0.2012147 0.20329 0.2056705 0.2070439 0.2084478 0.208814 0.2088751 0.2083562 0.2078374 0.2072575 0.2067387 0.2064335 0.2063419 0.2071965 0.2086004 0.2110419 0.2136666 0.2171153 0.2201062 0.2226088 0.223738 0.2237685 0.2230971 0.222212 0.2214491 0.2208081 0.2206556 0.2204724 0.2208081 0.2210828 0.2215711 0.2220289 0.2218458 0.2208387 0.2180004 0.2155588 0.213514 0.2133004 0.2127205 0.2114387 0.2090887 0.2071354 0.205579 0.2057621 0.2055179 0.2052738 0.2041751 0.2034426 0.2025575 0.2019166 0.2012452 0.2004822 0.199414 0.1956296 0.1881829 0.1756394 0.1615089 0.1458524 0.1364829 0.1308063 0.1271135 0.1255265 0.1246719 0.1243972 0.1235732 0.1224135 0.1198804 0.116981 0.1140206 0.1116096 0.1097174 0.1081609 0.1065739 0.1055057 0.1036745 0.1018129 0.09912714 0.09714338 0.09570897 0.0951291 0.09445767 0.09332845 0.09164988 0.08984923 0.08783495 0.08603431 0.08368431 0.08139535 0.07874016 0.07639016 0.07388756 0.0712629 0.06811939 0.06509797 0.06268694 0.06113044 0.06024538 0.05954343 0.05890252 0.05826161 0.0580785 0.05893304 0.06094732 0.06384667 0.06702069 0.07178172 0.07639016 0.08145639 0.08612587 0.08792651 0.08716352 0.08487456 0.08206677 0.08075444 0.07965574 0.07913691 0.07938106 0.07935055 0.07983886 0.07953367 0.07901483 0.07812977 0.07684796 0.07538302 0.07388756 0.07257523 0.07138497 0.07062198 0.0700116 0.0694012 0.06854667 0.06753952 0.06647134 0.06573887 0.0653116 0.06509797 0.06506745 0.06506745 0.06506745 0.06506745 0.06506745 0.06500641 0.06485381 0.0643655 0.06360251 0.06238174 0.06131355 0.06039798 0.06018434 0.06006226 0.06006226 0.06006226 0.06006226 0.06003174 0.06000122 0.05975707 0.05936031 0.05853629 0.05752914 0.05646097 0.0557285 0.05530123 0.05508759 0.05505707 0.05505707 0.05505707
0.1136239 0.1254349 0.1386803 0.1518953 0.164805 0.1771348 0.1897699 0.2022523 0.212751 0.2230055 0.2308185 0.2367088 0.2395776 0.2417445 0.2432094 0.2446438 0.2458646 0.247299 0.248825 0.2506867 0.2524873 0.2539828 0.255051 0.255814 0.2567906 0.2580724 0.2596899 0.2615211 0.2634438 0.2651529 0.2671977 0.2691509 0.2715925 0.2741256 0.2769944 0.2798633 0.2827931 0.285723 0.2882866 0.2906671 0.2926814 0.2947263 0.2965879 0.2988464 0.3011658 0.30376 0.3065373 0.3094977 0.3125496 0.3154489 0.3181957 0.3206067 0.3228346 0.3248184 0.3266191 0.3279619 0.328908 0.3295184 0.3297931 0.3298236 0.3298236 0.3293048 0.3273515 0.3235671 0.3184093 0.3129158 0.3073613 0.3016236 0.2962522 0.2917048 0.2890801 0.288134 0.2886529 0.2899042 0.2907587 0.2912775 0.2902094 0.2878899 0.282549 0.27556 0.2653665 0.2544406 0.2414698 0.2255082 0.2045108 0.1808887 0.1557407 0.1330953 0.1166758 0.1063908 0.1004395 0.09711286 0.09561741 0.09500702 0.09500702 0.09540378 0.09589209 0.09665507 0.09732649 0.09802844 0.09882195 0.09955442 0.1003784 0.1011109 0.1016603 0.1018739 0.1015992 0.1010194 0.1002869 0.0992187 0.09790637 0.09601416 0.0937252 0.09091742 0.08765183 0.08368431 0.0786486 0.07248367 0.06503693 0.05670512 0.04764085 0.03863761 0.03048892 0.02371361 0.01846426 0.01495453 0.01275713 0.01199414 0.01220778 0.01312336 0.0144357 0.01614478 0.01800647 0.01986816 0.0218214 0.02362205 0.02530062 0.02670451 0.02783373 0.02877983 0.02954282 0.03006165 0.03039736 0.03051944 0.03058048 0.03039736 0.03006165 0.02957334 0.02881035 0.02783373 0.02661295 0.02514802 0.02331685 0.02130257 0.01922725 0.01687725 0.01458829 0.0122383 0.00979674 0.007477263 0.00546298 0.003784411 0.002472075 0.001525972 0.0008240249 0.0003967527 0.0001831166 0.0000610389 0 0 0 0 0 0 0 0 0 0 0 0 0 0 0 0 0 0 0 0 0 0 0 0 0 0 0 0 0 0 0 0 0 0 0 0 0 0 0 0 0 0 0 0 0 0 0 0 0 0 0 0 0 0 0 0 0 0 0 0 0 0 0 0 0 0 0 0 0 0 0 0 0 0 0 0 0 0 0 0 0 0 0 0 0 0 0 0 0 0 0 0 0 0 0 0 0 0 0 0 0 0 0 0 0 0 0 0 0 0 0 0 0 0 0 0 0 0 0 0 0 0 0 0 0 0 0 0 0 0 0 0 0.0001525972 0.0007019471 0.00271623 0.006287005 0.0174266 0.03085515 0.04858695 0.06637979 0.08112067 0.09378624 0.10282 0.1097784 0.1143869 0.1177135 0.1193005 0.1201856 0.1210706 0.1226576 0.1243362 0.126442 0.1282427 0.1306232 0.1328206 0.1356589 0.1378563 0.1404199 0.1423122 0.1439907 0.1451199 0.1464018 0.1479277 0.1503693 0.1529634 0.1563511 0.1594641 0.1626381 0.1657206 0.1687725 0.1733504 0.1779894 0.183666 0.1875725 0.1904718 0.1919673 0.1934322 0.1959348 0.1983458 0.2012147 0.2032595 0.2052738 0.206464 0.2073796 0.2075627 0.2073491 0.2068608 0.2064335 0.2060978 0.2058536 0.2060673 0.2065861 0.2082036 0.2101264 0.2131173 0.2160166 0.2195569 0.2219679 0.2234328 0.2234939 0.2228224 0.2220289 0.2212354 0.2206556 0.2203198 0.2203809 0.2204114 0.2209302 0.2214185 0.2219374 0.2218458 0.2206556 0.2186718 0.2159556 0.214277 0.2131478 0.2133309 0.2120491 0.2104621 0.2081426 0.2071354 0.2063114 0.2066166 0.2061283 0.2055484 0.2045718 0.2038699 0.2029848 0.2021303 0.2012452 0.2003907 0.1992614 0.195416 0.1884575 0.1772569 0.1643472 0.1498505 0.140542 0.1354758 0.1315388 0.1305622 0.1293719 0.1285174 0.1268998 0.1253739 0.1224745 0.119331 0.116218 0.1134408 0.1119453 0.1104193 0.1092291 0.1077947 0.105994 0.1038577 0.1009888 0.09839468 0.09631936 0.09537325 0.09479338 0.09406091 0.0926265 0.09103949 0.08893365 0.0872856 0.08511872 0.08353171 0.08139535 0.07956418 0.07733627 0.07462003 0.07138497 0.0676616 0.0646707 0.06219862 0.06088629 0.06033693 0.06030641 0.06052005 0.06085576 0.06222914 0.06427394 0.06714277 0.06964536 0.07407068 0.07831289 0.08331807 0.08807911 0.08997131 0.08966611 0.08752976 0.08484405 0.08328755 0.08212782 0.08115119 0.080846 0.08026613 0.0803882 0.08011353 0.0797473 0.07922847 0.07828236 0.07709211 0.07559665 0.0741012 0.07266679 0.07150705 0.07071354 0.07007264 0.06946225 0.06854667 0.06747849 0.0664103 0.06567784 0.06518953 0.06512849 0.06506745 0.06506745 0.06506745 0.06506745 0.06503693 0.06500641 0.06476225 0.06433498 0.06332784 0.06225966 0.06109992 0.06052005 0.06018434 0.06009278 0.06006226 0.06006226 0.06006226 0.06006226 0.06000122 0.05984862 0.05939083 0.05853629 0.05746811 0.05639993 0.05566746 0.05517915 0.05511811 0.05505707 0.05505707
0.1057804 0.1168895 0.1296466 0.1427394 0.1558017 0.1678569 0.1804004 0.1926082 0.2043582 0.2152841 0.2246536 0.2319172 0.2368003 0.2400049 0.2418055 0.2433315 0.2446438 0.2459257 0.2470854 0.2485808 0.2504425 0.2521516 0.2537386 0.2546542 0.2555393 0.2563328 0.257462 0.2588354 0.2605445 0.2623146 0.2641763 0.2659159 0.2678997 0.270097 0.272386 0.2751022 0.277849 0.2808094 0.2835256 0.2863029 0.2886223 0.2908503 0.2929866 0.2950009 0.2968931 0.2989074 0.3010132 0.3031191 0.3053775 0.307697 0.310108 0.3125801 0.3150217 0.3175243 0.3197217 0.3215223 0.3229567 0.3240554 0.3248489 0.3254898 0.325795 0.3253067 0.3229872 0.318745 0.3135872 0.3078496 0.3016542 0.2945736 0.2871879 0.2803821 0.2750107 0.2713789 0.2696393 0.2691204 0.2695172 0.2698834 0.2695172 0.2663737 0.2602698 0.2517549 0.2400049 0.2275835 0.2115608 0.1924556 0.1673076 0.1423427 0.1198193 0.1031862 0.09323689 0.08835378 0.08637002 0.08588171 0.08615638 0.08670573 0.08749924 0.08826222 0.08899469 0.0896356 0.09024598 0.09070378 0.09116157 0.09146676 0.09171092 0.091833 0.09186351 0.09161936 0.09079534 0.089483 0.08765183 0.08557651 0.08316547 0.08032717 0.07687847 0.07254471 0.06741744 0.06140511 0.05429409 0.04657267 0.03839346 0.03042788 0.0230727 0.01675517 0.01184154 0.008148691 0.005615577 0.004059086 0.0032961 0.0032961 0.00384545 0.004852591 0.00601233 0.007416224 0.008942196 0.01052921 0.01211622 0.01358115 0.01492401 0.01611426 0.01712141 0.01791491 0.01858634 0.01907465 0.01925777 0.01931881 0.01928829 0.01904413 0.0186779 0.01806751 0.01736556 0.01644998 0.01535128 0.01400842 0.01260453 0.01104804 0.009491546 0.007874016 0.006409083 0.005005188 0.003753891 0.002655191 0.001770128 0.001129219 0.0006714277 0.0003662333 0.0001831166 0.0000610389 0.0000305194 0 0 0 0 0 0 0 0 0 0 0 0 0 0 0 0 0 0 0 0 0 0 0 0 0 0 0 0 0 0 0 0 0 0 0 0 0 0 0 0 0 0 0 0 0 0 0 0 0 0 0 0 0 0 0 0 0 0 0 0 0 0 0 0 0 0 0 0 0 0 0 0 0 0 0 0 0 0 0 0 0 0 0 0 0 0 0 0 0 0 0 0 0 0 0 0 0 0 0 0 0 0 0 0 0 0 0 0 0 0 0 0 0 0 0 0 0 0 0 0 0 0 0 0 0 0 0 0 0 0 0 0 0 0.0000610389 0.0003662333 0.001495453 0.004181163 0.013337 0.02630776 0.04410059 0.06338888 0.07806873 0.08997131 0.09824208 0.105231 0.1110297 0.1156382 0.1182018 0.1197888 0.1214063 0.1231154 0.124794 0.1267472 0.1285174 0.1308368 0.1328511 0.1353842 0.1373985 0.139779 0.141366 0.1428615 0.1438992 0.1455167 0.1476225 0.1504914 0.1536043 0.156931 0.1601965 0.1631874 0.1665446 0.1700848 0.1751511 0.1800647 0.1850699 0.1879387 0.189953 0.1913569 0.193127 0.1958127 0.1984069 0.201001 0.2028322 0.2045108 0.2057316 0.206403 0.206464 0.2062199 0.2059147 0.205701 0.205579 0.205701 0.2063725 0.2075322 0.2096075 0.2121101 0.2153757 0.2184887 0.2214185 0.222853 0.2230361 0.2223341 0.2216017 0.2208997 0.2205945 0.2202588 0.2201978 0.2202588 0.2205335 0.2210218 0.2215101 0.2217848 0.220564 0.2184276 0.215803 0.2139718 0.2134224 0.2133309 0.213514 0.2116218 0.209577 0.2074712 0.2072575 0.2068913 0.2069218 0.2061588 0.2055179 0.2047855 0.2042971 0.2033205 0.2022523 0.2011231 0.2002075 0.1990173 0.1949887 0.1885186 0.1783861 0.1666667 0.1534823 0.1446316 0.1403284 0.1363914 0.1357505 0.1338277 0.1320271 0.1292804 0.1272355 0.1246109 0.1216505 0.1186901 0.1155771 0.1140206 0.1127083 0.1117927 0.1100531 0.1080083 0.1055362 0.1028505 0.09982909 0.09735702 0.09583104 0.0951291 0.09461027 0.09338949 0.09204663 0.08994079 0.08841482 0.08664469 0.08563755 0.08395898 0.08224989 0.07986937 0.07709211 0.07404016 0.07037783 0.06699017 0.06378563 0.06198499 0.06131355 0.06158823 0.0624733 0.06323628 0.06509797 0.067509 0.07056095 0.07263627 0.07651224 0.07996093 0.08447781 0.08929989 0.09149729 0.09164988 0.08975767 0.08710249 0.08542392 0.08429469 0.08344015 0.08279924 0.0817921 0.08124276 0.0806934 0.08017457 0.07993042 0.07938106 0.07861808 0.07727522 0.07574925 0.07416224 0.07266679 0.07147653 0.07049991 0.07004212 0.0694012 0.0686077 0.06738693 0.06631874 0.06540316 0.06518953 0.06506745 0.06506745 0.06506745 0.06506745 0.06506745 0.06506745 0.06500641 0.06482329 0.06418239 0.06320576 0.06192394 0.06100836 0.06036745 0.0601233 0.06009278 0.06006226 0.06006226 0.06006226 0.06006226 0.06000122 0.05984862 0.05936031 0.05859733 0.05737655 0.05630837 0.05539279 0.05517915 0.05505707 0.05505707
0.09891351 0.1086492 0.1204602 0.1332784 0.1458524 0.1580297 0.1704816 0.1825063 0.1948056 0.2062199 0.2169932 0.2254471 0.2327107 0.2375328 0.2403711 0.2420497 0.243362 0.2445218 0.2454679 0.2465055 0.248001 0.2497711 0.2518159 0.2534029 0.2547153 0.2553562 0.2560276 0.2568211 0.2580419 0.2595373 0.2612769 0.2629555 0.2646036 0.2663431 0.2681743 0.2703107 0.2726607 0.275438 0.2781847 0.2810535 0.2838613 0.2864555 0.2887749 0.2907587 0.2926509 0.294299 0.2960996 0.2979918 0.2999145 0.3018983 0.3039431 0.306171 0.3084295 0.3105963 0.3126411 0.3144723 0.3160288 0.3174937 0.3188366 0.3200574 0.3206678 0.3200268 0.3174327 0.3129463 0.3077275 0.3016236 0.2944821 0.2865165 0.2781237 0.2705243 0.2638711 0.2583165 0.2543795 0.2509614 0.2486724 0.2454984 0.2420497 0.2359458 0.2274309 0.2172069 0.2050296 0.1912959 0.1733504 0.1517732 0.126442 0.1045901 0.08810963 0.078496 0.0742538 0.07330769 0.07400964 0.07510834 0.07639016 0.07764146 0.07874016 0.07980834 0.0806934 0.08136483 0.08176158 0.08191418 0.0817921 0.08142587 0.08078496 0.08002198 0.07904536 0.07797717 0.07642068 0.07446744 0.07178172 0.06872978 0.06515901 0.06103888 0.05615577 0.05078435 0.04471098 0.0381493 0.0314045 0.02487334 0.01873894 0.01355063 0.00927791 0.006042849 0.00381493 0.002258439 0.001342855 0.000762986 0.0005798694 0.0006103888 0.000762986 0.001159739 0.001709089 0.002472075 0.0032961 0.004242202 0.005188305 0.006195446 0.007172069 0.008118171 0.008972716 0.009766221 0.01040713 0.01092596 0.01123115 0.01144479 0.01144479 0.01132271 0.010987 0.01049869 0.009857779 0.009094793 0.00820973 0.007172069 0.006134408 0.005096747 0.004028566 0.003051944 0.0021974 0.001495453 0.0009461027 0.0005493499 0.000274675 0.0001831166 0.0000610389 0 0 0 0 0 0 0 0 0 0 0 0 0 0 0 0 0 0 0 0 0 0 0 0 0 0 0 0 0 0 0 0 0 0 0 0 0 0 0 0 0 0 0 0 0 0 0 0 0 0 0 0 0 0 0 0 0 0 0 0 0 0 0 0 0 0 0 0 0 0 0 0 0 0 0 0 0 0 0 0 0 0 0 0 0 0 0 0 0 0 0 0 0 0 0 0 0 0 0 0 0 0 0 0 0 0 0 0 0 0 0 0 0 0 0 0 0 0 0 0 0 0 0 0 0 0 0 0 0 0 0 0 0 0 0 0 0 0.0000305194 0.0001831166 0.0008240249 0.00271623 0.009888299 0.0216688 0.03906488 0.05978759 0.07544406 0.08737716 0.0948239 0.1009583 0.1066349 0.1117012 0.1152719 0.1179576 0.1205823 0.1231154 0.1251602 0.1272661 0.1291583 0.1314167 0.1332479 0.1355063 0.1373375 0.1392297 0.140481 0.1416102 0.142892 0.1446927 0.1473173 0.1501251 0.1534517 0.1567173 0.1599219 0.1630349 0.166453 0.1706037 0.1760361 0.1809498 0.1850699 0.1870842 0.1886712 0.1903192 0.1926692 0.1953855 0.1980712 0.2003601 0.2023744 0.2038699 0.2049686 0.2054264 0.2055179 0.2053958 0.2053043 0.2053043 0.2054264 0.2058536 0.2070439 0.2087835 0.2112861 0.2141549 0.2172679 0.2199841 0.2218458 0.2223952 0.2220289 0.2213575 0.2208387 0.2203504 0.2200146 0.2195263 0.2196484 0.2200146 0.2206556 0.2213575 0.2212659 0.220625 0.218275 0.2158945 0.2137276 0.2131478 0.2133614 0.2131173 0.2124763 0.2101569 0.2083867 0.2075017 0.2076543 0.2075017 0.2070744 0.2062504 0.205701 0.2050906 0.2045413 0.2032595 0.2020082 0.2007874 0.1999329 0.1986205 0.1946225 0.1886407 0.1797595 0.1691387 0.1573277 0.149179 0.1450589 0.1406031 0.1394738 0.1368492 0.1344381 0.1312641 0.1289446 0.12632 0.1237258 0.1210401 0.1182323 0.1166148 0.1150583 0.1140817 0.1118843 0.1096869 0.1069401 0.1044986 0.1013856 0.09866935 0.09650247 0.09549533 0.0949765 0.09399988 0.0929317 0.09103949 0.08984923 0.08841482 0.08777391 0.08606482 0.08429469 0.08176158 0.07913691 0.07635964 0.07294147 0.06955381 0.06595251 0.06351095 0.06262589 0.06293109 0.06427394 0.06540316 0.06793627 0.07059146 0.07370445 0.07526094 0.0786486 0.08142587 0.08521028 0.08981872 0.09232131 0.09302326 0.09186351 0.08939144 0.08749924 0.08615638 0.08536287 0.08459989 0.08359275 0.08252457 0.08151743 0.08044925 0.08017457 0.07977782 0.07935055 0.078496 0.07724471 0.07577977 0.07422328 0.07278886 0.07147653 0.07068302 0.0700116 0.06937069 0.06833303 0.06726485 0.06610511 0.06552524 0.06518953 0.06509797 0.06506745 0.06506745 0.06506745 0.06506745 0.06503693 0.06500641 0.06470121 0.06399927 0.06296161 0.06171031 0.06076421 0.06024538 0.0601233 0.06006226 0.06006226 0.06006226 0.06006226 0.06003174 0.06000122 0.05975707 0.05932979 0.05832265 0.05725447 0.05609473 0.05551486 0.05517915 0.05508759
0.09265702 0.1008973 0.1117012 0.1239394 0.1361472 0.1485076 0.1606543 0.1723738 0.1844595 0.1961484 0.2076543 0.2171458 0.2263627 0.2329549 0.2375633 0.240188 0.2420497 0.2434231 0.2445828 0.2455289 0.2465055 0.2476653 0.2491912 0.2508698 0.2524873 0.2538607 0.2548068 0.2556614 0.2563328 0.2573399 0.2584386 0.259812 0.2612769 0.2628639 0.2644815 0.2663737 0.2684185 0.2706464 0.2729964 0.2755295 0.2780321 0.2804126 0.2829152 0.2851126 0.2873405 0.2894769 0.2914607 0.2933224 0.2950009 0.296649 0.298297 0.2998535 0.3015931 0.3031801 0.3048892 0.3066288 0.3083074 0.310047 0.311634 0.3130379 0.3135262 0.3123055 0.3090399 0.3044925 0.2990295 0.2921931 0.284136 0.2753464 0.2666484 0.2585302 0.2513886 0.2445828 0.238662 0.2322835 0.2264543 0.2186718 0.2104315 0.1995056 0.1879387 0.1758225 0.1630043 0.1487823 0.1304706 0.1094732 0.08804858 0.07248367 0.06299213 0.05932979 0.0590246 0.06030641 0.06186291 0.06351095 0.06494537 0.06631874 0.06735641 0.06821095 0.06882134 0.06921809 0.06934017 0.06909601 0.06857719 0.06778368 0.06665446 0.06525056 0.06354147 0.06164927 0.05936031 0.05658304 0.05334798 0.04941098 0.04492462 0.03988891 0.03454801 0.02884087 0.02328633 0.01797595 0.01327596 0.009186352 0.006042849 0.003753891 0.002258439 0.001251297 0.0006714277 0.0003051944 0.0001525972 0.0000610389 0.0000610389 0.0000915583 0.0001831166 0.0003051944 0.0004883111 0.0007019471 0.001007142 0.001342855 0.001739608 0.0021974 0.002655191 0.003082464 0.003540255 0.003906488 0.004181163 0.00436428 0.004455838 0.004516877 0.004455838 0.004333761 0.004089605 0.003753891 0.003418177 0.002990905 0.002563633 0.002136361 0.001739608 0.001342855 0.001007142 0.0007019471 0.0004577916 0.000274675 0.0001525972 0.0000915583 0.0000610389 0.0000305194 0 0 0 0 0 0 0 0 0 0 0 0 0 0 0 0 0 0 0 0 0 0 0 0 0 0 0 0 0 0 0 0 0 0 0 0 0 0 0 0 0 0 0 0 0 0 0 0 0 0 0 0 0 0 0 0 0 0 0 0 0 0 0 0 0 0 0 0 0 0 0 0 0 0 0 0 0 0 0 0 0 0 0 0 0 0 0 0 0 0 0 0 0 0 0 0 0 0 0 0 0 0 0 0 0 0 0 0 0 0 0 0 0 0 0 0 0 0 0 0 0 0 0 0 0 0 0 0 0 0 0 0 0 0 0 0 0 0 0 0.0000610389 0.000274675 0.001587011 0.007202588 0.01767076 0.03433437 0.05603369 0.07227004 0.08472197 0.09174144 0.09708234 0.1022096 0.1070622 0.111396 0.1151498 0.1190563 0.1223219 0.1251297 0.1275407 0.1297687 0.1320576 0.1341329 0.1362998 0.1380089 0.1394433 0.1404505 0.1414271 0.1429531 0.1448758 0.1478056 0.150644 0.1540927 0.1572667 0.1603186 0.1635537 0.1672771 0.1720686 0.1774095 0.1819569 0.1850394 0.1865959 0.1881218 0.1899835 0.1926692 0.195416 0.1982543 0.2003907 0.2024965 0.2038699 0.204938 0.2052432 0.2053043 0.2052738 0.2052432 0.2053653 0.20564 0.2065556 0.2079595 0.2102484 0.21269 0.215864 0.2185802 0.2207166 0.2215406 0.2215101 0.2209913 0.2204724 0.2200452 0.2195263 0.2192517 0.2190075 0.2194653 0.2199536 0.220625 0.2207776 0.21974 0.218214 0.2155893 0.2137276 0.2126289 0.2129341 0.2130257 0.2123543 0.2109809 0.2090582 0.2078984 0.2078374 0.207929 0.2075932 0.2071049 0.2063114 0.2060062 0.2050906 0.2042971 0.2028017 0.2016114 0.2005738 0.1997192 0.1981933 0.1942257 0.1888543 0.1806751 0.1711835 0.1605017 0.1531771 0.1493927 0.144479 0.1427699 0.1393823 0.1364829 0.1330342 0.1305011 0.1279375 0.1256791 0.1235427 0.1210401 0.1192089 0.1172252 0.1156992 0.1134408 0.1111213 0.1084051 0.1061161 0.1029421 0.1001648 0.09735702 0.0959226 0.0951291 0.09448819 0.0937252 0.09222975 0.09143624 0.09033754 0.08972716 0.08777391 0.08579015 0.08310444 0.08060184 0.07806873 0.07532198 0.07208692 0.06854667 0.06586096 0.06457914 0.06442654 0.0656168 0.06711225 0.07031679 0.073796 0.07672587 0.07776354 0.08057132 0.08267716 0.08588171 0.09012391 0.09259598 0.09378624 0.09326741 0.09125313 0.08939144 0.08780443 0.08704145 0.08609534 0.08542392 0.08405054 0.08286028 0.08130379 0.08060184 0.08014405 0.07989989 0.07941158 0.078496 0.07727522 0.07574925 0.07416224 0.07260575 0.07147653 0.07062198 0.06995056 0.06924861 0.06821095 0.06692913 0.06601355 0.06537265 0.06512849 0.06509797 0.06506745 0.06506745 0.06506745 0.06506745 0.06503693 0.06494537 0.06451809 0.06381615 0.06253433 0.06143563 0.06052005 0.06021485 0.06006226 0.06006226 0.06006226 0.06006226 0.06006226 0.06006226 0.06000122 0.0598181 0.0591772 0.05820058 0.05691876 0.05600318 0.05536227 0.05511811
0.08810963 0.094183 0.102881 0.1138986 0.1258011 0.1385888 0.1508271 0.1625465 0.1738387 0.1854972 0.1972166 0.2077458 0.218153 0.2263932 0.2330464 0.2375023 0.2403711 0.2419581 0.2432705 0.2443692 0.2452848 0.2461088 0.2471464 0.2485198 0.2501068 0.2518159 0.2531587 0.254349 0.255051 0.255814 0.2566075 0.2575841 0.2586828 0.2599646 0.2612464 0.2626808 0.2641152 0.2657328 0.2675334 0.2694867 0.2717756 0.2740646 0.2765061 0.2789782 0.2814808 0.2839529 0.2860892 0.288073 0.2898431 0.2914301 0.2929561 0.2945126 0.2960081 0.2975035 0.2989379 0.3004334 0.3018983 0.3033022 0.304584 0.305347 0.3047976 0.3023561 0.2981139 0.2925594 0.2861198 0.2783068 0.269212 0.2601172 0.2513581 0.2431789 0.2356406 0.2280413 0.2207471 0.2121101 0.2024354 0.1903803 0.1774095 0.1630654 0.1492095 0.1354758 0.1219252 0.1062687 0.08771287 0.06872978 0.05313434 0.04455838 0.0412928 0.0414454 0.04330709 0.04547397 0.04761033 0.0492889 0.05075383 0.05185253 0.05273759 0.05334798 0.0536837 0.05377525 0.0535311 0.05304279 0.0522798 0.05105902 0.04953305 0.04748825 0.04510773 0.04220839 0.03912592 0.03576878 0.03210645 0.02819996 0.02414088 0.01995971 0.01593115 0.01217726 0.008942196 0.006134408 0.004028566 0.002472075 0.001434414 0.000762986 0.0003357138 0.0001525972 0.0000610389 0.0000305194 0 0 0 0 0 0.0000305194 0.0000915583 0.0001525972 0.0002136361 0.0003051944 0.0004577916 0.0006409083 0.0008240249 0.001037661 0.001251297 0.001434414 0.001587011 0.001678569 0.001739608 0.001770128 0.001770128 0.001709089 0.001587011 0.001464933 0.001281817 0.00106818 0.0008850638 0.0007019471 0.0005188305 0.0003662333 0.0002441555 0.0001525972 0.0000915583 0.0000305194 0 0 0 0 0 0 0 0 0 0 0 0 0 0 0 0 0 0 0 0 0 0 0 0 0 0 0 0 0 0 0 0 0 0 0 0 0 0 0 0 0 0 0 0 0 0 0 0 0 0 0 0 0 0 0 0 0 0 0 0 0 0 0 0 0 0 0 0 0 0 0 0 0 0 0 0 0 0 0 0 0 0 0 0 0 0 0 0 0 0 0 0 0 0 0 0 0 0 0 0 0 0 0 0 0 0 0 0 0 0 0 0 0 0 0 0 0 0 0 0 0 0 0 0 0 0 0 0 0 0 0 0 0 0 0 0 0 0 0 0 0 0 0 0.0000305194 0.0001220778 0.0008545443 0.005005188 0.01382531 0.02948178 0.05166941 0.0687603 0.08185314 0.08905573 0.0937252 0.09805896 0.1021791 0.1067875 0.111396 0.1164622 0.1203992 0.1241531 0.1271745 0.1300433 0.1325765 0.1348654 0.1369713 0.1386803 0.139779 0.1407251 0.1416407 0.1437161 0.1458829 0.1491485 0.1520784 0.1553439 0.158518 0.1614173 0.1652017 0.1693524 0.1744491 0.1793628 0.1832387 0.1855277 0.1867485 0.188427 0.1905023 0.1935238 0.1960874 0.1988952 0.2008179 0.2029238 0.2041445 0.2050601 0.2051822 0.2052127 0.2052127 0.2052432 0.2055179 0.2060367 0.2073186 0.2089971 0.2114082 0.2138497 0.2168406 0.2190685 0.2205335 0.2207776 0.2207166 0.2203504 0.2199841 0.2193127 0.2186718 0.2184276 0.2185497 0.2194043 0.2198926 0.2200757 0.2191601 0.2171763 0.2149179 0.2128121 0.2120491 0.2122017 0.2129647 0.2126595 0.2113166 0.2093634 0.2081731 0.2076848 0.20799 0.2079595 0.2074101 0.2069523 0.2064335 0.2062199 0.2049686 0.2038699 0.2021913 0.2011536 0.2003907 0.199414 0.1977355 0.19389 0.189129 0.1817738 0.1732589 0.1635232 0.1568394 0.1530245 0.1474089 0.1449979 0.141244 0.1383141 0.1348349 0.1320271 0.1294024 0.1273881 0.1258622 0.1240005 0.1218641 0.1193615 0.1170421 0.1147531 0.1125252 0.1098395 0.10752 0.104407 0.1016297 0.09848624 0.09659403 0.09537325 0.09491546 0.09451871 0.09366416 0.09317585 0.09204663 0.09116157 0.08902521 0.08688885 0.08426417 0.08173107 0.07941158 0.07709211 0.07443692 0.07141549 0.06879082 0.06699017 0.06592199 0.06671549 0.06857719 0.07257523 0.0766038 0.07932003 0.07983886 0.08218885 0.08392847 0.08670573 0.09045962 0.09280962 0.09424403 0.09442715 0.0929317 0.09116157 0.08926936 0.08841482 0.0874382 0.08710249 0.08566807 0.08441678 0.08234145 0.08118171 0.0803882 0.08008301 0.07989989 0.07938106 0.07855704 0.07718366 0.07562718 0.07394861 0.07251419 0.07129341 0.07034731 0.06982848 0.06900445 0.0679668 0.06671549 0.0657694 0.06525056 0.06512849 0.06506745 0.06506745 0.06506745 0.06506745 0.06506745 0.06506745 0.06488433 0.06457914 0.0634194 0.06219862 0.06094732 0.06039798 0.0601233 0.06006226 0.06006226 0.06006226 0.06006226 0.06006226 0.06003174 0.06000122 0.05969603 0.05899408 0.05795642 0.05670512 0.05575902 0.05524019
