0.5 0.5 0.5 0.5 0.5 0.5 0.5 0.5 0.5 0.5 0.5 0.5 0.5 0.5 0.5 0.5 0.5 0.5 0.5 0.5 0.5 0.5 0.5 0.5 0.5 0.5 0.5 0.5 0.5 0.5 0.5 0.5 0.5 0.5 0.5 0.5 0.5 0.5 0.5 0.5 0.5 0.5 0.5 0.5 0.5 0.5 0.5 0.5 0.5 0.5 0.5 0.5 0.5 0.5 0.5 0.5 0.5 0.5 0.5 0.5 0.5 0.5 0.5 0.5 0.5 0.5 0.5 0.5 0.5 0.5 0.5 0.5 0.5 0.5 0.5 0.5 0.5 0.5 0.5 0.5 0.5 0.5 0.5 0.5000305 0.5001526 0.5006714 0.5018312 0.5043948 0.5092474 0.5160837 0.5253006 0.5350363 0.5452603 0.5544467 0.5637856 0.5734298 0.5839895 0.5935421 0.6014771 0.6065739 0.6102057 0.6126778 0.6160654 0.6198804 0.624855 0.6298297 0.6351095 0.6401452 0.6442654 0.6478361 0.6504914 0.6519258 0.6543673 0.6559544 0.6569615 0.6590368 0.6603796 0.6628823 0.6648965 0.6658427 0.6663004 0.6676433 0.6689861 0.6714888 0.6735946 0.6762192 0.6783862 0.6811023 0.6832693 0.6843374 0.6847647 0.6842154 0.6850393 0.6853751 0.6865348 0.6886712 0.6894037 0.6893121 0.6878166 0.687542 0.6871452 0.6880302 0.6880913 0.6883965 0.6877861 0.6875725 0.6867179 0.6850088 0.6851615 0.6850393 0.6848868 0.6863517 0.6869316 0.6886407 0.6897699 0.6895562 0.6906855 0.6909907 0.6908075 0.6900751 0.6904108 0.6903498 0.6910822 0.691601 0.6910517 0.692364 0.6929439 0.6943478 0.6950192 0.6938289 0.6925471 0.6903192 0.6885796 0.6869316 0.6874199 0.6879997 0.6881829 0.6883355 0.6876945 0.6865043 0.6872978 0.6875114 0.6868095 0.685192 0.6835439 0.6817127 0.6807666 0.6804615 0.6798816 0.6793323 0.6776537 0.6753036 0.6728316 0.6707868 0.6697186 0.6695355 0.6694745 0.6703595 0.6704816 0.6711835 0.6713056 0.6710615 0.670329 0.6684368 0.6668498 0.663981 0.6625465 0.6605017 0.6598303 0.6584874 0.6587011 0.6594946 0.6598608 0.659403 0.6605017 0.6597083 0.6605017 0.6590063 0.6578771 0.6570836 0.6575108 0.6567478 0.6567173 0.6543368 0.6535433 0.6519563 0.6534517 0.6537569 0.653879 0.6541537 0.6551914 0.6584569 0.6614478 0.6653238 0.66804 0.6681011 0.6677654 0.6669108 0.6678264 0.6679485 0.670451 0.6714888 0.6739608 0.6741744 0.6753342 0.6745712 0.6749374 0.6764634 0.67744 0.6790881 0.6819264 0.6827809 0.6842459 0.6834829 0.683666 0.6855582 0.6858023 0.6873894 0.6879387 0.6890985 0.6883965 0.6887932 0.6878471 0.6865043 0.6866264 0.6853141 0.6861076 0.6854972 0.6864738 0.6882439 0.6899225 0.6914485 0.6926692 0.6956906 0.6985289 0.7021608 0.7050601 0.7062504 0.7078679 0.7112861 0.7136056 0.7161692 0.7170237 0.7179088 0.7180919 0.7210828 0.7242569 0.7273088 0.729201 0.7287432 0.727553 0.7255387 0.7243179 0.7224867 0.7214491 0.7210218 0.7227004 0.7254166 0.7292926 0.7333822 0.7371055 0.7404932 0.742538 0.7437588 0.7439114 0.7441555 0.7437283 0.7430874 0.7418056 0.74089 0.7403406 0.7397607 0.7393029 0.7382348 0.7376549 0.7366172 0.7364341 0.7368919 0.7373802 0.7374718 0.7365867 0.7358237 0.7342978 0.7320393 0.7282549 0.7231581 0.7178478 0.7133614 0.7107978 0.7094854 0.7088751 0.7080815 0.7063114 0.7040225 0.7026796 0.7012147 0.7003296 0.6984069 0.6980712 0.6978576 0.6973387 0.6964231 0.6950192 0.6941952 0.6934322 0.6944699 0.6963621 0.6988342 0.7006348 0.700879 0.7010316 0.7010316 0.7016724 0.7028322 0.7046329 0.7069829 0.710401 0.7143991 0.718214 0.720564 0.7218458 0.721388 0.7178478 0.7107978 0.7012757 0.6933712 0.6879082 0.6850393 0.6816517 0.6771043 0.6706647 0.663981 0.6578771 0.6525362 0.6477141 0.642953 0.6394128 0.6367576 0.6354758 0.6342855 0.6330953 0.6317524 0.6304096 0.6290362 0.6276323 0.626442 0.625557 0.6251907 0.624794 0.624092 0.6228102 0.6214979 0.6204602 0.6193005 0.6181102 0.6165842 0.6154245 0.6137459 0.6124336 0.6112739 0.6107245 0.6103888 0.6097479 0.6089239 0.6076421 0.6064823 0.6050785 0.603705 0.6017518 0.5997375 0.596594 0.5932063 0.590246 0.5896356 0.5927791 0.6000122 0.611396 0.6258927 0.6421596 0.658579 0.673503 0.6847647 0.6914179 0.6930965 0.6908686 0.686016 0.6801257 0.6744491 0.6696271 0.6656901 0.6628823 0.6605628 0.6586705 0.6571751 0.6556186 0.6540622 0.6525056 0.6509186 0.6494232 0.647653 0.646005 0.6442654 0.6424648 0.6408167 0.6391991 0.6377342 0.6361167 0.6343771 0.6325765 0.6307148 0.628792 0.6270524 0.6254654 0.62397 0.6225355 0.6212842 0.6203687 0.6196057 0.6190869 0.6182323 0.616981 0.615333 0.6137764 0.6122505 0.6108466 0.6096258 0.6084051 0.6071843 0.6056888 0.6039187 0.6016297 0.5986999 0.5957395 0.5920161 0.5879875 0.5836843 0.5791674 0.5748337 0.5703473 0.5665324 0.5631753 0.5608557 0.5589025 0.5576207 0.556461 0.5553012 0.5540194 0.552585 0.5510285 0.549411 0.5477324 0.5462064 0.5445889 0.5430934 0.541598 0.540072 0.5386071 0.5369285 0.5352194 0.5334493 0.5316792 0.5297869 0.5278948 0.5256974 0.5233169 0.5204175 0.517274 0.5137643 0.5100714 0.5067143 0.503876 0.5020448 0.500824
0.5 0.5 0.5 0.5 0.5 0.5 0.5 0.5 0.5 0.5 0.5 0.5 0.5 0.5 0.5 0.5 0.5 0.5 0.5 0.5 0.5 0.5 0.5 0.5 0.5 0.5 0.5 0.5 0.5 0.5 0.5 0.5 0.5 0.5 0.5 0.5 0.5 0.5 0.5 0.5 0.5 0.5 0.5 0.5 0.5 0.5 0.5 0.5 0.5 0.5 0.5 0.5 0.5 0.5 0.5 0.5 0.5 0.5 0.5 0.5 0.5 0.5 0.5 0.5 0.5 0.5 0.5 0.5 0.5 0.5 0.5 0.5 0.5 0.5 0.5 0.5 0.5 0.5 0.5 0.5 0.5 0.5 0.5 0.5 0.5 0.5001526 0.5004272 0.5013428 0.5035403 0.5072636 0.5135812 0.5215467 0.5312824 0.5412012 0.5516389 0.5627785 0.5744979 0.5862174 0.5961057 0.6032473 0.6080388 0.6110297 0.6142343 0.6176524 0.6224135 0.6272966 0.6327291 0.6379479 0.6425563 0.6463407 0.6491485 0.6507965 0.6532381 0.6548862 0.6559544 0.6579076 0.6593115 0.6617531 0.6638589 0.6649576 0.665568 0.6669108 0.6683452 0.6709089 0.6731063 0.6757309 0.6777757 0.6801867 0.6820179 0.6826894 0.6827504 0.6818653 0.6822316 0.6822926 0.6830861 0.6846731 0.6853446 0.6852835 0.6840017 0.6837575 0.6833303 0.6842459 0.6842764 0.684368 0.6835134 0.6832693 0.682903 0.6819569 0.6830251 0.6836355 0.6838491 0.6852225 0.6856192 0.6871758 0.6882744 0.6881219 0.6893426 0.6897393 0.6896783 0.6887627 0.6889458 0.688427 0.6894342 0.6900446 0.6900751 0.6914485 0.6919062 0.6929439 0.6932491 0.6920589 0.690777 0.6887932 0.6872978 0.6861686 0.6870537 0.6873894 0.6870231 0.686779 0.6863517 0.6854666 0.6865348 0.6867179 0.6858023 0.6838491 0.682079 0.6802478 0.6797595 0.6798511 0.6795154 0.6788134 0.6769212 0.674327 0.6720076 0.6700238 0.6691387 0.6690167 0.6690777 0.6700238 0.670329 0.6709394 0.6713056 0.6708478 0.6701154 0.6680706 0.6664225 0.6636758 0.6623024 0.6603796 0.6597998 0.6587011 0.6590368 0.6598608 0.6602271 0.6597998 0.6606543 0.6598608 0.6603796 0.6590063 0.6579992 0.6573582 0.6578466 0.656931 0.6566868 0.6541842 0.6534823 0.6522005 0.6536654 0.6540011 0.6539706 0.6546115 0.6560459 0.6595251 0.6625465 0.6660258 0.6684062 0.6682231 0.6678569 0.6672465 0.6683147 0.6684368 0.6709394 0.6720686 0.6745102 0.6744797 0.6755784 0.6748764 0.6753342 0.6771348 0.678264 0.6800647 0.6827809 0.6833303 0.6846426 0.6838491 0.6840017 0.6861381 0.6865653 0.6881524 0.6886407 0.6896173 0.6888848 0.68919 0.688305 0.6870842 0.6871758 0.6856498 0.6862296 0.6857413 0.6871147 0.6892816 0.6910517 0.6926387 0.6941037 0.6977659 0.7008485 0.704114 0.7068608 0.707929 0.7098822 0.7136361 0.715864 0.7182445 0.7187023 0.7195569 0.7198926 0.7234634 0.7263932 0.7294146 0.7311543 0.7310627 0.7296893 0.7273393 0.7255387 0.723799 0.7232497 0.7234023 0.7256302 0.7282244 0.7321614 0.7360679 0.7396081 0.7425685 0.7444607 0.7458036 0.7462003 0.7464445 0.7454984 0.7443386 0.7423244 0.7412867 0.7406458 0.7404321 0.7404016 0.7395166 0.7388757 0.7375023 0.7374107 0.7377769 0.7384789 0.7382348 0.7371055 0.7360984 0.7346029 0.7327718 0.7292926 0.7244705 0.7193127 0.71504 0.7124459 0.7108283 0.7098517 0.7091497 0.7075016 0.7057926 0.7048465 0.7038699 0.703229 0.7011842 0.7004212 0.700116 0.6996887 0.6996276 0.6992614 0.6995971 0.6992919 0.7000244 0.7012147 0.7026491 0.7038699 0.7042666 0.704816 0.7053348 0.706403 0.7079595 0.7101874 0.712751 0.7164744 0.7211133 0.7252335 0.7271562 0.7272783 0.7254776 0.7219068 0.7152841 0.7060978 0.6970946 0.6902887 0.6865653 0.6834219 0.6800036 0.6744797 0.6681316 0.6620277 0.6564732 0.6514985 0.6464933 0.6421596 0.6384972 0.6363304 0.6349875 0.6339193 0.6325765 0.6312946 0.6298907 0.6285479 0.6270829 0.6259232 0.6253433 0.6250076 0.6246414 0.6234816 0.6221998 0.6209791 0.6199414 0.6189038 0.6175914 0.6164011 0.6149362 0.6138986 0.6130135 0.6128609 0.6131661 0.6136239 0.6139596 0.6136544 0.6133492 0.6124336 0.6117011 0.6106024 0.6102973 0.6102362 0.6112128 0.6132576 0.6176524 0.6254349 0.6369102 0.6525056 0.6697186 0.6863517 0.7003296 0.7100043 0.7151926 0.7169322 0.7153146 0.7110114 0.7049075 0.6979796 0.6913569 0.6852835 0.6801257 0.675914 0.6728011 0.6699933 0.66804 0.6656595 0.6634926 0.6611121 0.6588537 0.6566868 0.654642 0.6527498 0.6511018 0.6495453 0.6483245 0.6470121 0.6456998 0.6441739 0.6423732 0.6402979 0.6382836 0.6363304 0.6342245 0.6323323 0.6308674 0.6298602 0.6296161 0.6296161 0.6296466 0.6295245 0.6292803 0.6292498 0.6294635 0.6300128 0.6306537 0.6310505 0.6314473 0.6313251 0.6303485 0.6290057 0.627205 0.6251602 0.6226577 0.6196973 0.6162485 0.61222 0.6077946 0.6027589 0.5973876 0.5916194 0.5864615 0.581609 0.5779161 0.5747727 0.5725142 0.5706525 0.5687603 0.5668986 0.5647928 0.5625038 0.5602149 0.5576512 0.5552707 0.5529207 0.5508759 0.5490447 0.5470915 0.5451688 0.5430629 0.5410181 0.5390344 0.5371727 0.5354025 0.5334493 0.5314045 0.5292071 0.526796 0.5238357 0.5206311 0.5166636 0.5128487 0.5087896 0.505402 0.5027468
0.5 0.5 0.5 0.5 0.5 0.5 0.5 0.5 0.5 0.5 0.5 0.5 0.5 0.5 0.5 0.5 0.5 0.5 0.5 0.5 0.5 0.5 0.5 0.5 0.5 0.5 0.5 0.5 0.5 0.5 0.5 0.5 0.5 0.5 0.5 0.5 0.5 0.5 0.5 0.5 0.5 0.5 0.5 0.5 0.5 0.5 0.5 0.5 0.5 0.5 0.5 0.5 0.5 0.5 0.5 0.5 0.5 0.5 0.5 0.5 0.5 0.5 0.5 0.5 0.5 0.5 0.5 0.5 0.5 0.5 0.5 0.5 0.5 0.5 0.5 0.5 0.5 0.5 0.5 0.5 0.5 0.5 0.5 0.5 0.5 0.5 0.5000916 0.5002747 0.5010682 0.5025637 0.5057682 0.5108039 0.5179149 0.526796 0.5367149 0.5484649 0.5607337 0.5742233 0.5864005 0.5967161 0.603705 0.6082219 0.6117622 0.6151193 0.6194836 0.6243057 0.6297076 0.635079 0.6398401 0.6438991 0.6470121 0.6487823 0.6512544 0.653055 0.6543368 0.6564121 0.6579686 0.6605017 0.6628212 0.664103 0.6649271 0.6662394 0.6676738 0.6701154 0.6722517 0.6746933 0.676555 0.6785998 0.6799426 0.6800952 0.6794238 0.6779283 0.6777147 0.6774706 0.6782335 0.6799426 0.6809803 0.6814076 0.6806141 0.6803699 0.6796374 0.6797595 0.6793017 0.6793017 0.6789355 0.6795459 0.6802173 0.6802173 0.6817433 0.6823232 0.6824757 0.6838491 0.6843069 0.6859549 0.6869316 0.686779 0.6879387 0.6882134 0.6881219 0.6869316 0.6869316 0.6865653 0.6879692 0.6890069 0.6890985 0.6902887 0.6903192 0.6911433 0.6914179 0.6904718 0.6892511 0.687542 0.6862602 0.6854666 0.6863822 0.6863212 0.6855582 0.6853446 0.6852225 0.6846121 0.6857108 0.6857413 0.6846731 0.6824147 0.6805225 0.6788439 0.6787524 0.6793017 0.6790881 0.6780809 0.6760056 0.6732588 0.671092 0.6691998 0.6685284 0.6684368 0.6687115 0.6696576 0.6701154 0.6706952 0.671214 0.6706037 0.6698407 0.6676738 0.6659647 0.6633705 0.6619667 0.6601965 0.6597388 0.6588842 0.6593115 0.660105 0.6604712 0.660105 0.6607459 0.6599524 0.6602271 0.6589758 0.6580907 0.6575719 0.6580907 0.6570225 0.6565952 0.6539706 0.6533907 0.6524446 0.6538485 0.6541537 0.6540011 0.6550083 0.6568089 0.6603491 0.6634011 0.6666362 0.6687725 0.6683757 0.6679485 0.6675823 0.6687115 0.6688641 0.6714277 0.6725264 0.6748459 0.6746323 0.6757309 0.6751205 0.6756394 0.6776842 0.6789355 0.6809192 0.6835439 0.6837575 0.6849478 0.6841848 0.6842764 0.6866264 0.6872673 0.6887627 0.6892205 0.6900141 0.6892511 0.6895257 0.6887017 0.687603 0.687603 0.6858329 0.6862907 0.686077 0.6879082 0.6903498 0.6921504 0.69389 0.6958432 0.6999939 0.7029848 0.7059757 0.7083867 0.7094854 0.711866 0.7158945 0.7180919 0.7199841 0.7200146 0.7210523 0.7216932 0.7256913 0.728438 0.7313374 0.7329854 0.7331075 0.7315205 0.7288958 0.7269425 0.7253861 0.7256302 0.726027 0.7286516 0.7309711 0.7350302 0.7385705 0.7418361 0.7442776 0.7460783 0.7476958 0.7480925 0.7482451 0.7466887 0.7452542 0.7427822 0.7416224 0.7409815 0.7411646 0.7415003 0.7406763 0.7400354 0.7384484 0.7384484 0.738601 0.7393029 0.7388452 0.7375328 0.7363731 0.7348471 0.7333516 0.7302387 0.7259049 0.7210523 0.7168711 0.7140633 0.7120796 0.7106757 0.7102789 0.7090582 0.7080205 0.707166 0.7066472 0.70564 0.7034121 0.7023134 0.7021608 0.702527 0.70329 0.7038699 0.7047244 0.7045413 0.7048465 0.7053043 0.7060062 0.7069523 0.7075933 0.7087835 0.7100348 0.7115303 0.7134835 0.7159861 0.7185802 0.7222426 0.7272478 0.7311543 0.7324666 0.7311848 0.7282854 0.7244705 0.7187023 0.7105536 0.7012452 0.6931881 0.6882134 0.6849478 0.682079 0.6775621 0.6716108 0.6655985 0.6597998 0.6549167 0.649942 0.6453641 0.6409388 0.6378258 0.6359336 0.6347128 0.6334921 0.6319966 0.6305622 0.6293108 0.6278459 0.6265641 0.6256486 0.6252213 0.6249771 0.6240615 0.6229323 0.6214979 0.6205823 0.6196667 0.6188427 0.6179271 0.6171031 0.6168284 0.6167674 0.6171336 0.6178966 0.6188732 0.6196057 0.6198193 0.6197278 0.6193005 0.6196667 0.6206739 0.6234816 0.6280596 0.6348654 0.6430751 0.6527803 0.6642556 0.6778673 0.6929134 0.7074711 0.7188244 0.7261491 0.7294452 0.7298114 0.7285906 0.7261186 0.7223952 0.7171153 0.7103705 0.7032595 0.6965147 0.690838 0.6858023 0.6818043 0.6783251 0.6762803 0.6740218 0.6720076 0.6697186 0.667277 0.6647745 0.6624244 0.6602271 0.6586095 0.6568699 0.6556491 0.6543063 0.6530245 0.6513154 0.6496673 0.6478056 0.6457303 0.6438076 0.6416407 0.6398706 0.6387719 0.6383752 0.6388024 0.6395349 0.6407557 0.6417933 0.6433498 0.6448452 0.6465849 0.6481719 0.6498504 0.6511933 0.6523836 0.653116 0.6528108 0.6518037 0.6498199 0.6470732 0.6441433 0.6409388 0.6374901 0.6327596 0.6276323 0.6218947 0.6164927 0.6108161 0.6055057 0.6001343 0.5950986 0.5908869 0.5873466 0.584783 0.5822194 0.580022 0.5775194 0.5748947 0.5719649 0.5691265 0.5660746 0.5632058 0.5604285 0.5578954 0.5551486 0.5527071 0.5502045 0.5479155 0.5457181 0.5434902 0.5412318 0.5389123 0.5365928 0.5343344 0.5321675 0.5296954 0.5270402 0.5237136 0.5199292 0.5156565 0.5111396 0.5072636
0.5 0.5 0.5 0.5 0.5 0.5 0.5 0.5 0.5 0.5 0.5 0.5 0.5 0.5 0.5 0.5 0.5 0.5 0.5 0.5 0.5 0.5 0.5 0.5 0.5 0.5 0.5 0.5 0.5 0.5 0.5 0.5 0.5 0.5 0.5 0.5 0.5 0.5 0.5 0.5 0.5 0.5 0.5 0.5 0.5 0.5 0.5 0.5 0.5 0.5 0.5 0.5 0.5 0.5 0.5 0.5 0.5 0.5 0.5 0.5 0.5 0.5 0.5 0.5 0.5 0.5 0.5 0.5 0.5 0.5 0.5 0.5 0.5 0.5 0.5 0.5 0.5 0.5 0.5 0.5 0.5 0.5 0.5 0.5 0.5 0.5 0.5 0.5000305 0.5002136 0.500702 0.5018922 0.5043032 0.5082097 0.5142831 0.5218519 0.5320454 0.5437344 0.5577733 0.5719649 0.5854544 0.5957395 0.6030031 0.6077336 0.6117927 0.6163096 0.6214368 0.6270524 0.6331258 0.6383446 0.6429836 0.6463712 0.6484466 0.6509797 0.6528718 0.6541842 0.6561985 0.6576329 0.660166 0.6623329 0.6636758 0.6642861 0.6652322 0.6662089 0.6681316 0.6697491 0.6716413 0.6730757 0.6747238 0.675853 0.6759446 0.6752121 0.6736861 0.673381 0.6733199 0.6742049 0.6760056 0.6770127 0.6772875 0.6763108 0.6757004 0.6747848 0.6747543 0.6745102 0.67509 0.6755784 0.6769822 0.678264 0.6787524 0.6803394 0.6810108 0.6811023 0.6823232 0.6826283 0.6842459 0.6853141 0.6853751 0.6864738 0.6866264 0.6861991 0.6849783 0.6850699 0.685131 0.686901 0.6881219 0.6879997 0.6888543 0.688427 0.6892816 0.6894342 0.6887627 0.6877251 0.6865043 0.6855277 0.6848562 0.6854972 0.6850088 0.6838796 0.6840322 0.6842459 0.6838491 0.6848868 0.684429 0.6830861 0.6806751 0.6788744 0.6774706 0.6779283 0.6786913 0.6785387 0.6771958 0.675029 0.6721601 0.6700543 0.6682231 0.6677043 0.6678264 0.6682842 0.6692303 0.6699322 0.6704816 0.671092 0.670329 0.6694745 0.6672465 0.6655069 0.6630043 0.6616309 0.660044 0.6596472 0.6590368 0.6595251 0.6603186 0.6606543 0.6603186 0.6607764 0.6599829 0.6600134 0.6589147 0.6581517 0.6576939 0.6582433 0.656992 0.6563816 0.6536959 0.6532686 0.6526582 0.6539706 0.6542453 0.6540011 0.6553439 0.6574193 0.6609901 0.664103 0.6670634 0.6689556 0.6683757 0.6679485 0.6677654 0.6689251 0.6691692 0.6716108 0.6728011 0.6749679 0.6746933 0.675792 0.6752731 0.675853 0.6780504 0.6795154 0.6816212 0.6840627 0.6841238 0.685192 0.68449 0.68449 0.6870537 0.6879692 0.6893121 0.6897393 0.6904108 0.6895868 0.6898919 0.689129 0.6880608 0.6879692 0.686016 0.6864433 0.6865348 0.6887627 0.691479 0.6932186 0.6950192 0.6976134 0.7021303 0.7049381 0.7075627 0.7100043 0.7111335 0.7137887 0.7179698 0.7199536 0.7214186 0.721327 0.7227309 0.7237075 0.7278276 0.7300861 0.7329549 0.7345419 0.7349081 0.733138 0.7301471 0.7282244 0.7271867 0.7281939 0.7288958 0.7318256 0.7338094 0.7376243 0.7405542 0.7433315 0.7458036 0.7477568 0.7496185 0.7498627 0.749588 0.7474821 0.7458951 0.7432094 0.7421107 0.7415308 0.7421412 0.742538 0.7416224 0.74089 0.7393335 0.7395166 0.739364 0.7399744 0.7392419 0.7378685 0.7365867 0.7350608 0.7339926 0.7312763 0.7274309 0.7228224 0.7186108 0.7155283 0.7128731 0.7114081 0.7114998 0.7107062 0.7103705 0.7094854 0.7092108 0.7080815 0.7056094 0.7045718 0.7047244 0.7059147 0.7071965 0.7085394 0.7099432 0.7094549 0.7089971 0.7085699 0.7089971 0.7101263 0.7114692 0.7132698 0.7149789 0.7165049 0.7186108 0.7215711 0.72444 0.7280412 0.7328328 0.7353964 0.7357321 0.7334737 0.7300251 0.7262406 0.7212965 0.7145212 0.7054263 0.6965757 0.6900446 0.6863212 0.683727 0.6800647 0.6748154 0.6690472 0.6629738 0.6580297 0.6531771 0.6486297 0.6438991 0.639718 0.6370323 0.6352926 0.634194 0.6328511 0.6314167 0.6301654 0.6286395 0.6272355 0.6260148 0.6254044 0.6250992 0.6244583 0.6236038 0.6222914 0.6214979 0.6209791 0.6210096 0.6208875 0.6209791 0.6213453 0.6218031 0.6222304 0.6228408 0.6238479 0.624733 0.6255264 0.6260758 0.6271745 0.6297992 0.6348349 0.6424037 0.6520479 0.6634316 0.6756394 0.688427 0.7010926 0.7129647 0.722914 0.730849 0.7359458 0.7382348 0.7377464 0.7357321 0.7331685 0.7303302 0.7273088 0.7234634 0.7180919 0.7116523 0.7047855 0.6982848 0.6925777 0.6881829 0.68449 0.6822316 0.6802784 0.6785082 0.6765855 0.6744491 0.6722212 0.6699933 0.6677959 0.6659647 0.6641335 0.6626381 0.6610816 0.6596166 0.6579686 0.6562901 0.6545504 0.6525972 0.6510407 0.6496978 0.6492706 0.6493927 0.6496673 0.6500641 0.650766 0.6523836 0.654581 0.6580602 0.6617225 0.6654459 0.668742 0.6710615 0.6724959 0.6728926 0.6727095 0.6717329 0.6701154 0.6677959 0.6645608 0.6610511 0.6570836 0.6528718 0.6480193 0.6430751 0.6375816 0.6319966 0.6261674 0.6204297 0.6149057 0.6093206 0.6045901 0.6002259 0.5970518 0.5943661 0.5925044 0.5904902 0.5882927 0.5855765 0.5825245 0.5788928 0.575444 0.571446 0.5678142 0.5640908 0.5608863 0.5579869 0.5554538 0.5530428 0.5504181 0.5477629 0.5449857 0.5423304 0.5398889 0.5374473 0.5350363 0.5325337 0.529848 0.5264909 0.5228896 0.518098 0.5134591
0.5 0.5 0.5 0.5 0.5 0.5 0.5 0.5 0.5 0.5 0.5 0.5 0.5 0.5 0.5 0.5 0.5 0.5 0.5 0.5 0.5 0.5 0.5 0.5 0.5 0.5 0.5 0.5 0.5 0.5 0.5 0.5 0.5 0.5 0.5 0.5 0.5 0.5 0.5 0.5 0.5 0.5 0.5 0.5 0.5 0.5 0.5 0.5 0.5 0.5 0.5 0.5 0.5 0.5 0.5 0.5 0.5 0.5 0.5 0.5 0.5 0.5 0.5 0.5 0.5 0.5 0.5 0.5 0.5 0.5 0.5 0.5 0.5 0.5 0.5 0.5 0.5 0.5 0.5 0.5 0.5 0.5 0.5 0.5 0.5 0.5 0.5 0.5 0.5000305 0.5000916 0.5004272 0.5012513 0.5028688 0.5061649 0.5109565 0.5182506 0.5277727 0.5403162 0.5544772 0.5691876 0.5820668 0.5921077 0.5991271 0.6047427 0.60987 0.6156992 0.6216505 0.6283647 0.634255 0.6397485 0.643655 0.6461881 0.6488738 0.6508576 0.652292 0.6541232 0.6555271 0.657755 0.6597998 0.6611426 0.661692 0.6623939 0.6630349 0.6644692 0.6656901 0.667155 0.6682842 0.6696271 0.6706342 0.6708784 0.67039 0.6690777 0.6687725 0.6687115 0.6696271 0.6713361 0.6724959 0.6727706 0.6715803 0.6707868 0.6699628 0.6702985 0.6707868 0.6721601 0.6735946 0.6755173 0.6769517 0.677318 0.6786913 0.6792407 0.6793323 0.680553 0.6810413 0.6828114 0.6839101 0.6840627 0.6847952 0.6847342 0.6839406 0.6829335 0.6832693 0.6838491 0.6856803 0.68684 0.6862602 0.68684 0.6862907 0.6873283 0.6876335 0.6872978 0.6866874 0.6858329 0.6849783 0.6840017 0.6839712 0.6832998 0.6821705 0.682903 0.6833913 0.6829335 0.6837881 0.6832082 0.6814991 0.6788439 0.6771958 0.6762192 0.6772569 0.6780809 0.6778673 0.6761277 0.6739303 0.6711225 0.6688946 0.6670024 0.6666362 0.6670939 0.6678264 0.6688946 0.6695966 0.6701459 0.6708784 0.6699933 0.6690777 0.6667582 0.6649881 0.6626381 0.6613258 0.6598303 0.6595251 0.6590673 0.6596166 0.6603186 0.6606848 0.6604102 0.6607459 0.6599524 0.6597693 0.6587316 0.6580907 0.6576634 0.6582128 0.6568089 0.6560764 0.6533602 0.653116 0.6528108 0.6540927 0.6543063 0.6539096 0.6555271 0.657755 0.6613868 0.6646219 0.6673686 0.6690472 0.6682842 0.6678569 0.667918 0.6690167 0.6692913 0.6717024 0.6729231 0.6749985 0.6747543 0.675792 0.6753647 0.6760361 0.6784167 0.6800342 0.6821705 0.6845205 0.684368 0.6853751 0.6847036 0.6846426 0.6874504 0.6885186 0.6897393 0.6901972 0.6906855 0.6898614 0.6902582 0.6894647 0.6883965 0.6881829 0.6861686 0.6865959 0.6870842 0.6897088 0.6924556 0.6941952 0.6962705 0.6993225 0.7040225 0.7067082 0.7090276 0.7114998 0.7128731 0.7156809 0.7198315 0.7215406 0.7227919 0.7227614 0.72444 0.7255997 0.7296283 0.7317341 0.7344198 0.7360069 0.7361594 0.7342978 0.7312763 0.729964 0.7294452 0.7309406 0.7314594 0.7344503 0.7362205 0.7397302 0.7422938 0.744888 0.7473906 0.7492828 0.7511445 0.7511445 0.7505952 0.7481841 0.746536 0.7436672 0.7427211 0.7422023 0.7430874 0.7434536 0.742599 0.7419276 0.7404627 0.7405542 0.7399439 0.7403101 0.7395166 0.7381432 0.7368308 0.7353049 0.7345724 0.732314 0.7289568 0.7246231 0.7202588 0.7167796 0.7136971 0.7123542 0.7129952 0.7125984 0.712629 0.7116829 0.7113471 0.7099127 0.7073491 0.7068913 0.7078069 0.7099738 0.7118049 0.7133919 0.7145212 0.7132393 0.7121101 0.7114692 0.7120491 0.7135751 0.7154368 0.7177867 0.7200451 0.7222121 0.7248977 0.7283159 0.7313069 0.7342978 0.7379906 0.7392114 0.7389062 0.736251 0.7325886 0.7287127 0.7243179 0.7184582 0.7097906 0.7006653 0.6928218 0.6880913 0.6851004 0.6820179 0.6775011 0.6720991 0.6660868 0.6608985 0.6561375 0.6517732 0.6470121 0.6424342 0.6387414 0.6363304 0.6349875 0.6335531 0.6321797 0.6308674 0.6293719 0.627968 0.6265031 0.6256791 0.6252213 0.6249161 0.6243972 0.6234816 0.6230544 0.6231459 0.6243057 0.6251297 0.6259537 0.6264725 0.6270219 0.627144 0.6273576 0.6279985 0.6291277 0.631142 0.6340414 0.638894 0.6458219 0.6551303 0.6656595 0.6774095 0.6902277 0.7044802 0.7183056 0.7304828 0.7390588 0.7438198 0.7453458 0.7447354 0.7435146 0.7414698 0.7388452 0.7360984 0.7332601 0.7304828 0.7273698 0.7231581 0.7175426 0.7110419 0.7042971 0.6981627 0.6929439 0.6887627 0.6859244 0.6838491 0.6824452 0.6812245 0.67979 0.6785387 0.6771348 0.6755784 0.6738387 0.6716719 0.6694745 0.6673381 0.6653543 0.6634621 0.6616309 0.6602271 0.6589758 0.6588842 0.6591894 0.660044 0.6608985 0.6620277 0.663218 0.6654764 0.6683757 0.6720686 0.6760361 0.6800036 0.6832998 0.6858939 0.687542 0.688305 0.6882439 0.6873894 0.686077 0.6840932 0.6812245 0.67744 0.6730147 0.6681926 0.6635842 0.6590979 0.6545504 0.6495147 0.6438381 0.6382836 0.6323017 0.6266862 0.6205212 0.6149973 0.6097174 0.605933 0.602942 0.6010804 0.5995544 0.5980284 0.5961972 0.5940304 0.5913141 0.5882317 0.5846304 0.5806629 0.5764207 0.5721785 0.5683025 0.5646707 0.5614662 0.5583532 0.5552707 0.5523409 0.5491363 0.5459928 0.5426967 0.5398889 0.5372642 0.5348227 0.5321065 0.5290545 0.5252091 0.5206617
0.5 0.5 0.5 0.5 0.5 0.5 0.5 0.5 0.5 0.5 0.5 0.5 0.5 0.5 0.5 0.5 0.5 0.5 0.5 0.5 0.5 0.5 0.5 0.5 0.5 0.5 0.5 0.5 0.5 0.5 0.5 0.5 0.5 0.5 0.5 0.5 0.5 0.5 0.5 0.5 0.5 0.5 0.5 0.5 0.5 0.5 0.5 0.5 0.5 0.5 0.5 0.5 0.5 0.5 0.5 0.5 0.5 0.5 0.5 0.5 0.5 0.5 0.5 0.5 0.5 0.5 0.5 0.5 0.5 0.5 0.5 0.5 0.5 0.5 0.5 0.5 0.5 0.5 0.5 0.5 0.5 0.5 0.5 0.5 0.5 0.5 0.5 0.5 0.5 0.5000305 0.500061 0.5003662 0.500824 0.5021363 0.5044253 0.5084234 0.5145578 0.5235915 0.536074 0.5502655 0.5647622 0.5773363 0.5871635 0.5946408 0.6005616 0.6069096 0.6132882 0.6206128 0.6269914 0.6333089 0.6377648 0.6411524 0.6439602 0.6461576 0.6477141 0.6493621 0.650705 0.6527498 0.6546115 0.6559544 0.6565037 0.6570225 0.6574498 0.6587316 0.6599219 0.6614478 0.6626076 0.6640725 0.6653543 0.6661478 0.6661783 0.6652628 0.664744 0.6642251 0.6645608 0.6656595 0.6665446 0.6669719 0.6663004 0.6660563 0.6659952 0.667277 0.6685284 0.6702985 0.6718245 0.6737777 0.6752426 0.6758225 0.6771958 0.6777147 0.6778063 0.6788134 0.6793323 0.6809497 0.6819264 0.6818959 0.6823232 0.6822621 0.6818959 0.6814076 0.6821095 0.6826894 0.6842459 0.6850088 0.6842764 0.6847647 0.6844595 0.6855582 0.6861076 0.6859854 0.6857718 0.685131 0.6840932 0.6826894 0.6821705 0.6816822 0.6807972 0.6819569 0.6824757 0.6819264 0.6824757 0.6815602 0.6796679 0.6770433 0.6757309 0.6752121 0.676677 0.67744 0.6768602 0.6748764 0.67274 0.6700848 0.6676738 0.6657206 0.6654153 0.6661783 0.667155 0.6683757 0.6691998 0.6698102 0.6706037 0.6696576 0.6686199 0.6662394 0.6644082 0.6622413 0.6609595 0.6595861 0.6593725 0.6590368 0.6596472 0.6602576 0.6606543 0.6604712 0.6606848 0.6599219 0.6594946 0.658518 0.6579381 0.6576329 0.6581517 0.6566257 0.6556796 0.653055 0.6529635 0.6530245 0.6541232 0.6542453 0.6537569 0.6555576 0.6579381 0.6616309 0.6649881 0.6676128 0.6690167 0.6681621 0.6677654 0.667918 0.6689556 0.6692913 0.6715498 0.6728926 0.6748459 0.6746323 0.6757004 0.6753342 0.6761277 0.6785082 0.6803394 0.6825368 0.6846731 0.68449 0.6853751 0.6848562 0.6847342 0.6877251 0.6890069 0.6900751 0.6904718 0.6908686 0.6901056 0.6905329 0.6897699 0.6885796 0.6881524 0.6861991 0.6868095 0.6877251 0.6905329 0.6933407 0.6952024 0.6975523 0.7009705 0.7056705 0.7082036 0.71034 0.7129036 0.7145212 0.7176036 0.7215101 0.722914 0.7239211 0.7240737 0.726088 0.7274309 0.7312763 0.7332296 0.7357321 0.7372581 0.7372887 0.735427 0.7325276 0.7319477 0.7318562 0.7336568 0.7342062 0.7370445 0.7385399 0.7416529 0.7438504 0.7462614 0.7486724 0.7505035 0.7521821 0.7520601 0.7512665 0.7486419 0.7469633 0.7441555 0.743362 0.7428737 0.7440335 0.7442166 0.743423 0.7428737 0.7415614 0.7414393 0.7404016 0.7405542 0.7396997 0.7383873 0.737014 0.7356101 0.7352439 0.7334737 0.7304828 0.7262712 0.7215406 0.7178172 0.7146127 0.7137277 0.7147043 0.7146432 0.7147043 0.7136666 0.7130257 0.7116829 0.7092718 0.7095159 0.7109809 0.7137887 0.7160166 0.7176952 0.7187634 0.716688 0.7153451 0.7148569 0.7159556 0.718275 0.7207166 0.7236465 0.7264543 0.7287737 0.7318562 0.7361289 0.7390893 0.7411951 0.7435756 0.743423 0.7427211 0.7402796 0.7367088 0.7328938 0.7288042 0.7235549 0.7155893 0.7064945 0.6975828 0.691601 0.6877861 0.6848257 0.6805835 0.6754868 0.6692608 0.6636453 0.6586705 0.6544894 0.6500641 0.6453336 0.6409388 0.6376427 0.635842 0.634255 0.6329122 0.6314473 0.6300128 0.6286089 0.627144 0.6261368 0.6255264 0.625618 0.6258927 0.6259843 0.6263505 0.6270829 0.6287615 0.6296771 0.6305317 0.6306843 0.631081 0.6308674 0.6310505 0.6317524 0.6342855 0.6391076 0.6459745 0.6551608 0.6656595 0.6773485 0.689068 0.7018251 0.7147043 0.7291095 0.7415614 0.7515718 0.7561802 0.7562107 0.7533419 0.7496185 0.746475 0.7437588 0.7411341 0.7384789 0.7354575 0.7326497 0.7299334 0.7266984 0.7222426 0.7163829 0.7096075 0.7029543 0.6970335 0.6923946 0.6886407 0.6861686 0.6847342 0.6840932 0.6835134 0.6830556 0.6823537 0.681316 0.6799731 0.678203 0.6760056 0.6735946 0.6710309 0.6689861 0.6673686 0.6667277 0.6667582 0.6676433 0.6690777 0.6708478 0.6732283 0.6759751 0.6787829 0.6825368 0.6862907 0.6901972 0.6937069 0.697003 0.699353 0.7007874 0.7015809 0.7014588 0.7005737 0.6984984 0.6960569 0.6929134 0.6897088 0.6861381 0.6825063 0.6781114 0.673381 0.6685284 0.6636758 0.6587927 0.6532992 0.6475615 0.6408167 0.6346213 0.6284869 0.6232985 0.6180187 0.6133797 0.6096869 0.6070317 0.6054447 0.6043155 0.6035219 0.6023622 0.6006836 0.5984557 0.5955259 0.591772 0.5877434 0.583196 0.5788317 0.5744369 0.5705609 0.566807 0.5633584 0.5600317 0.556583 0.5530428 0.5495331 0.5462369 0.5430934 0.53995 0.5370201 0.5340597 0.5309467 0.5271318
0.5 0.5 0.5 0.5 0.5 0.5 0.5 0.5 0.5 0.5 0.5 0.5 0.5 0.5 0.5 0.5 0.5 0.5 0.5 0.5 0.5 0.5 0.5 0.5 0.5 0.5 0.5 0.5 0.5 0.5 0.5 0.5 0.5 0.5 0.5 0.5 0.5 0.5 0.5 0.5 0.5 0.5 0.5 0.5 0.5 0.5 0.5 0.5 0.5 0.5 0.5 0.5 0.5 0.5 0.5 0.5 0.5 0.5 0.5 0.5 0.5 0.5 0.5 0.5 0.5 0.5 0.5 0.5 0.5 0.5 0.5 0.5 0.5 0.5 0.5 0.5 0.5 0.5 0.5 0.5 0.5 0.5 0.5 0.5 0.5 0.5 0.5 0.5 0.5 0.5 0.5 0.5000305 0.5001526 0.5005188 0.5014344 0.5031435 0.5065312 0.5119941 0.5208753 0.5323506 0.5460843 0.5597876 0.5720259 0.5820363 0.5892693 0.5961362 0.6025758 0.6105109 0.6173778 0.624794 0.6300433 0.6344382 0.6375511 0.6401147 0.6418849 0.643655 0.6449063 0.6469206 0.6487517 0.6502777 0.6510407 0.6516816 0.6521394 0.6534212 0.654642 0.6562595 0.6574193 0.6588842 0.6599524 0.6607459 0.6607764 0.6600134 0.659403 0.6587622 0.6589758 0.6598914 0.6610206 0.6620888 0.6623634 0.6627907 0.6633095 0.6649271 0.6666057 0.6685589 0.6700543 0.6717939 0.6730757 0.6736556 0.6749374 0.6756699 0.6760056 0.6770433 0.6776537 0.6789965 0.67979 0.6795764 0.6800342 0.6802173 0.6803699 0.6802478 0.6809803 0.6812855 0.6823842 0.6826894 0.6820484 0.6824147 0.6824147 0.683666 0.6847647 0.6850393 0.6851615 0.68449 0.682842 0.6809192 0.6802173 0.6801562 0.67979 0.6810413 0.6813465 0.6807056 0.6808887 0.679729 0.6777452 0.6752731 0.6744797 0.6743575 0.6760361 0.676616 0.6757004 0.6735946 0.6713361 0.6688336 0.6662394 0.6642861 0.6642251 0.6652628 0.6664835 0.6678569 0.6686504 0.6694439 0.6701154 0.6692303 0.6681316 0.6657816 0.6638589 0.6618446 0.6605933 0.6593115 0.6592199 0.6589147 0.6596472 0.660044 0.6605017 0.6603796 0.6605322 0.6597998 0.6591589 0.6582433 0.657755 0.6574803 0.6579381 0.6562901 0.6552219 0.6526582 0.6528108 0.6531466 0.6540927 0.6541232 0.6535128 0.655466 0.6579686 0.6616309 0.6652017 0.6676128 0.6688946 0.6678569 0.6674907 0.6677654 0.6687115 0.6690472 0.6712751 0.672679 0.6746323 0.6744491 0.6755173 0.6752426 0.6760972 0.6785693 0.6804615 0.6827504 0.6847647 0.68449 0.6853751 0.6849478 0.6847952 0.6880302 0.6893731 0.6902887 0.6906549 0.6909296 0.6903192 0.690838 0.6900141 0.6886712 0.6880608 0.6862296 0.6871147 0.6883965 0.6913264 0.6941037 0.6961485 0.6988952 0.7024965 0.7070134 0.7093633 0.7115303 0.7143075 0.7160166 0.7191906 0.722975 0.7241042 0.7249893 0.7254471 0.7277055 0.7290179 0.7326497 0.7345114 0.7368308 0.7383568 0.7380211 0.7364341 0.7338704 0.7339926 0.7343588 0.7362815 0.7367698 0.7393029 0.7403406 0.7431789 0.7452237 0.7476653 0.7498627 0.7515413 0.7529756 0.752701 0.7517244 0.7490081 0.7474516 0.7446743 0.7442166 0.7436062 0.7447049 0.7447354 0.7441555 0.7437588 0.742538 0.7421718 0.7407068 0.7407068 0.7398218 0.7385705 0.7372276 0.7359458 0.7359458 0.7346029 0.7318562 0.7275224 0.7224562 0.7187328 0.7156809 0.715162 0.7164744 0.7165965 0.7165965 0.7155893 0.7147958 0.7136056 0.7116829 0.712629 0.7146738 0.7176952 0.7201977 0.7216017 0.7223341 0.7200757 0.7190075 0.7191906 0.7208387 0.723738 0.7267289 0.7300861 0.7333822 0.7362205 0.7396081 0.7442776 0.7464139 0.7471159 0.7479399 0.7470549 0.7463529 0.7440945 0.7407984 0.737075 0.733077 0.7284075 0.721388 0.7128121 0.7033815 0.6964536 0.6917231 0.6886101 0.6845511 0.6796679 0.6733504 0.667277 0.6618751 0.6574193 0.653116 0.6483855 0.6435329 0.6392908 0.6366661 0.6348959 0.6336446 0.6321186 0.6307148 0.6292803 0.6279375 0.6269304 0.6264725 0.627205 0.6283037 0.6293414 0.6303485 0.6312641 0.6329122 0.6338277 0.6344687 0.6343161 0.6344687 0.634255 0.6354453 0.6379173 0.6433193 0.6520174 0.6630654 0.6747543 0.6861381 0.6973692 0.7085699 0.7215711 0.7342367 0.7476348 0.7575536 0.7644815 0.7666178 0.7646341 0.759751 0.7541049 0.7493133 0.7457426 0.7431484 0.7405847 0.7377464 0.7348166 0.7319172 0.7290789 0.7255692 0.7208387 0.7146738 0.7078984 0.7013367 0.6958432 0.6912043 0.6881219 0.6861686 0.6856803 0.6858329 0.6861686 0.6863212 0.6858634 0.6848868 0.6834219 0.6812855 0.6792407 0.6768602 0.6749985 0.6737777 0.6738387 0.6749069 0.6770433 0.6797595 0.6826283 0.6861686 0.690716 0.6956601 0.7007874 0.7049075 0.7082036 0.7099127 0.7109809 0.7113166 0.7113166 0.7110114 0.7100653 0.7084172 0.7060978 0.7036868 0.7007569 0.6976439 0.6941952 0.6906549 0.6866569 0.68214 0.67744 0.6725264 0.6676433 0.6621193 0.6564121 0.6500946 0.6441128 0.6380394 0.6322102 0.626381 0.6207349 0.6160044 0.6120979 0.6097174 0.6081304 0.6077031 0.6071538 0.6065739 0.6055973 0.6040713 0.6017823 0.598883 0.595007 0.5905207 0.5857902 0.5811207 0.5766648 0.5724837 0.5687298 0.5648538 0.5610389 0.5573155 0.5533785 0.5495331 0.5455655 0.5422999 0.5390344 0.5362571 0.5330526
0.5 0.5 0.5 0.5 0.5 0.5 0.5 0.5 0.5 0.5 0.5 0.5 0.5 0.5 0.5 0.5 0.5 0.5 0.5 0.5 0.5 0.5 0.5 0.5 0.5 0.5 0.5 0.5 0.5 0.5 0.5 0.5 0.5 0.5 0.5 0.5 0.5 0.5 0.5 0.5 0.5 0.5 0.5 0.5 0.5 0.5 0.5 0.5 0.5 0.5 0.5 0.5 0.5 0.5 0.5 0.5 0.5 0.5 0.5 0.5 0.5 0.5 0.5 0.5 0.5 0.5 0.5 0.5 0.5 0.5 0.5 0.5 0.5 0.5 0.5 0.5 0.5 0.5 0.5 0.5 0.5 0.5 0.5 0.5 0.5 0.5 0.5 0.5 0.5 0.5 0.5 0.5 0.5000305 0.5000916 0.5003052 0.500824 0.5021669 0.5047305 0.5101019 0.5184032 0.5301532 0.5434291 0.5565525 0.5679973 0.5767259 0.5847525 0.5915889 0.5998596 0.6072148 0.6155771 0.6217116 0.6272355 0.6307758 0.6336752 0.6356589 0.6375816 0.6389245 0.6408167 0.6426479 0.6444485 0.6453641 0.6460966 0.6465238 0.6478361 0.6491485 0.6509186 0.6520479 0.6535433 0.6544284 0.6552219 0.6552219 0.6545199 0.653879 0.6533297 0.6537569 0.6550083 0.6568089 0.6587622 0.6599829 0.6610511 0.6616615 0.6631874 0.6645913 0.666392 0.6677959 0.669505 0.6708784 0.6717024 0.6731063 0.6739913 0.6745712 0.6753953 0.6757004 0.6764939 0.6771043 0.6769822 0.6778368 0.6783556 0.678905 0.6786608 0.679027 0.6788744 0.67979 0.6802784 0.6799731 0.6805225 0.6807666 0.6822926 0.6837881 0.684368 0.6843374 0.6830556 0.6809803 0.6789355 0.6785998 0.6789965 0.6788134 0.6800036 0.6801867 0.6794848 0.6793017 0.6776537 0.6756394 0.6735946 0.673381 0.6736251 0.6752426 0.6754563 0.6742355 0.6723433 0.6700238 0.6674601 0.6644998 0.6626381 0.6628823 0.6643472 0.6657206 0.667277 0.6680095 0.6689251 0.6695355 0.6686504 0.6675518 0.6652322 0.6633095 0.6615089 0.6602576 0.6590368 0.6590063 0.6587316 0.6594946 0.6597083 0.6602271 0.6602271 0.6603796 0.6596472 0.6588232 0.6579076 0.6574193 0.6572056 0.6576024 0.6558628 0.6546725 0.652292 0.6526277 0.6532686 0.6540316 0.6539401 0.6532381 0.6551914 0.657755 0.6613868 0.6652017 0.6675823 0.668681 0.6675212 0.6671855 0.6675212 0.6683757 0.668742 0.6709089 0.6724654 0.6743575 0.6742965 0.6753036 0.6751205 0.6760056 0.6784167 0.680492 0.6827504 0.6847036 0.684368 0.6852225 0.6849783 0.6847647 0.6881524 0.6896173 0.6903498 0.6906855 0.6908991 0.6904413 0.6909602 0.6901667 0.6886712 0.6878471 0.6862602 0.6874504 0.6890985 0.6919978 0.6946835 0.6970335 0.700238 0.7039004 0.7081426 0.7104926 0.71269 0.7155893 0.717451 0.720564 0.7241042 0.7251419 0.7259964 0.7267594 0.7291095 0.7305439 0.7339315 0.7357016 0.7377464 0.7390283 0.738662 0.7375328 0.7357016 0.73619 0.7367698 0.7383568 0.7388757 0.7411646 0.7419887 0.7447965 0.7465971 0.7489166 0.7507172 0.7522432 0.7535861 0.7531893 0.7520601 0.7494048 0.748001 0.7452847 0.7450711 0.7443081 0.7454373 0.7452542 0.7449796 0.7447049 0.7433315 0.7426295 0.74089 0.7408594 0.7399439 0.7387841 0.7374107 0.7363731 0.7367393 0.7357627 0.733016 0.7284991 0.7234023 0.7199536 0.7169627 0.7169322 0.7180919 0.7183971 0.7180919 0.7170542 0.7161997 0.7156504 0.7145212 0.7161997 0.7187634 0.7218458 0.7241347 0.7252945 0.7259659 0.7241042 0.723738 0.7243484 0.7264543 0.7296893 0.7328938 0.7367393 0.7404627 0.743301 0.7467497 0.7510224 0.751877 0.751236 0.7509308 0.7494048 0.7487029 0.7467802 0.7439114 0.7401575 0.736312 0.7321309 0.726027 0.7180614 0.708753 0.7013062 0.6958127 0.6924861 0.6887017 0.6842459 0.678142 0.6717939 0.6659037 0.660929 0.6563206 0.6516511 0.6465238 0.6416102 0.638192 0.635781 0.6343161 0.6328206 0.6314167 0.6300433 0.6289752 0.6283342 0.6284258 0.6300128 0.6319355 0.6337362 0.6346518 0.6352316 0.6359946 0.6365745 0.6371543 0.6371543 0.6377037 0.6389855 0.6426784 0.6485381 0.6575413 0.6681621 0.6801257 0.6913264 0.7019777 0.7133919 0.7255082 0.7391198 0.7513886 0.7623451 0.769151 0.7731185 0.77321 0.7701276 0.7646646 0.7583776 0.7525789 0.7481536 0.7449185 0.7423549 0.7398218 0.7369224 0.7340536 0.7313679 0.728377 0.724501 0.7191906 0.7125984 0.7058536 0.6998413 0.6944394 0.6905023 0.6881219 0.687603 0.6879997 0.688366 0.6885796 0.6882744 0.6875114 0.6865043 0.6852835 0.6842764 0.6830861 0.6823232 0.6824147 0.6831166 0.6850088 0.687542 0.6912043 0.6956296 0.7007264 0.7062809 0.7115913 0.7164744 0.7200146 0.7222121 0.7230055 0.7224867 0.7216017 0.7199231 0.7181224 0.7161997 0.7144907 0.7123542 0.7102179 0.7075627 0.7045718 0.7013673 0.6980407 0.694653 0.6906244 0.6859549 0.6804004 0.6748154 0.6695355 0.6645303 0.6588842 0.6526582 0.6463407 0.6399316 0.6338583 0.6275408 0.6220472 0.6166758 0.6131661 0.610694 0.6098089 0.6093206 0.609107 0.6087102 0.6080083 0.606818 0.6050785 0.6023927 0.5989745 0.5949765 0.5906122 0.5860343 0.5817006 0.5773668 0.5733077 0.569096 0.5652811 0.5609778 0.5570103 0.5527681 0.5487396 0.5449246 0.5412318 0.5379357
0.5 0.5 0.5 0.5 0.5 0.5 0.5 0.5 0.5 0.5 0.5 0.5 0.5 0.5 0.5 0.5 0.5 0.5 0.5 0.5 0.5 0.5 0.5 0.5 0.5 0.5 0.5 0.5 0.5 0.5 0.5 0.5 0.5 0.5 0.5 0.5 0.5 0.5 0.5 0.5 0.5 0.5 0.5 0.5 0.5 0.5 0.5 0.5 0.5 0.5 0.5 0.5 0.5 0.5 0.5 0.5 0.5 0.5 0.5 0.5 0.5 0.5 0.5 0.5 0.5 0.5 0.5 0.5 0.5 0.5 0.5 0.5 0.5 0.5 0.5 0.5 0.5 0.5 0.5 0.5 0.5 0.5 0.5 0.5 0.5 0.5 0.5 0.5 0.5 0.5 0.5 0.5 0.5 0.5 0.5000916 0.5001831 0.500702 0.5017701 0.5042422 0.5089117 0.5166331 0.5271928 0.5393701 0.551761 0.5623207 0.5720259 0.5798389 0.5882622 0.5959226 0.6048037 0.6116401 0.6180797 0.6221388 0.625557 0.6279375 0.6300738 0.6316609 0.6337057 0.6355368 0.6377953 0.6389245 0.6397485 0.6400537 0.6412745 0.6424342 0.6443264 0.6454251 0.6471342 0.6481414 0.6493316 0.6496063 0.6494842 0.6492401 0.6491485 0.6501862 0.6517121 0.653879 0.656229 0.6579381 0.6592199 0.6597693 0.6611426 0.662516 0.6642251 0.6655374 0.667216 0.6685589 0.6696271 0.6708478 0.6717329 0.6720381 0.6725569 0.6727706 0.6736556 0.6746323 0.6751511 0.6761277 0.6768602 0.6771348 0.6767076 0.6767381 0.676616 0.6775011 0.6781725 0.6780199 0.6787524 0.6792407 0.6810413 0.682842 0.6833608 0.682964 0.6811939 0.6790881 0.6771958 0.6772875 0.6779283 0.6778063 0.6787218 0.6785998 0.6777147 0.6772875 0.6755784 0.6738693 0.6722212 0.6724654 0.6728011 0.6740218 0.6741134 0.6727095 0.6710615 0.6686504 0.6659952 0.6627602 0.6610206 0.6615089 0.6633095 0.6648965 0.6666667 0.6674296 0.6684368 0.6688946 0.6680706 0.6668498 0.6646219 0.6627602 0.6612037 0.6598914 0.6587011 0.6587316 0.6584569 0.659281 0.659281 0.6598608 0.6599524 0.660166 0.6594641 0.6584264 0.6575108 0.656992 0.6568699 0.6571446 0.655405 0.6540927 0.6518647 0.6524751 0.6533297 0.6539401 0.6536348 0.6528413 0.6548251 0.6573277 0.6610511 0.6651102 0.6674907 0.6684368 0.6670939 0.6667888 0.667155 0.667918 0.6683452 0.67039 0.6721296 0.6739913 0.6740218 0.675029 0.6748459 0.675792 0.678142 0.6802478 0.6825978 0.684429 0.6841238 0.6850393 0.6848868 0.6847036 0.6882439 0.6896783 0.6902887 0.6906244 0.6907465 0.6905023 0.6910517 0.6901972 0.6886101 0.6876335 0.6863212 0.6878471 0.6897699 0.6926082 0.6952939 0.6979186 0.7014588 0.7052737 0.7092413 0.7115303 0.7138802 0.7169322 0.7188244 0.7217237 0.7249893 0.726027 0.7270341 0.7281023 0.7304828 0.7319477 0.7349997 0.7367698 0.7385094 0.7396691 0.7393945 0.738662 0.7376243 0.7384484 0.7392114 0.7405542 0.7407984 0.7427517 0.743362 0.7461698 0.7477568 0.7498322 0.7514191 0.7528841 0.7540438 0.7534945 0.7522432 0.749649 0.7484282 0.7458646 0.7458646 0.7449185 0.7460172 0.7457426 0.7457731 0.7454678 0.7440029 0.7430263 0.741012 0.7409815 0.7399744 0.7389367 0.7377159 0.7369835 0.7377464 0.7367088 0.7338399 0.7292315 0.7242874 0.7211438 0.7183971 0.7186108 0.7196789 0.7199536 0.7194958 0.7184582 0.7181835 0.7180309 0.7178478 0.7200757 0.7232192 0.7265153 0.7284685 0.7292621 0.7298419 0.7284075 0.7287737 0.7298114 0.7321614 0.735427 0.7385399 0.7423854 0.7462614 0.7493133 0.7522737 0.755814 0.7549899 0.7532198 0.7522432 0.7503815 0.7498627 0.748123 0.745651 0.7420497 0.7382042 0.7343283 0.7291705 0.7217848 0.7127815 0.7050601 0.6991088 0.6955991 0.6920283 0.6882134 0.6829945 0.6768907 0.6709699 0.6654153 0.6605933 0.6557407 0.6504303 0.6448758 0.6402979 0.6370323 0.6351095 0.6335531 0.6322407 0.6312336 0.6308979 0.6311725 0.6318745 0.6336752 0.6354758 0.6372459 0.6378563 0.6382531 0.6384667 0.638955 0.6395654 0.6404505 0.6424648 0.6464018 0.6533602 0.6623634 0.6728926 0.683605 0.6948056 0.7055484 0.7163523 0.7281939 0.741012 0.7540438 0.7648477 0.7726607 0.7765672 0.7778184 0.7769029 0.773912 0.7691815 0.7631996 0.7565464 0.7509308 0.7470549 0.7441555 0.7418361 0.7389978 0.7360069 0.733077 0.7302387 0.7272173 0.7230971 0.7173289 0.7107062 0.7040225 0.6980712 0.6937069 0.6908991 0.6896783 0.6893426 0.6896783 0.6898004 0.6897393 0.6895257 0.6892511 0.6890374 0.6887932 0.6889763 0.6893426 0.6910212 0.6928828 0.6958127 0.6991394 0.7039309 0.7096991 0.7160166 0.7221815 0.7270646 0.7304523 0.7324361 0.7332296 0.7331991 0.7317341 0.7295672 0.726851 0.7240737 0.7216932 0.7197095 0.7178478 0.7158335 0.7137582 0.7110419 0.70799 0.7042361 0.7006043 0.6967283 0.6930355 0.688427 0.6835134 0.678203 0.6727706 0.6671855 0.6610511 0.654703 0.647531 0.6409693 0.634255 0.6287615 0.6229018 0.6183849 0.614692 0.6127388 0.6116706 0.6112434 0.6111213 0.6109382 0.6105414 0.6097784 0.6083745 0.6061466 0.6030642 0.5990966 0.5946713 0.5901239 0.5856071 0.5814869 0.5771837 0.5731246 0.5688823 0.5646707 0.560398 0.5557895 0.5515779 0.5470915 0.5432155
0.5 0.5 0.5 0.5 0.5 0.5 0.5 0.5 0.5 0.5 0.5 0.5 0.5 0.5 0.5 0.5 0.5 0.5 0.5 0.5 0.5 0.5 0.5 0.5 0.5 0.5 0.5 0.5 0.5 0.5 0.5 0.5 0.5 0.5 0.5 0.5 0.5 0.5 0.5 0.5 0.5 0.5 0.5 0.5 0.5 0.5 0.5 0.5 0.5 0.5 0.5 0.5 0.5 0.5 0.5 0.5 0.5 0.5 0.5 0.5 0.5 0.5 0.5 0.5 0.5 0.5 0.5 0.5 0.5 0.5 0.5 0.5 0.5 0.5 0.5 0.5 0.5 0.5 0.5 0.5 0.5 0.5 0.5 0.5 0.5 0.5 0.5 0.5 0.5 0.5 0.5 0.5 0.5 0.5 0.5 0.5 0.500061 0.5003662 0.5012513 0.5035403 0.5080876 0.5155039 0.5252701 0.5364097 0.5473661 0.5579869 0.5673869 0.5767259 0.5851187 0.5943661 0.6018434 0.6089544 0.6135018 0.6174693 0.6200635 0.6223219 0.6239395 0.6260148 0.6278459 0.630318 0.6317524 0.6329427 0.6332784 0.6346213 0.635842 0.6380699 0.6394128 0.6415797 0.6428615 0.6447232 0.6455777 0.6460661 0.6461881 0.6464323 0.6478056 0.6493621 0.6516511 0.6539401 0.6556796 0.6568394 0.6572056 0.6584264 0.6596777 0.6615699 0.6629738 0.6648965 0.6662699 0.6675823 0.6686504 0.6693524 0.6694745 0.6698712 0.6700848 0.6712751 0.672618 0.6735946 0.6745712 0.6749374 0.6748154 0.6741744 0.6739608 0.6739303 0.6748764 0.675853 0.6761887 0.6774095 0.678264 0.6802478 0.6818959 0.6819264 0.6810413 0.678966 0.6772569 0.675853 0.6762497 0.6767686 0.6765855 0.6772569 0.6769212 0.6757309 0.6749985 0.673381 0.6721601 0.671214 0.6716413 0.6720076 0.6725875 0.672618 0.6710615 0.6696271 0.6670024 0.6641335 0.660868 0.6594946 0.6603491 0.6624855 0.6641335 0.6661173 0.6667888 0.667918 0.6681621 0.6673991 0.6660868 0.663981 0.6621803 0.6608985 0.6596166 0.6583349 0.6583043 0.6580297 0.6588537 0.6588232 0.659403 0.6597083 0.6598914 0.6591894 0.6579381 0.6570531 0.6564732 0.6564121 0.6565952 0.6548557 0.6535433 0.651529 0.6523225 0.6533602 0.6537569 0.6532076 0.6522615 0.6541537 0.6568699 0.6607154 0.6650491 0.6673381 0.6681316 0.6666057 0.6663004 0.6667277 0.6673686 0.6678264 0.6698102 0.6717329 0.6735946 0.6737472 0.6746933 0.6745712 0.6755784 0.6778063 0.6799426 0.6824147 0.6841238 0.6838796 0.6847342 0.6847647 0.6846426 0.6881829 0.6896478 0.6900751 0.6904413 0.6905329 0.6904413 0.6910212 0.6901667 0.6884881 0.6873894 0.6863517 0.6882134 0.6904108 0.6931576 0.6958432 0.6986815 0.7025575 0.7064335 0.7101874 0.7125374 0.7149484 0.718214 0.7201367 0.7227919 0.7258133 0.726851 0.7280412 0.7293841 0.7317036 0.7331685 0.7359763 0.7376549 0.7391198 0.740188 0.740127 0.7399439 0.7395166 0.7404627 0.7413782 0.7424159 0.7423244 0.7440945 0.7446133 0.7475432 0.7487945 0.7505341 0.751999 0.7533724 0.7544405 0.7537386 0.7523652 0.7498322 0.748886 0.7464445 0.7465971 0.7453458 0.746475 0.7462003 0.7464445 0.7461088 0.7444912 0.7432705 0.7410731 0.7410731 0.7400354 0.7390893 0.7380822 0.7376243 0.738601 0.7375023 0.7344809 0.7298724 0.7251114 0.7224562 0.71974 0.7201977 0.7210828 0.7214186 0.7208997 0.7201367 0.720503 0.7212354 0.7219374 0.7248672 0.7281023 0.7312153 0.7327412 0.7334432 0.7343283 0.7331075 0.7335348 0.7344198 0.7366782 0.7399133 0.7431789 0.7472075 0.7513581 0.7540438 0.7560886 0.7586523 0.756638 0.7543795 0.7533113 0.7513886 0.7510224 0.7496796 0.7476043 0.7441555 0.7404321 0.7367088 0.7321309 0.725325 0.7165965 0.7087225 0.7022218 0.6981017 0.6945919 0.6912653 0.6868095 0.6810718 0.6754563 0.6697797 0.6651712 0.6604712 0.655405 0.6493011 0.6438076 0.6391991 0.636544 0.6347128 0.6336446 0.6331563 0.6336446 0.6343771 0.6356284 0.6372459 0.6388329 0.64042 0.6407557 0.6406641 0.6404505 0.641244 0.6428005 0.6457303 0.6504608 0.6575108 0.6670329 0.677379 0.6870231 0.6962095 0.7058536 0.7164744 0.7288958 0.7418971 0.755173 0.7662821 0.7751023 0.7798022 0.781786 0.7808704 0.7791308 0.7761704 0.7722639 0.7670146 0.7606055 0.7544405 0.7495575 0.7460477 0.743423 0.7408594 0.7379906 0.7349997 0.7321614 0.7292926 0.7258744 0.7210828 0.7149484 0.7084783 0.7024965 0.6977354 0.6943173 0.6921504 0.6907465 0.6904413 0.6905329 0.6908075 0.6912653 0.6917536 0.6924861 0.6932796 0.6952024 0.6971251 0.7004212 0.703229 0.7072575 0.7116829 0.7178172 0.7242874 0.7303607 0.7351218 0.7386925 0.7404016 0.7414698 0.7414393 0.7406458 0.7386315 0.736251 0.7334432 0.7304828 0.7277666 0.7253556 0.7234634 0.7214491 0.7194043 0.7167796 0.7139718 0.7106757 0.7074711 0.7038394 0.7002686 0.6959653 0.6909296 0.6854972 0.6798205 0.6743881 0.6685589 0.6624855 0.6553745 0.6488433 0.6420375 0.6359641 0.6296161 0.624031 0.61927 0.6160044 0.6141122 0.6132271 0.613044 0.6128914 0.6127083 0.6124031 0.6117927 0.610694 0.6088323 0.6061161 0.6024843 0.5982421 0.5936031 0.5891778 0.5849966 0.5807545 0.5765427 0.572209 0.5681804 0.5636635 0.5592077 0.5543551 0.5496246
0.5 0.5 0.5 0.5 0.5 0.5 0.5 0.5 0.5 0.5 0.5 0.5 0.5 0.5 0.5 0.5 0.5 0.5 0.5 0.5 0.5 0.5 0.5 0.5 0.5 0.5 0.5 0.5 0.5 0.5 0.5 0.5 0.5 0.5 0.5 0.5 0.5 0.5 0.5 0.5 0.5 0.5 0.5 0.5 0.5 0.5 0.5 0.5 0.5 0.5 0.5 0.5 0.5 0.5 0.5 0.5 0.5 0.5 0.5 0.5 0.5 0.5 0.5 0.5 0.5 0.5 0.5 0.5 0.5 0.5 0.5 0.5 0.5 0.5 0.5 0.5 0.5 0.5 0.5 0.5 0.5 0.5 0.5 0.5 0.5 0.5 0.5 0.5 0.5 0.5 0.5 0.5 0.5 0.5 0.5 0.5 0.5 0.5000916 0.5003052 0.5012208 0.5032961 0.507813 0.5147104 0.5238051 0.5338156 0.5440395 0.5538363 0.563572 0.5735824 0.5839895 0.593359 0.6017213 0.6076115 0.61222 0.6152719 0.6178051 0.6195141 0.6214674 0.6232985 0.6258011 0.6274186 0.6287615 0.6291888 0.6304096 0.6316914 0.6339803 0.6356284 0.6380394 0.639657 0.6418238 0.6430751 0.6439602 0.6441739 0.6442959 0.6454251 0.646768 0.6489043 0.6511628 0.653055 0.6543368 0.6547335 0.6560459 0.6572972 0.6593725 0.6607459 0.6625465 0.6636453 0.6648355 0.6655985 0.6662394 0.6664225 0.6671855 0.6677349 0.6690777 0.670329 0.671214 0.671855 0.6720076 0.671977 0.6716108 0.6716719 0.6717939 0.6728926 0.6740829 0.6748764 0.6762803 0.677318 0.678905 0.6799426 0.6796374 0.6787218 0.6771043 0.6759751 0.6748154 0.6750595 0.6754258 0.6753036 0.6757309 0.6749374 0.673381 0.6725569 0.6713666 0.6708478 0.6705121 0.6706647 0.6706647 0.6707258 0.6709089 0.6695355 0.6681011 0.6651407 0.6621803 0.6590063 0.6580297 0.6590673 0.6617225 0.66334 0.6655069 0.6661173 0.6673076 0.6675518 0.6667888 0.6652628 0.6633095 0.6616309 0.6605628 0.659281 0.6579381 0.6578771 0.6575413 0.6583043 0.6582128 0.6588842 0.659403 0.6595251 0.6587927 0.6572972 0.6564426 0.6557712 0.6558018 0.6558628 0.6542147 0.6529024 0.6511933 0.6521394 0.6532992 0.6534823 0.6526277 0.6514985 0.6533602 0.6562595 0.6602881 0.664866 0.667155 0.6677349 0.6660868 0.6657511 0.6661783 0.6667888 0.6672465 0.6691692 0.671214 0.6731368 0.673442 0.6743575 0.6742355 0.6753036 0.677318 0.6796069 0.6821095 0.6837575 0.6835744 0.6843985 0.6846121 0.68449 0.6880302 0.6894342 0.6897393 0.6901361 0.6901972 0.6903192 0.6908686 0.6899835 0.6882439 0.6871147 0.6863822 0.6886101 0.6909602 0.6936764 0.6964231 0.699353 0.7034731 0.7074406 0.7110724 0.7134224 0.715803 0.7192516 0.7213575 0.7237685 0.7265153 0.7275224 0.7288653 0.7303913 0.7327107 0.7342672 0.7367393 0.7383263 0.7395776 0.7406458 0.7411036 0.7413172 0.7413782 0.7421718 0.7430568 0.7440029 0.7436367 0.7454373 0.7459562 0.7487029 0.7495269 0.7509003 0.7523957 0.7537997 0.7547458 0.7539523 0.7524873 0.7501068 0.7493743 0.7470854 0.7472075 0.7457426 0.7468413 0.7466887 0.7470854 0.7465665 0.7447659 0.7434536 0.7411646 0.7411646 0.7400659 0.7393029 0.7385094 0.7382958 0.739425 0.7381432 0.7350608 0.7305744 0.7262712 0.723799 0.7211744 0.7215101 0.7224562 0.7224257 0.7221205 0.7219679 0.723677 0.7254166 0.72679 0.729964 0.7328938 0.7354575 0.7365257 0.7370445 0.7380211 0.7368003 0.7371666 0.7380517 0.7404321 0.7439724 0.7474821 0.751877 0.7561802 0.7587133 0.7599646 0.7615516 0.7587438 0.7563633 0.7552035 0.7531587 0.7529451 0.7517854 0.7499237 0.7465665 0.7429348 0.739425 0.7352133 0.7288042 0.7206556 0.7125984 0.7057011 0.7011536 0.6974303 0.6943173 0.6903192 0.6849173 0.6795459 0.6738387 0.6693524 0.6650491 0.6603796 0.6544284 0.6483855 0.6427394 0.6391381 0.6370018 0.6362693 0.6362693 0.6375511 0.6382836 0.6392602 0.6399927 0.6410913 0.6422817 0.6428005 0.6427089 0.6427699 0.644418 0.6479888 0.6537569 0.6614478 0.6705427 0.6801257 0.6896783 0.6979491 0.7062199 0.7159556 0.7277361 0.7415614 0.7547458 0.7670451 0.7757126 0.7821828 0.7843496 0.7848074 0.7828542 0.7807788 0.7781237 0.7749497 0.7705548 0.764451 0.7580113 0.7522737 0.7479705 0.7449185 0.7424464 0.7398523 0.7368308 0.7339621 0.7311543 0.7282244 0.7243789 0.7191601 0.7132088 0.7073185 0.7021608 0.697827 0.6942562 0.6918452 0.6909296 0.6909907 0.6918757 0.6930355 0.6945919 0.6962705 0.6983458 0.7013367 0.704816 0.7091802 0.7140023 0.7199536 0.7261796 0.7322835 0.7378075 0.7422328 0.7455594 0.7478484 0.7483977 0.7482756 0.7469328 0.745712 0.7437893 0.7420497 0.7398218 0.7371361 0.7342672 0.7313069 0.7288347 0.7263627 0.7242264 0.7220594 0.7197705 0.7168711 0.7136056 0.7098822 0.7060978 0.7022828 0.6980101 0.6930965 0.6870842 0.6811329 0.6753342 0.6697797 0.66334 0.6566563 0.6496063 0.6431972 0.6367271 0.6305012 0.6251602 0.6205518 0.6177745 0.616157 0.6156076 0.615333 0.6152719 0.6150888 0.6148142 0.6142343 0.6132882 0.611396 0.6087102 0.6049563 0.6007447 0.5961057 0.5920771 0.5877129 0.5838064 0.5794421 0.5754746 0.570744 0.5661967 0.5612831 0.5563999
0.5 0.5 0.5 0.5 0.5 0.5 0.5 0.5 0.5 0.5 0.5 0.5 0.5 0.5 0.5 0.5 0.5 0.5 0.5 0.5 0.5 0.5 0.5 0.5 0.5 0.5 0.5 0.5 0.5 0.5 0.5 0.5 0.5 0.5 0.5 0.5 0.5 0.5 0.5 0.5 0.5 0.5 0.5 0.5 0.5 0.5 0.5 0.5 0.5 0.5 0.5 0.5 0.5 0.5 0.5 0.5 0.5 0.5 0.5 0.5 0.5 0.5 0.5 0.5 0.5 0.5 0.5 0.5 0.5 0.5 0.5 0.5 0.5 0.5 0.5 0.5 0.5 0.5 0.5 0.5 0.5 0.5 0.5 0.5 0.5 0.5 0.5 0.5 0.5 0.5 0.5 0.5 0.5 0.5 0.5 0.5 0.5 0.5 0.5000305 0.5004272 0.5013123 0.5037844 0.507874 0.5143136 0.5223097 0.5310993 0.5402246 0.5496246 0.5600622 0.5707746 0.5817616 0.5918025 0.599707 0.6056888 0.6098089 0.612983 0.6149973 0.6170115 0.6188122 0.6214674 0.6232985 0.6250381 0.6257096 0.6270219 0.6282122 0.6306232 0.6323628 0.6349875 0.6366661 0.6391381 0.6405115 0.6417628 0.6419154 0.6419459 0.6427699 0.6437771 0.6456998 0.6478361 0.6499726 0.6515595 0.6520784 0.6533602 0.6542758 0.6561985 0.6573582 0.6592199 0.660166 0.6615699 0.6625465 0.6634621 0.6641946 0.6651407 0.6658121 0.6669719 0.6678569 0.668681 0.6691387 0.6692608 0.6694439 0.6692608 0.6694134 0.6695966 0.6709089 0.6724349 0.6737167 0.6753036 0.6760361 0.6770127 0.6774095 0.6772264 0.676616 0.6756394 0.6749069 0.6737777 0.6738082 0.6738387 0.6736251 0.6736251 0.6725264 0.6710004 0.6704205 0.6697797 0.6696881 0.669566 0.6693829 0.6690167 0.6688641 0.6691082 0.667979 0.6664225 0.6632485 0.6601965 0.6571446 0.6565647 0.6579076 0.660929 0.6626686 0.6648355 0.6653543 0.6666057 0.6668193 0.6660868 0.6644692 0.6626992 0.6611426 0.6601965 0.6589147 0.6574498 0.6573887 0.656931 0.6576329 0.6575413 0.6583654 0.6590979 0.6591589 0.6583349 0.6565342 0.6557712 0.6549777 0.6551608 0.6550083 0.6535738 0.6522615 0.6509186 0.6520174 0.6531466 0.6530855 0.6518953 0.6506134 0.6523836 0.655466 0.6598914 0.6646524 0.6668498 0.6672465 0.6655069 0.6651102 0.6655985 0.6661173 0.6666362 0.6684673 0.6707563 0.672679 0.6730757 0.6739608 0.6737777 0.6749374 0.6767991 0.6790575 0.6817433 0.6833303 0.6832082 0.6840627 0.6843985 0.684368 0.6878777 0.689129 0.6893731 0.6898614 0.6898309 0.6902277 0.6906244 0.6897088 0.6879997 0.6868095 0.6864738 0.6889458 0.691479 0.6941952 0.696942 0.6999634 0.7043276 0.7082646 0.7118354 0.714277 0.7164744 0.7200451 0.7223341 0.7246841 0.7272173 0.7282549 0.7296588 0.7313374 0.7336568 0.7352133 0.7374412 0.7389062 0.7400659 0.7411341 0.7422023 0.7427822 0.7432094 0.7438809 0.7446438 0.7453458 0.7447659 0.7466276 0.7471464 0.7496796 0.7501678 0.7512971 0.7527925 0.7541049 0.7548679 0.7540133 0.7526094 0.7502899 0.7498322 0.7476653 0.7477263 0.7460477 0.747238 0.7472075 0.7476348 0.7469328 0.744949 0.7435756 0.7411951 0.7411951 0.740188 0.7395776 0.7391198 0.7389978 0.7400354 0.7384789 0.735488 0.7312763 0.7273698 0.7250198 0.7225783 0.7228529 0.7239516 0.7240432 0.72444 0.7250808 0.7272783 0.7297503 0.7313374 0.7347555 0.7371055 0.7389672 0.7395471 0.7399133 0.7410426 0.7400049 0.7405237 0.7414088 0.7439114 0.7476348 0.7515107 0.7564854 0.7610022 0.7627113 0.7628639 0.7634438 0.7603309 0.7579503 0.7567906 0.7546237 0.7545322 0.7534334 0.7516938 0.7485198 0.744888 0.7415003 0.7375633 0.73149 0.7238601 0.715925 0.708692 0.7037478 0.6998413 0.6966367 0.6929439 0.6878471 0.682842 0.6770738 0.672618 0.6685894 0.6645913 0.6593115 0.6536348 0.6478667 0.6438991 0.6416102 0.6406946 0.6404505 0.6412745 0.6415492 0.6421291 0.6423427 0.6431972 0.6438686 0.644418 0.6447842 0.6461271 0.6494537 0.655466 0.6637063 0.6729537 0.682842 0.6916621 0.6999634 0.7074406 0.7157114 0.7259964 0.7385399 0.7530062 0.7656107 0.7764451 0.782549 0.7866997 0.7872795 0.7867607 0.7843191 0.7822133 0.779436 0.7768113 0.7733016 0.7682659 0.7620399 0.7556003 0.7502594 0.7464139 0.7438504 0.7414088 0.738662 0.7356101 0.7325886 0.7298724 0.7269425 0.7230361 0.7182445 0.7124459 0.7066472 0.7013367 0.6968199 0.6936458 0.692303 0.692364 0.6933712 0.6946835 0.6968199 0.6991394 0.7031374 0.7075322 0.7131172 0.7185802 0.7255692 0.7327107 0.7400964 0.7457426 0.7499237 0.7521211 0.7532808 0.7537997 0.7537692 0.7532503 0.7520601 0.7507477 0.7490081 0.7472685 0.7455594 0.7433315 0.7408289 0.7375633 0.7344198 0.7315205 0.7293841 0.7273088 0.7250198 0.7223341 0.7191601 0.7156504 0.7116218 0.7078069 0.7038699 0.6998108 0.6945919 0.6890985 0.6834829 0.678142 0.6721601 0.6658427 0.6590979 0.6521394 0.6457303 0.6393823 0.6338583 0.6282732 0.6244583 0.6217421 0.6206434 0.620155 0.6199109 0.6196057 0.6192394 0.6187207 0.6180187 0.6168895 0.615333 0.6125252 0.6089239 0.6041629 0.5996765 0.5947323 0.5904596 0.5860343 0.5818226 0.5772752 0.5728804 0.5683941 0.5636025
0.5 0.5 0.5 0.5 0.5 0.5 0.5 0.5 0.5 0.5 0.5 0.5 0.5 0.5 0.5 0.5 0.5 0.5 0.5 0.5 0.5 0.5 0.5 0.5 0.5 0.5 0.5 0.5 0.5 0.5 0.5 0.5 0.5 0.5 0.5 0.5 0.5 0.5 0.5 0.5 0.5 0.5 0.5 0.5 0.5 0.5 0.5 0.5 0.5 0.5 0.5 0.5 0.5 0.5 0.5 0.5 0.5 0.5 0.5 0.5 0.5 0.5 0.5 0.5 0.5 0.5 0.5 0.5 0.5 0.5 0.5 0.5 0.5 0.5 0.5 0.5 0.5 0.5 0.5 0.5 0.5 0.5 0.5 0.5 0.5 0.5 0.5 0.5 0.5 0.5 0.5 0.5 0.5 0.5 0.5 0.5 0.5 0.5 0.5 0.500061 0.5003662 0.5014344 0.5038149 0.5080266 0.5140694 0.5210584 0.5288409 0.5368065 0.5459318 0.5560337 0.56757 0.5790148 0.5893609 0.5974486 0.6032778 0.6073064 0.6098089 0.6119148 0.6137764 0.6164011 0.6185375 0.6206739 0.621681 0.6231154 0.6242751 0.6265947 0.6284869 0.6311725 0.6329732 0.6355063 0.6370323 0.6385583 0.638955 0.6391076 0.639718 0.640542 0.6424037 0.6444485 0.6467985 0.6486907 0.6495453 0.6507355 0.6513154 0.652994 0.6539401 0.6557102 0.6567478 0.6584569 0.6597388 0.6609901 0.6619667 0.6628518 0.6632485 0.6639504 0.6645303 0.6654459 0.6659647 0.6661783 0.6667582 0.6669413 0.6676433 0.6680706 0.6696576 0.6714888 0.6727706 0.6738693 0.6738082 0.6742049 0.6744491 0.6749069 0.67509 0.6745712 0.6737777 0.6725875 0.6723738 0.6722517 0.6717939 0.671214 0.6697797 0.6684978 0.6683452 0.6684673 0.6687115 0.6684368 0.6678264 0.6670024 0.6669413 0.6670939 0.6660868 0.6642861 0.6611426 0.6583959 0.6556491 0.655405 0.6568089 0.6601355 0.6619667 0.664103 0.6644692 0.6657816 0.6659952 0.6653543 0.6637368 0.6621498 0.6606543 0.6597998 0.6584874 0.6568699 0.6567478 0.6562595 0.6567783 0.6568089 0.6577855 0.6587927 0.6587011 0.657755 0.6556796 0.6550083 0.6540622 0.6543673 0.6540927 0.6528413 0.6516816 0.6506745 0.6518647 0.6529329 0.6525972 0.6509492 0.6495453 0.6512544 0.6547335 0.6594335 0.6642861 0.6664225 0.6666362 0.6648355 0.6643167 0.664866 0.6652322 0.6659037 0.6676738 0.6701764 0.6721601 0.672618 0.673442 0.6733199 0.6744797 0.6762192 0.6784167 0.6812855 0.682903 0.6828114 0.683666 0.6841848 0.6841848 0.687603 0.6887627 0.6889153 0.6894647 0.6894342 0.6900141 0.6902887 0.6893731 0.687664 0.6865348 0.6865348 0.6892816 0.6919062 0.6945309 0.6973692 0.7003906 0.704877 0.7089056 0.7124764 0.7149789 0.7170848 0.7206556 0.7230361 0.7254166 0.7278886 0.7290179 0.7303913 0.7321004 0.7343588 0.7359763 0.7380822 0.739364 0.7405237 0.7416834 0.7433315 0.7443081 0.7448575 0.7453153 0.7458646 0.7465055 0.7458341 0.7476958 0.7482146 0.7503815 0.7506562 0.7516328 0.7531282 0.754349 0.7549289 0.7540438 0.7526705 0.750473 0.7502289 0.748123 0.7481536 0.7463224 0.7476043 0.7477568 0.7480925 0.7471464 0.7449796 0.7436062 0.7411951 0.7412257 0.7403406 0.7398828 0.7396997 0.7395776 0.7404932 0.7387841 0.7358542 0.7319477 0.7283465 0.7261186 0.7239211 0.7241347 0.7254776 0.7259659 0.7272783 0.7291095 0.7321919 0.7350608 0.7362205 0.738601 0.7400354 0.7412562 0.7417139 0.7421412 0.743301 0.7424769 0.7432399 0.7446133 0.7479094 0.7521516 0.7565464 0.7615821 0.7654886 0.76616 0.7652445 0.7650613 0.7617652 0.7592931 0.7580113 0.7557224 0.7556003 0.7545016 0.7528536 0.7498016 0.7462919 0.7429653 0.7392114 0.7334737 0.7262712 0.7184582 0.7112556 0.7060367 0.7018556 0.6984984 0.6951413 0.6904718 0.686016 0.6802478 0.6758225 0.6718245 0.6681926 0.6636147 0.6585485 0.6532686 0.6495147 0.6473784 0.6462492 0.6455777 0.6455167 0.6449368 0.6448452 0.644418 0.6446927 0.6453336 0.6465238 0.6482024 0.6512544 0.6568394 0.6647745 0.6747848 0.6843374 0.693005 0.7003601 0.7076848 0.7154062 0.7248672 0.7364341 0.7494659 0.7632302 0.7744918 0.7830373 0.7875847 0.7897211 0.7890801 0.7880425 0.7855399 0.7834951 0.7806568 0.7783068 0.7753159 0.7710432 0.7654581 0.75911 0.7531282 0.7484893 0.7453458 0.7428127 0.7402796 0.7374107 0.7344198 0.7318256 0.7294452 0.7265458 0.7226393 0.7171458 0.7110114 0.7051212 0.6997803 0.6961485 0.6942257 0.6941342 0.6953244 0.6970335 0.7000244 0.7032595 0.7085699 0.7139108 0.7212049 0.7282854 0.737014 0.744888 0.7517244 0.7559665 0.7586828 0.7593542 0.7594458 0.7588659 0.7584081 0.757401 0.7564244 0.755173 0.7540743 0.7524263 0.751114 0.7490386 0.7466581 0.7436062 0.7405237 0.7374412 0.7346334 0.7321919 0.7298419 0.7273088 0.7243179 0.7211744 0.7173595 0.7140328 0.710462 0.707166 0.7027712 0.697827 0.6924556 0.6871452 0.6820179 0.6763108 0.6701154 0.663218 0.6568699 0.6500031 0.6439907 0.6375816 0.6328816 0.6291277 0.6272355 0.6262284 0.6258011 0.6254044 0.6249771 0.6243972 0.6236038 0.6226577 0.6213453 0.619331 0.6163401 0.6123726 0.6074589 0.6024233 0.5974791 0.5933895 0.5889642 0.584722 0.5798084 0.5751694 0.5701032
0.5 0.5 0.5 0.5 0.5 0.5 0.5 0.5 0.5 0.5 0.5 0.5 0.5 0.5 0.5 0.5 0.5 0.5 0.5 0.5 0.5 0.5 0.5 0.5 0.5 0.5 0.5 0.5 0.5 0.5 0.5 0.5 0.5 0.5 0.5 0.5 0.5 0.5 0.5 0.5 0.5 0.5 0.5 0.5 0.5 0.5 0.5 0.5 0.5 0.5 0.5 0.5 0.5 0.5 0.5 0.5 0.5 0.5 0.5 0.5 0.5 0.5 0.5 0.5 0.5 0.5 0.5 0.5 0.5 0.5 0.5 0.5 0.5 0.5 0.5 0.5 0.5 0.5 0.5 0.5 0.5 0.5 0.5 0.5 0.5 0.5 0.5 0.5 0.5 0.5 0.5 0.5 0.5 0.5 0.5 0.5 0.5 0.5 0.5 0.5000305 0.5001221 0.5005188 0.5016481 0.5041201 0.5084234 0.5139474 0.5206006 0.5273759 0.5348227 0.5429714 0.5535616 0.5647622 0.5764817 0.5859733 0.5937252 0.5991577 0.6032473 0.6062382 0.6089239 0.6118843 0.6144784 0.6170421 0.6184154 0.6198804 0.6209486 0.6230239 0.6250076 0.6276018 0.629494 0.6320576 0.6337667 0.6355979 0.6362693 0.636605 0.6369407 0.6374901 0.638955 0.6405725 0.6428005 0.6445706 0.6456998 0.646768 0.6473479 0.6490875 0.6502167 0.6522615 0.6534212 0.6553745 0.6565952 0.6578771 0.6588537 0.6596777 0.6599829 0.6607764 0.6613563 0.6626992 0.6634621 0.6638894 0.6646524 0.6651712 0.6662394 0.6667888 0.6684368 0.6698102 0.6708173 0.6713056 0.6710615 0.6715803 0.6721296 0.6732588 0.6737167 0.673442 0.6725569 0.6714277 0.6709394 0.6702679 0.6693524 0.6684978 0.667155 0.666453 0.6667277 0.6672465 0.6675212 0.6667277 0.6658427 0.6648355 0.6649576 0.6649271 0.6638894 0.6619056 0.6590368 0.6565952 0.6541537 0.6542147 0.6558933 0.6593115 0.6611732 0.663279 0.6636147 0.6648965 0.6650186 0.6644082 0.6629738 0.6616309 0.6603186 0.6593725 0.6579076 0.656229 0.6560459 0.6555576 0.6559544 0.656168 0.6572667 0.6584569 0.6582128 0.6571446 0.6547946 0.6542147 0.6531771 0.6535738 0.6532381 0.6522005 0.6512238 0.6504914 0.6517426 0.6525056 0.6518953 0.6499115 0.6484466 0.6502167 0.6540011 0.6589758 0.6638589 0.6658732 0.6658732 0.664103 0.6634316 0.6640115 0.6642861 0.6651102 0.6667888 0.6694745 0.6714888 0.6720991 0.6728926 0.6727706 0.6738998 0.6754868 0.6777452 0.6807361 0.6823842 0.6824147 0.6833303 0.6840017 0.6840017 0.6872673 0.6882744 0.688366 0.689068 0.6889763 0.6897699 0.6898614 0.6889153 0.6872978 0.6862296 0.6866264 0.6895562 0.692242 0.6948056 0.6976744 0.7007264 0.7053348 0.7094549 0.7130562 0.7156809 0.7176952 0.7211438 0.7235854 0.7259354 0.7283465 0.7295977 0.7310016 0.7327412 0.7349692 0.7366782 0.738601 0.7397607 0.7409815 0.7422938 0.7444607 0.7455899 0.7462308 0.7465055 0.7467802 0.7474821 0.7469328 0.7487029 0.7489776 0.7506257 0.7509003 0.7519685 0.7534334 0.7545627 0.7549594 0.7540438 0.752762 0.7507172 0.7505952 0.7485198 0.7484893 0.7466276 0.748001 0.7482146 0.7484587 0.747299 0.7449796 0.7436062 0.7412257 0.7412562 0.7405237 0.7402796 0.7402796 0.7400659 0.74089 0.7390893 0.7364036 0.7326802 0.7293841 0.7271562 0.725325 0.7256302 0.727553 0.7285296 0.7306659 0.7331991 0.7365257 0.7393335 0.7398828 0.7415308 0.7422633 0.7430263 0.7436367 0.7444607 0.7458646 0.7455289 0.7467497 0.7485503 0.7521821 0.7567295 0.7610633 0.7657633 0.7689068 0.7683575 0.7664347 0.7656412 0.762223 0.7596899 0.758347 0.7559665 0.7559055 0.7547763 0.7532808 0.7503815 0.7469023 0.7437283 0.7400964 0.7344198 0.7277055 0.7200757 0.7128731 0.7075322 0.7030153 0.699475 0.6964231 0.6920894 0.6882134 0.6824757 0.6779894 0.6740829 0.6709699 0.6673686 0.6634621 0.6595251 0.6564732 0.6548862 0.653055 0.6513154 0.6496368 0.6480803 0.6471953 0.6464018 0.6461576 0.6471037 0.6493927 0.6532381 0.6583654 0.6659037 0.6746323 0.6847342 0.6934932 0.7010926 0.7077459 0.7150705 0.7238296 0.7344198 0.7467192 0.7595679 0.7717146 0.7814198 0.7877068 0.7907282 0.7912165 0.7900568 0.788836 0.786608 0.7845938 0.781786 0.7795886 0.7769945 0.7735152 0.7686321 0.7625588 0.7560581 0.7506257 0.7469328 0.7440945 0.741775 0.7390893 0.73619 0.7338399 0.7318256 0.7297809 0.7264237 0.7211744 0.7147958 0.7086004 0.7030153 0.6992004 0.6968809 0.6966062 0.6975828 0.6998413 0.7035036 0.7080205 0.7142159 0.7212049 0.729964 0.7389672 0.7480925 0.7552951 0.7604224 0.7635049 0.7653055 0.7653971 0.7646951 0.7631386 0.7620399 0.7609717 0.760575 0.7596289 0.7588964 0.7570347 0.7554172 0.753464 0.751999 0.7496796 0.7467802 0.7434841 0.7400049 0.7371055 0.7343588 0.7320698 0.7295367 0.7270341 0.7239822 0.7209607 0.7178172 0.7151315 0.7117744 0.7080205 0.7031679 0.6977659 0.6927608 0.6875114 0.6820179 0.6747543 0.6677654 0.6605017 0.6544894 0.6479582 0.6424342 0.6376122 0.6346518 0.6328206 0.6320881 0.6315998 0.6311115 0.6304706 0.6296771 0.628792 0.6276628 0.6262284 0.62397 0.6209486 0.6163096 0.6111823 0.6054752 0.6007752 0.595831 0.5914973 0.5864921 0.5818837 0.5767564
0.5 0.5 0.5 0.5 0.5 0.5 0.5 0.5 0.5 0.5 0.5 0.5 0.5 0.5 0.5 0.5 0.5 0.5 0.5 0.5 0.5 0.5 0.5 0.5 0.5 0.5 0.5 0.5 0.5 0.5 0.5 0.5 0.5 0.5 0.5 0.5 0.5 0.5 0.5 0.5 0.5 0.5 0.5 0.5 0.5 0.5 0.5 0.5 0.5 0.5 0.5 0.5 0.5 0.5 0.5 0.5 0.5 0.5 0.5 0.5 0.5 0.5 0.5 0.5 0.5 0.5 0.5 0.5 0.5 0.5 0.5 0.5 0.5 0.5 0.5 0.5 0.5 0.5 0.5 0.5 0.5 0.5 0.5 0.5 0.5 0.5 0.5 0.5 0.5 0.5 0.5 0.5 0.5 0.5 0.5 0.5 0.5 0.5 0.5 0.5 0.5000305 0.5001831 0.500702 0.5018922 0.5045474 0.5084844 0.5137948 0.5195935 0.5259721 0.5325337 0.5412928 0.5513948 0.5635415 0.5742538 0.5839895 0.5907343 0.5961972 0.5998291 0.6030336 0.6060856 0.6089544 0.6119453 0.6137154 0.6153635 0.6164622 0.6184154 0.6203381 0.6230239 0.6249771 0.6275713 0.6294024 0.6314778 0.6324544 0.6330953 0.6333394 0.6338277 0.6350485 0.6365745 0.6387109 0.6406641 0.6421901 0.6434414 0.6440823 0.6457914 0.6471648 0.6492401 0.6504914 0.6522615 0.6533602 0.6545199 0.6555271 0.6564121 0.6568089 0.6575108 0.6581823 0.6597388 0.6607459 0.661692 0.6627602 0.6637979 0.6651102 0.6656595 0.6669719 0.6676128 0.6683452 0.6684368 0.6684062 0.6692913 0.6702374 0.6718855 0.6723433 0.6721601 0.6711225 0.6698407 0.6688641 0.6677349 0.6665446 0.6658121 0.6649271 0.6647745 0.6654153 0.6658427 0.6658732 0.6646829 0.6638284 0.6626381 0.6628212 0.662455 0.6614478 0.6594946 0.656992 0.6548862 0.6529329 0.6532381 0.6550998 0.6584264 0.6602576 0.6623024 0.6627297 0.6639199 0.6640115 0.6634621 0.6622108 0.6610816 0.6599829 0.6589147 0.6573582 0.6555576 0.6552524 0.6547335 0.6550388 0.655466 0.6567173 0.6579992 0.6576024 0.6564121 0.653818 0.6533297 0.6521699 0.6526582 0.6522615 0.6515595 0.6507965 0.6502777 0.651529 0.6519563 0.6511018 0.6487517 0.6472868 0.6491485 0.6531771 0.6584569 0.663218 0.6651407 0.6649271 0.6632485 0.6624244 0.6630349 0.663218 0.6641946 0.6658732 0.668681 0.6707563 0.6714582 0.6721907 0.6720381 0.6731063 0.6746323 0.6769212 0.6800342 0.6817127 0.6819264 0.682964 0.683727 0.6838186 0.6868095 0.6876335 0.6877861 0.6885796 0.6884881 0.6894037 0.6894037 0.688366 0.686901 0.6859549 0.6866874 0.6898309 0.6924861 0.6949887 0.6978881 0.7009095 0.7056094 0.7097906 0.713453 0.7163218 0.718214 0.7215406 0.7240737 0.7263017 0.7286822 0.7301166 0.7315815 0.7333516 0.7355185 0.7372887 0.7390588 0.740127 0.7415308 0.7430874 0.7455899 0.7468413 0.7473906 0.7475737 0.7475126 0.7482756 0.7478179 0.7494964 0.749588 0.7507783 0.751114 0.7523042 0.7537081 0.7547458 0.7549594 0.7540133 0.7528231 0.7509614 0.7508698 0.748764 0.7486114 0.7468718 0.7483367 0.7486114 0.7487335 0.7473906 0.744949 0.7435756 0.7411951 0.7412562 0.7407373 0.7406763 0.7407678 0.7404016 0.7411341 0.7393335 0.736953 0.7334737 0.7306049 0.7284075 0.7270951 0.727675 0.7300251 0.7317341 0.7343588 0.7371361 0.7402796 0.742599 0.7425685 0.7431484 0.7435451 0.7443997 0.7455289 0.7469023 0.7486724 0.748764 0.7501678 0.7522126 0.7559971 0.7606665 0.7651224 0.7691205 0.7711042 0.7693951 0.7668315 0.7658243 0.7624062 0.759873 0.7584997 0.7560886 0.7560581 0.7549289 0.7534945 0.7507477 0.7474211 0.7442776 0.7406763 0.7351523 0.7287737 0.7214796 0.7142465 0.708753 0.7040835 0.7003296 0.6973692 0.6933712 0.6900141 0.6842764 0.6797595 0.6759751 0.673442 0.6710309 0.66804 0.6652322 0.6623634 0.660868 0.6587316 0.6570836 0.6547641 0.6525362 0.6502777 0.6487517 0.6481719 0.6501557 0.6540316 0.6598303 0.6663615 0.6747543 0.6838186 0.6933407 0.7011231 0.7078069 0.7145517 0.7223647 0.7322835 0.744186 0.7561191 0.7682049 0.7780321 0.7862113 0.7908198 0.7928035 0.7923152 0.7908808 0.7895684 0.7876152 0.7856009 0.7828847 0.7806262 0.7780626 0.7751938 0.7711042 0.7657633 0.7592016 0.7530977 0.7485808 0.7453153 0.7430263 0.7406763 0.7380211 0.7358542 0.7340231 0.7322835 0.7293231 0.7247146 0.7186108 0.7125069 0.7068303 0.7027407 0.6998413 0.6991394 0.6999329 0.7029543 0.7074711 0.7133614 0.720564 0.7293536 0.7392114 0.7491912 0.757462 0.7635354 0.7672282 0.769151 0.770036 0.7698529 0.7688457 0.7673198 0.7659159 0.7647867 0.7641457 0.7634438 0.7628334 0.7616737 0.7604529 0.7588659 0.7571568 0.7549899 0.7522737 0.7493743 0.7457426 0.7424464 0.739364 0.7372276 0.7352744 0.7335042 0.7314289 0.7292926 0.7267594 0.7241347 0.7214186 0.7182445 0.7139718 0.7086614 0.7034426 0.6978881 0.6920589 0.6848562 0.6778063 0.67039 0.6636758 0.6567783 0.650705 0.6449673 0.6408472 0.6382531 0.6370628 0.6365135 0.6361472 0.6356589 0.635018 0.634255 0.6332784 0.6322407 0.6306537 0.62867 0.6252823 0.6208265 0.6148752 0.6093817 0.6036135 0.5989135 0.5937252 0.5889336 0.5835012
0.5 0.5 0.5 0.5 0.5 0.5 0.5 0.5 0.5 0.5 0.5 0.5 0.5 0.5 0.5 0.5 0.5 0.5 0.5 0.5 0.5 0.5 0.5 0.5 0.5 0.5 0.5 0.5 0.5 0.5 0.5 0.5 0.5 0.5 0.5 0.5 0.5 0.5 0.5 0.5 0.5 0.5 0.5 0.5 0.5 0.5 0.5 0.5 0.5 0.5 0.5 0.5 0.5 0.5 0.5 0.5 0.5 0.5 0.5 0.5 0.5 0.5 0.5 0.5 0.5 0.5 0.5 0.5 0.5 0.5 0.5 0.5 0.5 0.5 0.5 0.5 0.5 0.5 0.5 0.5 0.5 0.5 0.5 0.5 0.5 0.5 0.5 0.5 0.5 0.5 0.5 0.5 0.5 0.5 0.5 0.5 0.5 0.5 0.5 0.5 0.5 0.5000305 0.5002136 0.5006409 0.5019838 0.5045169 0.5086675 0.5137032 0.5192578 0.525087 0.5319234 0.5401331 0.5506928 0.5611915 0.5718123 0.5798084 0.5866142 0.5909784 0.5947323 0.5979369 0.6013551 0.6048648 0.607581 0.6098089 0.6114265 0.6133797 0.6155466 0.6181713 0.6205212 0.6229628 0.6250992 0.627144 0.6285174 0.6292803 0.6295856 0.6299213 0.6310505 0.6324239 0.6344992 0.6363609 0.638131 0.6394739 0.6402369 0.6417323 0.6430446 0.6450589 0.6462797 0.6481109 0.6492096 0.6505219 0.6517732 0.6529024 0.6536959 0.6546725 0.6556186 0.6574498 0.6587927 0.6602881 0.6615699 0.6627297 0.6637673 0.6636147 0.6642251 0.6642861 0.6652628 0.6657511 0.6663309 0.6675212 0.6683452 0.6699933 0.6706037 0.6707868 0.6698712 0.6683147 0.6666362 0.6647745 0.6635231 0.6631569 0.6630349 0.6634621 0.6641946 0.6641335 0.6637368 0.6623634 0.6617531 0.6604712 0.6602881 0.6595251 0.6587011 0.6572056 0.6553439 0.6534823 0.6518647 0.6522615 0.6541842 0.6572972 0.6592504 0.6611426 0.6616615 0.6628212 0.6629128 0.6624855 0.6615394 0.6605933 0.6596472 0.6583959 0.6566563 0.6547335 0.6542453 0.6537569 0.6541232 0.6548862 0.6561375 0.6574498 0.6567478 0.6555271 0.6527803 0.652353 0.6510407 0.6516511 0.6513459 0.6510102 0.6505219 0.6501251 0.6511933 0.6511933 0.649942 0.6473479 0.6460661 0.6481719 0.6525056 0.6578466 0.6623329 0.6642251 0.6639199 0.6624244 0.6614173 0.6620277 0.6621498 0.6633095 0.6650491 0.6677959 0.6699322 0.6706952 0.6714888 0.6713056 0.6721601 0.6736556 0.675914 0.6792101 0.6809803 0.6813465 0.6825368 0.6834524 0.6835134 0.6861991 0.6869621 0.6871452 0.6880913 0.6879387 0.6889458 0.6888848 0.6878471 0.6865653 0.6857413 0.686779 0.6899835 0.6926692 0.6950498 0.6979491 0.70094 0.7056705 0.7100043 0.7137582 0.7167796 0.7186718 0.7219068 0.724501 0.7266068 0.7288653 0.7303913 0.7320088 0.7338704 0.7360374 0.7376854 0.739364 0.7403406 0.7421107 0.7440335 0.7467192 0.7479705 0.7482756 0.7483367 0.7479399 0.748886 0.7486114 0.7500763 0.7500153 0.7507477 0.7512665 0.7525789 0.7539523 0.7548984 0.7549594 0.7539217 0.7528841 0.7511445 0.7510529 0.748886 0.7486724 0.7471464 0.7486419 0.748886 0.748764 0.7473601 0.7448575 0.7434841 0.7411646 0.7412562 0.7410426 0.7411036 0.7412257 0.7406458 0.7412562 0.7396691 0.7375328 0.7341757 0.731612 0.7297809 0.72914 0.7301776 0.7329243 0.7351828 0.7379906 0.7407373 0.7433925 0.7447659 0.744125 0.7442776 0.7448575 0.7463529 0.7481536 0.7498016 0.7516633 0.7518159 0.7533113 0.7555088 0.7594763 0.7639931 0.7679912 0.7711042 0.7721724 0.7696087 0.7667399 0.7656717 0.7623757 0.759873 0.7584997 0.7561802 0.7561496 0.7549594 0.7536166 0.7510224 0.7477568 0.7447049 0.7411646 0.7357321 0.7296893 0.7225478 0.7154368 0.7098212 0.704877 0.70094 0.6979186 0.6941037 0.6911128 0.6853751 0.6807972 0.677379 0.6754563 0.6740829 0.6723433 0.6706037 0.6679485 0.6662699 0.6640115 0.6623634 0.6597693 0.6571751 0.6541842 0.6524751 0.6519563 0.6547641 0.6601355 0.6673991 0.6749679 0.6833913 0.6916621 0.7000549 0.7069218 0.7134835 0.7209607 0.7302692 0.7409205 0.7533419 0.7643594 0.7752243 0.7832204 0.7898431 0.7929561 0.7940243 0.7930171 0.7915828 0.7901788 0.7884392 0.786486 0.7839529 0.7816639 0.7791003 0.7764756 0.7729964 0.7683269 0.7621009 0.7556614 0.750473 0.7467192 0.7440945 0.7421107 0.7400354 0.7381737 0.7363425 0.7344809 0.73149 0.7274614 0.7220899 0.7164744 0.7110419 0.7069218 0.7036868 0.7026796 0.7030764 0.7069523 0.711988 0.7193127 0.7274919 0.7377769 0.748001 0.757462 0.7643594 0.7693036 0.7720808 0.7733932 0.7737288 0.7734847 0.7724776 0.7713789 0.7697613 0.7688152 0.7678081 0.7674114 0.7668315 0.7662211 0.7648782 0.7633523 0.7614601 0.7597815 0.7573399 0.7549594 0.7516328 0.7485503 0.7459257 0.744064 0.74266 0.7416224 0.740249 0.7383568 0.73619 0.7333516 0.7306049 0.7274614 0.7234939 0.7179393 0.711988 0.7059757 0.7002686 0.6936153 0.6865959 0.678966 0.6717939 0.6644387 0.6576329 0.6513764 0.6460356 0.6425563 0.6406336 0.6397485 0.6392908 0.6388634 0.6383752 0.6377953 0.6370933 0.6363914 0.6354148 0.634255 0.6322102 0.6287615 0.6238174 0.6181102 0.6123421 0.6070927 0.6021181 0.5969602 0.5916194
0.5 0.5 0.5 0.5 0.5 0.5 0.5 0.5 0.5 0.5 0.5 0.5 0.5 0.5 0.5 0.5 0.5 0.5 0.5 0.5 0.5 0.5 0.5 0.5 0.5 0.5 0.5 0.5 0.5 0.5 0.5 0.5 0.5 0.5 0.5 0.5 0.5 0.5 0.5 0.5 0.5 0.5 0.5 0.5 0.5 0.5 0.5 0.5 0.5 0.5 0.5 0.5 0.5 0.5 0.5 0.5 0.5 0.5 0.5 0.5 0.5 0.5 0.5 0.5 0.5 0.5 0.5 0.5 0.5 0.5 0.5 0.5 0.5 0.5 0.5 0.5 0.5 0.5 0.5 0.5 0.5 0.5 0.5 0.5 0.5 0.5 0.5 0.5 0.5 0.5 0.5 0.5 0.5 0.5 0.5 0.5 0.5 0.5 0.5 0.5 0.5 0.5 0.500061 0.5002136 0.500824 0.5020448 0.5046695 0.5085455 0.5134591 0.518861 0.5244156 0.5310993 0.5397668 0.5499603 0.5610694 0.5704999 0.5782213 0.5835317 0.5875298 0.5907038 0.5940304 0.5973876 0.60047 0.602881 0.6047122 0.6065128 0.6087407 0.6113349 0.6139596 0.6165232 0.6189648 0.6212232 0.6230544 0.6243057 0.6249466 0.6254349 0.626381 0.6278154 0.6297992 0.631844 0.6339803 0.6356284 0.6365745 0.6379173 0.6391686 0.6412135 0.6425563 0.6445706 0.6458219 0.6474394 0.6487517 0.6501862 0.6511628 0.652353 0.6535738 0.6554355 0.6570225 0.6587622 0.6597998 0.6605933 0.6610511 0.6606848 0.6611732 0.6613258 0.6627602 0.6636453 0.6645608 0.665629 0.666514 0.6681621 0.6689556 0.6691692 0.6679485 0.6659952 0.6638894 0.6618751 0.6611121 0.6611426 0.6615699 0.6620582 0.6623329 0.6618141 0.6613258 0.660166 0.6596472 0.6581823 0.6576024 0.6565647 0.6560154 0.6548862 0.6537264 0.6521699 0.6511018 0.651468 0.6532381 0.6560459 0.6581517 0.6600134 0.6605322 0.6614783 0.661692 0.6614478 0.660929 0.6600745 0.6591589 0.657755 0.6559238 0.6539401 0.6531771 0.6526582 0.6531466 0.6542147 0.6555271 0.6567173 0.6557712 0.6544894 0.6516816 0.6512238 0.6498809 0.6504914 0.6504303 0.6504303 0.6503083 0.6498504 0.6506439 0.6502167 0.6486297 0.6459134 0.6448452 0.6472258 0.6517121 0.6570836 0.6612952 0.6631874 0.6627602 0.6614478 0.6602576 0.660868 0.6609901 0.6623939 0.6640725 0.6666972 0.6688946 0.6697491 0.6705732 0.67039 0.6710615 0.6725875 0.6748764 0.6781725 0.6800952 0.6807056 0.68214 0.6830861 0.6830861 0.6853751 0.6861381 0.6863822 0.6874199 0.6872673 0.688305 0.6882134 0.6872673 0.6862296 0.6855277 0.6868095 0.6901056 0.6927302 0.6951108 0.6978881 0.7008179 0.7056705 0.7100348 0.7139413 0.7171153 0.718977 0.7222121 0.7248977 0.72679 0.7289568 0.7305439 0.7323445 0.7343588 0.7364646 0.7380517 0.7396386 0.7405847 0.7427211 0.7449796 0.7476958 0.7488555 0.7489776 0.748886 0.7483062 0.7493133 0.7492523 0.7504425 0.7502594 0.7507172 0.7514191 0.7528536 0.7541659 0.7550204 0.7549899 0.7538607 0.7529451 0.7513276 0.7512055 0.7489471 0.7487029 0.7473906 0.748886 0.7490997 0.748764 0.7473295 0.7447354 0.7433315 0.7411341 0.7413172 0.7414088 0.7415614 0.7415614 0.7407373 0.7414088 0.7400354 0.7382042 0.7351523 0.733016 0.7315205 0.7310322 0.732375 0.735427 0.7382042 0.741012 0.7435756 0.7456815 0.7465055 0.7455899 0.7457426 0.7467802 0.7487335 0.7507783 0.7522737 0.7539217 0.7540743 0.7556614 0.7580419 0.7621315 0.7667094 0.7703717 0.7726607 0.7727827 0.7695782 0.7665568 0.7654886 0.7623146 0.759812 0.7584692 0.7562107 0.7561802 0.7550204 0.7537386 0.751236 0.7480315 0.7451321 0.7415614 0.7361594 0.7304218 0.7235244 0.7163523 0.7107673 0.70564 0.7014893 0.6984679 0.694714 0.6920283 0.6863822 0.6819874 0.6789355 0.6778978 0.6771653 0.6764329 0.6747238 0.671977 0.6698407 0.6676738 0.6663615 0.664042 0.6618751 0.659281 0.6581517 0.6582128 0.6613258 0.6674296 0.6749985 0.682964 0.6906855 0.6982848 0.7057316 0.7124153 0.71974 0.7277971 0.7379296 0.748886 0.7617652 0.7718366 0.7811146 0.7870964 0.7920405 0.7940243 0.7946042 0.793536 0.7921626 0.7906672 0.7890801 0.7872185 0.7848685 0.782549 0.7799854 0.7776353 0.774675 0.7705854 0.7648172 0.758347 0.7526094 0.7482146 0.7452542 0.7436672 0.7421107 0.7403711 0.7383568 0.7360679 0.7332906 0.7301166 0.7256607 0.7206861 0.7154673 0.7111335 0.7075627 0.7063419 0.7068608 0.7114692 0.7175121 0.7263932 0.7360374 0.7467802 0.7562717 0.7638406 0.7691815 0.7728743 0.7752854 0.7764146 0.7764146 0.7764146 0.7755295 0.7751633 0.7738509 0.7729964 0.771623 0.7708905 0.7701276 0.7699444 0.7689983 0.7678996 0.7658548 0.7642373 0.7620399 0.7606665 0.7585912 0.7564244 0.7542269 0.7525179 0.7512971 0.7502899 0.7491912 0.7475432 0.7454678 0.7420802 0.738723 0.7349692 0.7311543 0.7259964 0.7202283 0.7139718 0.7077153 0.7013367 0.6943478 0.6864433 0.6783251 0.6708784 0.6638589 0.6575108 0.6514375 0.6470427 0.6440823 0.6427394 0.642068 0.6417018 0.641244 0.6408167 0.6402674 0.639718 0.6391381 0.6383446 0.637307 0.635018 0.6316304 0.6265641 0.6211622 0.6152719 0.6103278 0.6048343 0.599646
0.5 0.5 0.5 0.5 0.5 0.5 0.5 0.5 0.5 0.5 0.5 0.5 0.5 0.5 0.5 0.5 0.5 0.5 0.5 0.5 0.5 0.5 0.5 0.5 0.5 0.5 0.5 0.5 0.5 0.5 0.5 0.5 0.5 0.5 0.5 0.5 0.5 0.5 0.5 0.5 0.5 0.5 0.5 0.5 0.5 0.5 0.5 0.5 0.5 0.5 0.5 0.5 0.5 0.5 0.5 0.5 0.5 0.5 0.5 0.5 0.5 0.5 0.5 0.5 0.5 0.5 0.5 0.5 0.5 0.5 0.5 0.5 0.5 0.5 0.5 0.5 0.5 0.5 0.5 0.5 0.5 0.5 0.5 0.5 0.5 0.5 0.5 0.5 0.5 0.5 0.5 0.5 0.5 0.5 0.5 0.5 0.5 0.5 0.5 0.5 0.5 0.5 0.5 0.5000305 0.5002747 0.500824 0.5021974 0.5047305 0.5083318 0.5130318 0.5178844 0.5235305 0.5303974 0.539309 0.5500519 0.560459 0.5697369 0.5762986 0.5812427 0.5846304 0.587957 0.5911615 0.5946103 0.5973265 0.5995849 0.6014161 0.6036745 0.6061772 0.609046 0.6115791 0.6142953 0.6164927 0.6187207 0.620155 0.6210401 0.6215589 0.6221693 0.6234206 0.6250687 0.6270829 0.6292803 0.6312336 0.6324849 0.6336446 0.6349264 0.6367576 0.6383752 0.64042 0.6421596 0.6440212 0.6458219 0.6476225 0.6491485 0.6506745 0.6520784 0.6538485 0.655405 0.6567783 0.6573277 0.6576634 0.6577244 0.6576329 0.6583349 0.6588842 0.6607764 0.6617225 0.6627602 0.6635842 0.6644082 0.6659647 0.6667277 0.6669108 0.6654764 0.663279 0.6611732 0.6593115 0.6590673 0.6594641 0.6599829 0.6602881 0.6599829 0.659281 0.65864 0.6577855 0.6571446 0.655466 0.6546115 0.6536043 0.6536654 0.6529635 0.6523836 0.6511628 0.6505219 0.650705 0.6522005 0.654581 0.6568394 0.6586095 0.6593115 0.6601355 0.6605322 0.6605628 0.6604407 0.6596166 0.6585485 0.656992 0.6550083 0.6530245 0.6520174 0.651529 0.6522005 0.6535128 0.6547641 0.6557712 0.654642 0.6533602 0.6505524 0.6500031 0.6487212 0.6493011 0.6495758 0.649942 0.6501557 0.6494842 0.6498199 0.6489043 0.6470732 0.6445096 0.6437466 0.6463712 0.6507965 0.6560154 0.6598608 0.6618751 0.6615089 0.6604407 0.6590673 0.6596472 0.6597998 0.6614478 0.6631569 0.665568 0.6676433 0.668742 0.669566 0.6694745 0.6699017 0.6714582 0.6737777 0.6771348 0.6792407 0.6800952 0.6816822 0.6826283 0.6825368 0.684368 0.6851615 0.6855277 0.6867179 0.6865043 0.6874809 0.6875114 0.6866569 0.6859549 0.6853751 0.6868705 0.6901667 0.6926997 0.6950192 0.6977354 0.7006348 0.7054874 0.7100348 0.7140023 0.7173289 0.7191906 0.7224562 0.7252945 0.7269731 0.7289263 0.7306354 0.7325276 0.734664 0.7368613 0.7383263 0.7399133 0.7408594 0.743301 0.7458951 0.7485198 0.7495575 0.7494964 0.7493133 0.7486419 0.7497711 0.7497406 0.7506867 0.7503815 0.7506562 0.7515718 0.7530672 0.7543185 0.7550815 0.7549289 0.7537081 0.7529146 0.7514191 0.751175 0.7489166 0.7486419 0.7476348 0.7490692 0.7493133 0.7487029 0.7471769 0.7445217 0.7431484 0.7411036 0.7413477 0.7417445 0.7418971 0.7418361 0.7409205 0.7416529 0.7405847 0.7391503 0.7363425 0.7346029 0.7333822 0.7331685 0.734725 0.7377159 0.7405542 0.7431179 0.7455899 0.7472075 0.7477568 0.7469023 0.747299 0.748825 0.7509919 0.7530062 0.7542574 0.7556003 0.7557834 0.757401 0.7599646 0.7643899 0.7689068 0.7721114 0.7734847 0.7727827 0.7693646 0.7663127 0.7651224 0.7621925 0.7597204 0.758347 0.7562107 0.7562107 0.755051 0.7538302 0.7513581 0.7482756 0.7454373 0.7418361 0.7365257 0.7309711 0.7241958 0.7171763 0.7115913 0.706403 0.7020997 0.6989257 0.6952024 0.6929134 0.6874199 0.6835134 0.6808277 0.680553 0.6799731 0.6799121 0.6782335 0.6755478 0.6730452 0.6707868 0.6692913 0.6672465 0.665629 0.6646219 0.6647745 0.6661478 0.6692913 0.6757309 0.682842 0.6905634 0.6973692 0.7036562 0.7108283 0.7172374 0.7255082 0.7344503 0.745712 0.7568821 0.769151 0.7777879 0.7854178 0.7901483 0.7937496 0.7948178 0.7950009 0.7939938 0.7926815 0.7911249 0.7897211 0.7879204 0.7858451 0.7834035 0.780901 0.7784899 0.7758652 0.772325 0.7672588 0.7609717 0.7548068 0.7498627 0.7466581 0.7453153 0.744186 0.7424464 0.740188 0.7375023 0.7350302 0.7325581 0.72914 0.7247146 0.7197705 0.7153451 0.7116829 0.7104926 0.7113776 0.7165965 0.7238906 0.7340536 0.7446743 0.7547458 0.762986 0.7685406 0.7725691 0.775438 0.7774217 0.7787035 0.7789172 0.7791613 0.7787035 0.7786425 0.7777269 0.777025 0.7757126 0.7747665 0.7737899 0.7734237 0.7725996 0.7718977 0.7702497 0.7692425 0.7677776 0.7673808 0.7666789 0.7658548 0.7647867 0.7631691 0.7617347 0.7604529 0.7591711 0.7571263 0.7548984 0.7515718 0.7481841 0.7442776 0.7404932 0.7358848 0.7303913 0.7239211 0.7172984 0.7105536 0.703351 0.6955075 0.6869316 0.6789355 0.6711225 0.6641641 0.6570225 0.65159 0.6474699 0.6452726 0.6441128 0.6436855 0.6431972 0.6427394 0.6422817 0.6417628 0.641305 0.6407251 0.6401147 0.6387414 0.6369712 0.6333089 0.6289446 0.6232985 0.6183849 0.6127998 0.6078557
0.5 0.5 0.5 0.5 0.5 0.5 0.5 0.5 0.5 0.5 0.5 0.5 0.5 0.5 0.5 0.5 0.5 0.5 0.5 0.5 0.5 0.5 0.5 0.5 0.5 0.5 0.5 0.5 0.5 0.5 0.5 0.5 0.5 0.5 0.5 0.5 0.5 0.5 0.5 0.5 0.5 0.5 0.5 0.5 0.5 0.5 0.5 0.5 0.5 0.5 0.5 0.5 0.5 0.5 0.5 0.5 0.5 0.5 0.5 0.5 0.5 0.5 0.5 0.5 0.5 0.5 0.5 0.5 0.5 0.5 0.5 0.5 0.5 0.5 0.5 0.5 0.5 0.5 0.5 0.5 0.5 0.5 0.5 0.5 0.5 0.5 0.5 0.5 0.5 0.5 0.5 0.5 0.5 0.5 0.5 0.5 0.5 0.5 0.5 0.5 0.5 0.5 0.5 0.5 0.5000305 0.5001831 0.5006714 0.5019532 0.5042117 0.5080266 0.5124519 0.5177013 0.5232253 0.5303363 0.5393701 0.5497467 0.5600317 0.5688213 0.5752609 0.5794116 0.5825245 0.5852713 0.5885064 0.5911615 0.5936642 0.5953428 0.5974181 0.5994629 0.6022707 0.6047427 0.6077031 0.6099921 0.6126778 0.6144479 0.6160044 0.6167369 0.6174998 0.6186901 0.6202466 0.6223524 0.6246109 0.6268693 0.6287005 0.6301654 0.6317524 0.6335226 0.6355368 0.6376122 0.639779 0.6417933 0.6438991 0.6458524 0.647592 0.6489654 0.6502167 0.6512544 0.6523225 0.6535128 0.653879 0.6543978 0.6547641 0.6552524 0.656168 0.6567478 0.6583959 0.6595556 0.6608375 0.6618446 0.6628212 0.6640115 0.6642251 0.6640115 0.6623024 0.6602881 0.658518 0.6573277 0.6574803 0.6579686 0.6580297 0.6578466 0.6571141 0.6565647 0.6559544 0.6552524 0.6541537 0.6523225 0.65159 0.6508881 0.6513764 0.6511628 0.6511628 0.6503388 0.6498199 0.6496978 0.6509186 0.6531466 0.6554355 0.6571446 0.6579076 0.6586095 0.659281 0.6596472 0.6599524 0.6591284 0.6578466 0.6560459 0.6539401 0.6518647 0.6507355 0.6503998 0.6512849 0.6526277 0.6537264 0.6544589 0.6532686 0.6519563 0.6492401 0.6485076 0.6473784 0.6480803 0.6488128 0.6494537 0.6499115 0.6489348 0.6486297 0.6471953 0.6452726 0.6431362 0.6427699 0.6455777 0.6497589 0.654642 0.6581823 0.6602881 0.660044 0.6591894 0.6578161 0.6582128 0.6586095 0.6604102 0.6621193 0.6642861 0.6663004 0.6675823 0.6684673 0.6683757 0.6686504 0.6701764 0.6725875 0.6758835 0.6782335 0.6794848 0.681255 0.682079 0.6818348 0.6832082 0.6840932 0.6846121 0.6858634 0.6856192 0.6865043 0.6867179 0.6860465 0.6857108 0.6852835 0.6869316 0.6901667 0.6925777 0.6948056 0.6973997 0.7002686 0.7051517 0.7097906 0.7139108 0.7173289 0.7192211 0.7226393 0.7255082 0.7270036 0.7287737 0.7306049 0.7326497 0.7349692 0.7372276 0.7386315 0.740188 0.7411951 0.7439114 0.7467192 0.7490997 0.7499237 0.7496185 0.7494354 0.748825 0.7501068 0.7501068 0.7507783 0.7503815 0.7505952 0.7516938 0.7532503 0.7544405 0.755112 0.7548679 0.753525 0.7528231 0.7514191 0.7510834 0.7488555 0.7485808 0.7478789 0.7492217 0.7494354 0.7485808 0.7469633 0.7442776 0.7428737 0.7411036 0.7414698 0.7420192 0.7421412 0.7420497 0.7410731 0.7420192 0.7413172 0.7402796 0.7376854 0.736312 0.7351218 0.7348776 0.7365257 0.7395471 0.7424464 0.7449796 0.747238 0.7487029 0.7491607 0.7484587 0.7490386 0.7505341 0.7525484 0.7543185 0.7554172 0.756638 0.7570652 0.7588964 0.7617958 0.7663737 0.7707074 0.7734237 0.7739425 0.7725386 0.7690899 0.7660379 0.7647867 0.7620399 0.7596289 0.7582555 0.7562107 0.7562107 0.7550815 0.7538607 0.7514191 0.7483367 0.7455594 0.7419887 0.7366782 0.7313374 0.7246841 0.7177562 0.7123542 0.7070744 0.7026185 0.6993225 0.6955991 0.6937374 0.6885491 0.6852225 0.6830251 0.6833913 0.6826894 0.682964 0.6809192 0.678203 0.6753953 0.6728621 0.6714582 0.6697186 0.6690167 0.6700543 0.6720991 0.6751816 0.6785387 0.6849173 0.6908686 0.6971861 0.7027102 0.70799 0.715162 0.7222121 0.7316731 0.7416834 0.7531893 0.7639321 0.7752243 0.7828847 0.7890191 0.7924067 0.7947263 0.7951535 0.7952145 0.7943295 0.7931392 0.7914912 0.7902094 0.7884392 0.7866691 0.7841665 0.7818165 0.7793139 0.7769029 0.7737594 0.769212 0.7633218 0.7570347 0.7517549 0.7484587 0.7469938 0.7459257 0.7440029 0.7416529 0.7389062 0.7369835 0.7350913 0.7326802 0.7287127 0.7242874 0.7197095 0.7164134 0.7152231 0.7169017 0.7222731 0.7309406 0.741775 0.752701 0.761277 0.767686 0.7718366 0.7749191 0.7772691 0.7789477 0.7805042 0.7811146 0.7817249 0.7818776 0.7819081 0.7814808 0.7805957 0.7796801 0.7783678 0.7772691 0.7768723 0.7765977 0.7766282 0.7763841 0.7767197 0.7769945 0.7781847 0.7792834 0.7800464 0.7800159 0.7787035 0.7773302 0.7756516 0.7741562 0.7721724 0.7700971 0.766923 0.7632607 0.7590185 0.7548679 0.7502289 0.7450406 0.7382653 0.730849 0.7236465 0.7163218 0.7086614 0.6995056 0.6908075 0.6818653 0.6738998 0.6657511 0.6590063 0.6534212 0.6500336 0.6478056 0.6468595 0.6460966 0.6454251 0.6448758 0.6442654 0.6437466 0.6430446 0.6423427 0.6413355 0.6402369 0.6377342 0.6344076 0.629494 0.6248245 0.6195751 0.6150888
0.5 0.5 0.5 0.5 0.5 0.5 0.5 0.5 0.5 0.5 0.5 0.5 0.5 0.5 0.5 0.5 0.5 0.5 0.5 0.5 0.5 0.5 0.5 0.5 0.5 0.5 0.5 0.5 0.5 0.5 0.5 0.5 0.5 0.5 0.5 0.5 0.5 0.5 0.5 0.5 0.5 0.5 0.5 0.5 0.5 0.5 0.5 0.5 0.5 0.5 0.5 0.5 0.5 0.5 0.5 0.5 0.5 0.5 0.5 0.5 0.5 0.5 0.5 0.5 0.5 0.5 0.5 0.5 0.5 0.5 0.5 0.5 0.5 0.5 0.5 0.5 0.5 0.5 0.5 0.5 0.5 0.5 0.5 0.5 0.5 0.5 0.5 0.5 0.5 0.5 0.5 0.5 0.5 0.5 0.5 0.5 0.5 0.5 0.5 0.5 0.5 0.5 0.5 0.5 0.5 0.500061 0.5002136 0.5007325 0.5017701 0.5040286 0.507172 0.5115669 0.516511 0.5224928 0.529848 0.5391259 0.5493805 0.5595434 0.5676311 0.5733992 0.5773363 0.5805713 0.5840505 0.5871025 0.5900629 0.5918635 0.5939388 0.5956784 0.5983642 0.6008362 0.6039492 0.6062382 0.6091681 0.6111213 0.6131051 0.6140206 0.6147531 0.6156381 0.6167674 0.6186596 0.620796 0.623268 0.6254349 0.6271745 0.6290057 0.6306537 0.6329122 0.6349264 0.6373375 0.6393823 0.6416102 0.6434719 0.64512 0.6462187 0.6470732 0.6478361 0.6487212 0.6498504 0.650705 0.65159 0.6523225 0.6531771 0.6541537 0.6547946 0.6561985 0.6575108 0.6589453 0.6597693 0.6602881 0.6607154 0.6606848 0.6605933 0.6593725 0.6580907 0.6566563 0.6557712 0.6557407 0.6557102 0.6553134 0.6549777 0.6542147 0.653879 0.6532381 0.6523836 0.6510713 0.6493011 0.6485991 0.6481719 0.649118 0.6496063 0.6501557 0.6496673 0.649057 0.6486602 0.6496673 0.6514985 0.653818 0.6553439 0.6562901 0.6570836 0.6580907 0.6588537 0.659281 0.6584264 0.656992 0.6550388 0.6528413 0.6506439 0.6495147 0.6492706 0.6504608 0.6516816 0.6526277 0.652994 0.6519258 0.6505219 0.6479888 0.6470427 0.6461271 0.6469511 0.6481109 0.6490265 0.6494232 0.6481414 0.6471953 0.6453336 0.6435024 0.6419154 0.6419764 0.6448147 0.6484466 0.6530245 0.6561985 0.6584569 0.6584874 0.6578771 0.6565342 0.6568089 0.6574193 0.6592504 0.6609595 0.6628518 0.664805 0.6663615 0.667216 0.6671245 0.6673381 0.6688641 0.671153 0.6744186 0.6771043 0.6787829 0.6807361 0.6813465 0.6811023 0.682079 0.682964 0.6837575 0.6849783 0.6847647 0.6855277 0.6859549 0.6855887 0.6855277 0.685253 0.6869316 0.6901361 0.6923335 0.6944699 0.696942 0.6997803 0.7046939 0.7093939 0.7136361 0.7172679 0.719099 0.7226698 0.7256302 0.7268815 0.728438 0.7304523 0.7325581 0.7351828 0.7375328 0.7388757 0.7404932 0.7415614 0.7444607 0.7474211 0.7494964 0.7500763 0.7495575 0.7494354 0.748886 0.7503204 0.7503815 0.7507783 0.750412 0.7505035 0.7518159 0.7533724 0.7545322 0.755112 0.7547458 0.7533113 0.752701 0.7513581 0.7509003 0.7486724 0.7484893 0.7480315 0.7493133 0.7495269 0.7484282 0.7466887 0.7440029 0.7426295 0.7411036 0.7416224 0.7422633 0.7422938 0.7421718 0.7414393 0.7428737 0.7423854 0.7415614 0.7388452 0.7375023 0.7363731 0.7363731 0.7380822 0.7412257 0.7442776 0.7469938 0.7491607 0.750351 0.750412 0.7496185 0.750351 0.751877 0.7536471 0.7553561 0.7563022 0.757462 0.758286 0.7604529 0.7635049 0.7682049 0.7722945 0.7744308 0.7740341 0.7720808 0.7687542 0.7656717 0.7643594 0.7618568 0.7594763 0.7581029 0.7561802 0.7561802 0.7550815 0.7538607 0.7514191 0.7483672 0.745651 0.7420802 0.7367698 0.731551 0.7250198 0.718214 0.7129647 0.7077153 0.7031069 0.6997192 0.6960874 0.6946225 0.6900141 0.6873894 0.6855887 0.6861076 0.6850699 0.685253 0.6833303 0.680492 0.6775926 0.6746933 0.6731063 0.6718855 0.6722517 0.6749679 0.6786608 0.6834829 0.6879082 0.6942257 0.6991699 0.7035646 0.7078984 0.7125679 0.7200757 0.7274919 0.7377159 0.748062 0.759751 0.7705243 0.7806568 0.7870048 0.7915217 0.7938412 0.7952451 0.7952756 0.7952756 0.7945431 0.7935054 0.7918879 0.7906672 0.7889581 0.7874321 0.7849295 0.7827016 0.7800464 0.7777269 0.7749802 0.7710432 0.7656412 0.7595373 0.7540133 0.750473 0.7486419 0.7473906 0.7454373 0.7431179 0.7405542 0.7390283 0.7374107 0.7357932 0.7324361 0.7285906 0.7241042 0.721388 0.7204725 0.7232497 0.7294146 0.7391198 0.749649 0.7593542 0.7661295 0.7708905 0.7742477 0.7766282 0.778612 0.78026 0.7818471 0.7830983 0.7839529 0.7846548 0.7846548 0.7847769 0.7841665 0.7839224 0.7828237 0.7823964 0.7822438 0.7830983 0.7846853 0.7868828 0.7893548 0.7919795 0.7942074 0.7963743 0.7976561 0.7982054 0.796649 0.7944515 0.7918574 0.7898737 0.7877983 0.7856009 0.7827016 0.7791919 0.774797 0.7700665 0.7653971 0.7603614 0.7541964 0.7467192 0.7392724 0.7313679 0.7234023 0.7136666 0.7041751 0.6942257 0.6854972 0.676555 0.6689556 0.6617225 0.6568394 0.6531466 0.6512544 0.6497284 0.6485076 0.6474699 0.6466154 0.6458219 0.6450589 0.6442349 0.6434719 0.6428005 0.6412745 0.6388024 0.6349875 0.6304401 0.6255264 0.6212842
0.5 0.5 0.5 0.5 0.5 0.5 0.5 0.5 0.5 0.5 0.5 0.5 0.5 0.5 0.5 0.5 0.5 0.5 0.5 0.5 0.5 0.5 0.5 0.5 0.5 0.5 0.5 0.5 0.5 0.5 0.5 0.5 0.5 0.5 0.5 0.5 0.5 0.5 0.5 0.5 0.5 0.5 0.5 0.5 0.5 0.5 0.5 0.5 0.5 0.5 0.5 0.5 0.5 0.5 0.5 0.5 0.5 0.5 0.5 0.5 0.5 0.5 0.5 0.5 0.5 0.5 0.5 0.5 0.5 0.5 0.5 0.5 0.5 0.5 0.5 0.5 0.5 0.5 0.5 0.5 0.5 0.5 0.5 0.5 0.5 0.5 0.5 0.5 0.5 0.5 0.5 0.5 0.5 0.5 0.5 0.5 0.5 0.5 0.5 0.5 0.5 0.5 0.5 0.5 0.5 0.5 0.5000305 0.5002136 0.5006104 0.5017091 0.5035708 0.5065312 0.5104987 0.5153208 0.5213636 0.5290545 0.5382714 0.5488311 0.5584753 0.5664103 0.5719954 0.576085 0.5797168 0.5826467 0.5857596 0.5876824 0.5897272 0.5912226 0.5936337 0.5959836 0.5991271 0.6014466 0.604468 0.6066044 0.6090155 0.6103583 0.6114265 0.6123726 0.6135018 0.615394 0.6174388 0.6200635 0.622566 0.624794 0.6268388 0.6283647 0.6305622 0.6323934 0.6347433 0.6364524 0.6384667 0.6399621 0.6414271 0.6424953 0.6434719 0.6442349 0.6453641 0.6467069 0.6481414 0.6493011 0.6501862 0.6510407 0.6519258 0.6526887 0.6539401 0.6553134 0.6567173 0.6572362 0.6572972 0.6571446 0.6568394 0.6570531 0.6565952 0.656229 0.655405 0.6544284 0.6537874 0.6529635 0.6523225 0.6518037 0.6512849 0.6507965 0.6499726 0.6490265 0.6478056 0.6465238 0.6461271 0.646005 0.6471648 0.6481414 0.649179 0.6488738 0.6480803 0.6474699 0.6480803 0.6497284 0.6520479 0.6536654 0.6547335 0.6556186 0.6569615 0.6580602 0.6585485 0.6575719 0.6558933 0.6537874 0.6515595 0.6493011 0.648416 0.6482635 0.6494537 0.6503693 0.6511018 0.6511628 0.6503693 0.6488738 0.6466459 0.6455472 0.6449978 0.646005 0.6475615 0.6485991 0.6486907 0.6469206 0.645181 0.6432583 0.6418238 0.6409388 0.6414576 0.6438381 0.64689 0.6509186 0.6539096 0.6562901 0.6566868 0.6562901 0.6551608 0.6553439 0.6562595 0.6580602 0.6596777 0.6613258 0.663218 0.6650491 0.6658121 0.6657816 0.6660258 0.6673991 0.6697186 0.6728011 0.6758835 0.6780809 0.6800647 0.680492 0.6801562 0.6806751 0.6817127 0.6826589 0.6837575 0.6836965 0.684368 0.6851004 0.6851004 0.6853751 0.6852225 0.6869316 0.6900141 0.6919062 0.6940426 0.6963926 0.6991088 0.704053 0.7088751 0.7132393 0.7169627 0.7189159 0.7226698 0.7256302 0.7266679 0.7279497 0.7301471 0.7324055 0.7353354 0.7378075 0.7391198 0.7407373 0.7419276 0.7449796 0.748062 0.7497711 0.7500153 0.7494354 0.7493133 0.7488555 0.7503815 0.7504425 0.7507172 0.7503815 0.7504425 0.751877 0.753464 0.7545627 0.755051 0.7545627 0.7529756 0.7524568 0.751114 0.7505646 0.7483977 0.7483367 0.7481841 0.7494048 0.7495269 0.7481841 0.7463529 0.7436367 0.7422938 0.7411341 0.741775 0.7424464 0.7423549 0.7423549 0.7421107 0.7438504 0.7436062 0.7429348 0.7400354 0.7385705 0.7372581 0.7372581 0.7391809 0.742599 0.7460172 0.7490997 0.7512055 0.7518159 0.7513276 0.7505035 0.7512665 0.7528536 0.7544711 0.7560276 0.7569737 0.7581639 0.7594458 0.7618873 0.7652445 0.7699444 0.7734847 0.7749497 0.7738509 0.7715009 0.7682354 0.7652445 0.7639016 0.7616127 0.7592931 0.7579503 0.7561191 0.7561191 0.7550815 0.7538302 0.7514191 0.7483672 0.745651 0.7420497 0.7368003 0.731612 0.7251114 0.7185192 0.7133919 0.7082036 0.7035952 0.700116 0.6964841 0.6955686 0.6916621 0.6895257 0.6880302 0.6883965 0.6872368 0.6873589 0.6856192 0.6825673 0.6794848 0.6761582 0.675029 0.6744797 0.675914 0.6796985 0.6849478 0.690716 0.6963621 0.7027102 0.7072575 0.71034 0.7133003 0.7169932 0.7247146 0.7327718 0.7436978 0.7548373 0.7660074 0.7758652 0.7847464 0.7902399 0.7935665 0.7949094 0.7955808 0.7953061 0.7953061 0.7947263 0.7938107 0.7922541 0.7910944 0.7894158 0.7881646 0.7856314 0.7835256 0.7806873 0.7784594 0.7758957 0.7724776 0.7675029 0.7619483 0.7564549 0.752701 0.750351 0.7486114 0.7466887 0.7447049 0.742538 0.7412867 0.7398523 0.738662 0.7359153 0.7326802 0.7285906 0.7265153 0.7262406 0.7301471 0.7371055 0.7469938 0.756577 0.764512 0.7697918 0.7733321 0.7761094 0.7780932 0.7798022 0.7815113 0.7831594 0.7849905 0.7863029 0.7875847 0.788134 0.7888055 0.7885613 0.7890496 0.7887444 0.7892938 0.7901483 0.7926509 0.7961301 0.8008301 0.8050723 0.8091925 0.8117561 0.813984 0.8146554 0.8148385 0.813099 0.81081 0.8077886 0.8050723 0.8023561 0.799823 0.7965574 0.7929561 0.7886529 0.7839529 0.7791308 0.7743087 0.7684185 0.7610938 0.7533419 0.7451321 0.7370445 0.7277055 0.7180919 0.70799 0.6987426 0.6892511 0.6808582 0.6725569 0.6663615 0.6613258 0.6583959 0.6559238 0.6539096 0.6520479 0.6505829 0.649118 0.6478056 0.6466764 0.6457303 0.6447842 0.643716 0.6418238 0.6389245 0.6346518 0.6301654 0.6257401
