0 0 0 0 0 0 0 0 0 0 0 0 0 0 0 0 0 0 0 0 0 0 0 0 0 0 0 0 0 0 0 0 0 0 0 0 0 0 0 0 0 0 0 0 0 0 0 0 0 0 0 0 0 0 0 0 0 0 0 0 0 0 0 0 0 0 0 0 0 0 0 0 0 0 0 0 0 0 0 0 0 0 0 0 0 0 0 0 0 0 0 0 0 0 0 0 0 0 0 0 0 0 0 0 0 0 0 0 0 0 0 0 0 0 0 0 0 0 0 0 0 0 0 0 0 0 0 0 0 0 0 0 0 0 0 0 0 0 0 0 0 0 0 0 0 0 0 0 0 0 0 0 0 0 0 0 0 0 0 0 0 0 0 0 0 0 0 0 0 0 0 0 0 0 0.0000305194 0.0002136361 0.0007324666 0.0021974 0.005920772 0.01324544 0.02359153 0.03659281 0.04996032 0.06366356 0.0764512 0.08936092 0.1011414 0.1124947 0.1221083 0.1308674 0.1380394 0.1443875 0.1507355 0.1574498 0.1641946 0.1712446 0.1759751 0.1839101 0.1905023 0.1990783 0.2067387 0.2114082 0.2137887 0.2144296 0.2146737 0.2169627 0.2193432 0.2253861 0.2326497 0.2405542 0.2462614 0.2516328 0.2555698 0.2604834 0.2642983 0.2673198 0.2714094 0.2749496 0.2812061 0.2881951 0.2930171 0.2968321 0.2983886 0.2996094 0.3004639 0.3015321 0.3035769 0.304584 0.3057438 0.3060184 0.3075749 0.3083074 0.3086736 0.3110541 0.314747 0.3173717 0.3178905 0.3180431 0.3174632 0.3188061 0.3231704 0.3287859 0.3353171 0.3418177 0.3466703 0.351706 0.3547885 0.3586645 0.36193 0.3651651 0.3656534 0.3636086 0.3597021 0.3553379 0.3519197 0.3498749 0.3491119 0.3498443 0.3501801 0.3506073 0.3516755 0.3524995 0.3519197 0.3504547 0.3481658 0.347708 0.3477995 0.3482879 0.3481658 0.3467619 0.3438625 0.3402918 0.3382165 0.3411463 0.3499359 0.3614722 0.3723372 0.3802112 0.3864677 0.3921748 0.3984923 0.4046878 0.4177501 0.427028 0.4322774 0.4307819 0.4274553 0.4203443 0.4170176 0.4096625 0.4076482 0.4056034 0.4048709 0.4046878 0.4043216 0.4014832 0.3984008 0.3918086 0.3888787 0.3847586 0.3832021 0.3803638 0.379967 0.3770066 0.3759385 0.3734969 0.3701398 0.3661112 0.3598547 0.3563145 0.3529879 0.3504853 0.3512177 0.3519197 0.3527742 0.3516755 0.3475859 0.3419398 0.3324483 0.3244216 0.3167613 0.3121528 0.3057743 0.2986633 0.2922541 0.2834951 0.2761094 0.266862 0.2578282 0.2469328 0.2374107 0.2288958 0.221327 0.2161387 0.2099432 0.2019777 0.1945614 0.1886712 0.1860465 0.1842764 0.1829335 0.1814686 0.1786608 0.1753647 0.1708784 0.1666361 0.1616004 0.1574193 0.152292 0.1474699 0.1411219 0.1360862 0.1277849 0.1167369 0.102759 0.08746871 0.07678691 0.06842458 0.063572 0.05975707 0.05502655 0.04858695 0.04217787 0.03702008 0.03503632 0.03424281 0.03366295 0.03354087 0.03222853 0.0293597 0.0216688 0.01364219 0.005218824 0.004059086 0 0 0 0 0 0 0 0 0 0 0 0 0.0000305194 0.0003967527 0.001983764 0.006592199 0.01464933 0.02517854 0.03448697 0.04431423 0.0535311 0.06518953 0.07697003 0.0919856 0.105231 0.1168895 0.1258011 0.1310505 0.1360557 0.141244 0.1451199 0.1502167 0.1580907 0.1710309 0.1865959 0.2023134 0.21504 0.2250198 0.2353659 0.2445218 0.2550204 0.2642983 0.2735152 0.2830983 0.292834 0.3011353 0.3075444 0.3118477 0.3161814 0.3198437 0.3243301 0.3277788 0.3322041 0.3373924 0.3413905 0.3458158 0.3487151 0.3522554 0.3562229 0.3612281 0.3654398 0.3691021 0.3716047 0.375206 0.3793261 0.383782 0.3879326 0.3908625 0.3936397 0.3960813 0.3981261 0.3992553 0.4000793 0.4005066 0.4005371 0.3999878 0.3993164 0.3994079 0.3988586 0.3977599 0.3959287 0.3937618 0.3919002 0.3900079 0.3891229 0.3890313 0.3905573 0.3921138 0.3953488 0.398767 0.4078008 0.421443 0.4377403 0.4512604 0.4594397 0.4656656 0.4704877 0.4763474 0.4789416 0.4812611 0.480376 0.4783312 0.4732039 0.4671001 0.4595617 0.4522066 0.4439968 0.4363975 0.4292559 0.4220228 0.4148813 0.4062748 0.3997131 0.3931514 0.3880547 0.3803638 0.3731612 0.3648904 0.3551852 0.3477995 0.3411463 0.3342184 0.3298236 0.3240249 0.3174632 0.3090704 0.3014405 0.2949704 0.2881951 0.2822133 0.2740951 0.2658548 0.2570652 0.2500763 0.2463834 0.2434231 0.240127 0.2382042 0.2349081
0 0 0 0 0 0 0 0 0 0 0 0 0 0 0 0 0 0 0 0 0 0 0 0 0 0 0 0 0 0 0 0 0 0 0 0 0 0 0 0 0 0 0 0 0 0 0 0 0 0 0 0 0 0 0 0 0 0 0 0 0 0 0 0 0 0 0 0 0 0 0 0 0 0 0 0 0 0 0 0 0 0 0 0 0 0 0 0 0 0 0 0 0 0 0 0 0 0 0 0 0 0 0 0 0 0 0 0 0 0 0 0 0 0 0 0 0 0 0 0 0 0 0 0 0 0 0 0 0 0 0 0 0 0 0 0 0 0 0 0 0 0 0 0 0 0 0 0 0 0 0 0 0 0 0 0 0 0 0 0 0 0 0 0 0 0 0 0 0 0 0 0 0 0 0 0.0000305194 0.0001525972 0.0007019471 0.002502594 0.007019471 0.01452725 0.02551425 0.0381493 0.0521272 0.0657694 0.07941158 0.09094793 0.1013245 0.1100531 0.1185986 0.1270829 0.1352011 0.1432888 0.1513459 0.1592199 0.167155 0.1727706 0.1809803 0.1878166 0.1966368 0.2045108 0.2093328 0.2117134 0.2123238 0.2124153 0.2144906 0.2164744 0.2218458 0.228377 0.2353049 0.2400354 0.2445523 0.2477263 0.251999 0.2553256 0.2578282 0.2615516 0.2650308 0.2718062 0.2798938 0.2858756 0.2911555 0.2939022 0.2960081 0.2971373 0.2976256 0.2986633 0.2985106 0.2989684 0.2984191 0.2993042 0.2996704 0.2995483 0.3018067 0.3055301 0.3090093 0.3106879 0.3122444 0.3126106 0.3149911 0.3195691 0.3250626 0.3315937 0.3384606 0.3437405 0.3491729 0.3527132 0.3562229 0.3588781 0.3611366 0.3612891 0.3589391 0.3552158 0.351645 0.3497528 0.3489593 0.3486236 0.349295 0.3490508 0.3491729 0.3497833 0.3506379 0.3497223 0.3485931 0.3465788 0.3469145 0.3474028 0.3481353 0.3480742 0.3466398 0.343832 0.3408106 0.3396509 0.3442288 0.3547274 0.3673625 0.3782885 0.3860404 0.3925411 0.3987365 0.405054 0.4106086 0.4219923 0.4299884 0.434078 0.4320027 0.4283709 0.4208326 0.4170176 0.4096319 0.4077397 0.4060612 0.4057865 0.4061222 0.4059696 0.4032534 0.4001404 0.3937008 0.3912287 0.3876885 0.3864677 0.3836294 0.3825917 0.3794177 0.3784411 0.3763047 0.3731002 0.3691326 0.3633645 0.3610755 0.3591833 0.3571385 0.3577184 0.3573827 0.3574742 0.3560398 0.3522249 0.3477995 0.3393762 0.3318379 0.3239639 0.3188976 0.3124275 0.3051029 0.2993347 0.291247 0.2842886 0.2750107 0.2658243 0.2549899 0.2451932 0.2364952 0.2285601 0.2236159 0.217451 0.2096686 0.2018861 0.195416 0.1912959 0.1881218 0.1859244 0.1841848 0.1817433 0.1785387 0.174327 0.1702374 0.1652933 0.1611121 0.1559543 0.1516816 0.1465544 0.1427394 0.1363914 0.1273881 0.115394 0.1001038 0.08694988 0.07510834 0.06726485 0.06192394 0.05679668 0.050235 0.04330709 0.03759995 0.03540255 0.03439541 0.03369346 0.03363242 0.03241165 0.0296649 0.02206556 0.01403894 0.005493499 0.004211683 0 0 0 0 0 0 0 0 0 0 0 0 0.0000915583 0.000762986 0.003174022 0.009247391 0.01809803 0.02874931 0.03747787 0.04764085 0.05804798 0.07181224 0.0853934 0.1009278 0.1126167 0.121681 0.128731 0.1329732 0.1377953 0.1432583 0.1479888 0.1541232 0.1637673 0.1786608 0.1949277 0.2094854 0.2201062 0.2288042 0.2383263 0.2474822 0.2574925 0.266038 0.2743393 0.2832509 0.2929256 0.3016542 0.3087041 0.3135567 0.3181957 0.3219801 0.3266496 0.3304035 0.3352561 0.340719 0.3453885 0.3504853 0.3541476 0.3585729 0.363456 0.3690716 0.3734359 0.3771287 0.3795092 0.3833242 0.3875359 0.3915949 0.3950742 0.3973631 0.3998657 0.4023988 0.4044741 0.4060001 0.4067936 0.407343 0.4072209 0.4069462 0.4065495 0.4064274 0.4052371 0.4035891 0.4015443 0.3992248 0.3970579 0.3949826 0.3941891 0.394006 0.3951962 0.3958677 0.3997131 0.4046573 0.4155832 0.4298663 0.4454007 0.4571202 0.4651163 0.472563 0.4794604 0.485961 0.4888909 0.4905695 0.4886468 0.4848624 0.4784228 0.4717085 0.463865 0.4556552 0.4472624 0.4391747 0.4322774 0.4249527 0.4179027 0.4084722 0.4012696 0.3942806 0.3894281 0.3818287 0.3749008 0.3666911 0.3569859 0.3489898 0.341482 0.3340658 0.3293963 0.3236892 0.3167918 0.3080022 0.3001282 0.293658 0.2869743 0.2807483 0.2728743 0.2646036 0.2561191 0.2492828 0.2458036 0.2427821 0.2396692 0.2377159 0.2345114
0 0 0 0 0 0 0 0 0 0 0 0 0 0 0 0 0 0 0 0 0 0 0 0 0 0 0 0 0 0 0 0 0 0 0 0 0 0 0 0 0 0 0 0 0 0 0 0 0 0 0 0 0 0 0 0 0 0 0 0 0 0 0 0 0 0 0 0 0 0 0 0 0 0 0 0 0 0 0 0 0 0 0 0 0 0 0 0 0 0 0 0 0 0 0 0 0 0 0 0 0 0 0 0 0 0 0 0 0 0 0 0 0 0 0 0 0 0 0 0 0 0 0 0 0 0 0 0 0 0 0 0 0 0 0 0 0 0 0 0 0 0 0 0 0 0 0 0 0 0 0 0 0 0 0 0 0 0 0 0 0 0 0 0 0 0 0 0 0 0 0 0 0 0 0 0 0 0.0001220778 0.000762986 0.003174022 0.007935055 0.01605323 0.02670451 0.0395532 0.05350058 0.06842458 0.08112067 0.09204663 0.1000122 0.107581 0.1155771 0.12397 0.1327596 0.1417323 0.1508576 0.1600745 0.1670939 0.1758835 0.1831166 0.1923946 0.2004822 0.2057316 0.2083562 0.2090887 0.2091803 0.2112556 0.2130562 0.218275 0.22444 0.2308185 0.2348471 0.238662 0.2411951 0.2447659 0.2475737 0.2494659 0.252701 0.2556919 0.2623756 0.2706159 0.2775438 0.2838918 0.2876152 0.2902399 0.2913691 0.2913081 0.2917659 0.2913691 0.2916438 0.2908808 0.2907892 0.2902704 0.2899042 0.2926814 0.297534 0.302173 0.3051944 0.307758 0.3084295 0.3107184 0.314808 0.3196912 0.3263139 0.333547 0.3397729 0.3457547 0.3497528 0.3532015 0.3554904 0.3572911 0.3569859 0.3548495 0.3518892 0.3494476 0.348532 0.3483794 0.3478606 0.3479827 0.3470366 0.3468534 0.3473112 0.348532 0.3478301 0.3472807 0.3454801 0.3463651 0.3470366 0.3479522 0.347769 0.3463651 0.3437099 0.341482 0.3411768 0.3476775 0.3600684 0.3733748 0.3841787 0.3917781 0.3984923 0.4047183 0.4102423 0.4146982 0.4246475 0.431728 0.4352377 0.4325826 0.4286761 0.4208631 0.4166209 0.4095709 0.4078618 0.4068547 0.4073735 0.4082586 0.4082891 0.4056644 0.402704 0.3964475 0.3942196 0.3905878 0.3889397 0.3855826 0.3839346 0.3809742 0.3805774 0.3788378 0.3758164 0.3723677 0.3672709 0.365867 0.3640359 0.3615943 0.3615028 0.3603125 0.3604041 0.3594275 0.3566807 0.3536898 0.3462431 0.3391931 0.3310139 0.3250015 0.3180431 0.3106879 0.3056522 0.2984496 0.2921016 0.283312 0.2746444 0.264573 0.2550204 0.2462308 0.2377159 0.2326497 0.2261796 0.2186107 0.2107673 0.2036867 0.1988036 0.193951 0.1905329 0.1877556 0.1850394 0.1817127 0.1776232 0.173442 0.168803 0.1644693 0.1591284 0.1547641 0.1502472 0.1472868 0.1423122 0.1348959 0.1248245 0.1111823 0.09812 0.08456937 0.07416224 0.06668498 0.06003174 0.05240188 0.04461942 0.03817982 0.03586034 0.03451749 0.03369346 0.03366295 0.03253372 0.02987853 0.02230971 0.0142831 0.005585058 0.004242202 0 0 0 0 0 0 0 0 0 0 0 0.0000305194 0.0001831166 0.001312336 0.004669474 0.0120857 0.02133309 0.03189281 0.04056033 0.0521272 0.06457914 0.07996093 0.0938778 0.1079473 0.1173167 0.1245804 0.131081 0.1356589 0.1408472 0.1466764 0.1516206 0.1583349 0.1691998 0.1851309 0.2012147 0.2140634 0.2229445 0.2309101 0.240127 0.2487029 0.2580419 0.2657633 0.2737289 0.2824269 0.2924373 0.3018678 0.3096502 0.3148386 0.3196301 0.3234755 0.3285113 0.3324788 0.3378807 0.3439236 0.3494476 0.3553073 0.3597021 0.3646463 0.3698956 0.3757248 0.3800281 0.3838125 0.386132 0.3899164 0.3940975 0.3976378 0.4005371 0.4023073 0.4045047 0.4068547 0.4086858 0.410456 0.4112495 0.4117988 0.4114326 0.4114631 0.4115241 0.4114326 0.410456 0.4087164 0.4068852 0.4048404 0.4027345 0.4004761 0.3996826 0.39953 0.4004456 0.4004456 0.4044741 0.410456 0.4229689 0.438015 0.4528475 0.463102 0.4718916 0.4805896 0.4891656 0.4957883 0.4987792 0.4991149 0.4953915 0.4895013 0.4818104 0.4747299 0.4672832 0.4591955 0.4508332 0.441952 0.4350851 0.4278215 0.4211378 0.4108832 0.4028871 0.3953488 0.3904047 0.3829885 0.3763352 0.3684307 0.3586339 0.3500275 0.3416957 0.3336996 0.3287249 0.3231093 0.3159373 0.3069035 0.2986938 0.2921626 0.285662 0.2792529 0.2715009 0.2632302 0.2551425 0.2485503 0.2452542 0.2421412 0.2391809 0.237075 0.2340841
0 0 0 0 0 0 0 0 0 0 0 0 0 0 0 0 0 0 0 0 0 0 0 0 0 0 0 0 0 0 0 0 0 0 0 0 0 0 0 0 0 0 0 0 0 0 0 0 0 0 0 0 0 0 0 0 0 0 0 0 0 0 0 0 0 0 0 0 0 0 0 0 0 0 0 0 0 0 0 0 0 0 0 0 0 0 0 0 0 0 0 0 0 0 0 0 0 0 0 0 0 0 0 0 0 0 0 0 0 0 0 0 0 0 0 0 0 0 0 0 0 0 0 0 0 0 0 0 0 0 0 0 0 0 0 0 0 0 0 0 0 0 0 0 0 0 0 0 0 0 0 0 0 0 0 0 0 0 0 0 0 0 0 0 0 0 0 0 0 0 0 0 0 0 0 0 0 0 0.0002441555 0.001525972 0.00436428 0.009918818 0.01779283 0.02765061 0.03998047 0.05456876 0.06872978 0.08142587 0.0907343 0.09851675 0.1058414 0.1137154 0.1221388 0.1313557 0.1409388 0.1511323 0.1592199 0.1687115 0.176677 0.1866874 0.1955381 0.2015504 0.2045108 0.2053348 0.2055484 0.2076543 0.2094854 0.2147653 0.2208387 0.2270952 0.2309406 0.2345114 0.2367393 0.2400659 0.242599 0.2442776 0.2472075 0.2497406 0.255814 0.2632607 0.2689984 0.2744918 0.2775743 0.2803211 0.2816029 0.281847 0.2825185 0.2819386 0.2819691 0.2803821 0.2794665 0.278612 0.2791919 0.2841055 0.2908808 0.2966184 0.2998535 0.302173 0.3031801 0.3054996 0.3096502 0.3141061 0.321034 0.3287859 0.3358054 0.3420619 0.346182 0.3497833 0.3519807 0.3533541 0.3527742 0.3514009 0.3495392 0.3479827 0.3471281 0.3466703 0.3456632 0.345419 0.3443814 0.3443508 0.3450833 0.3468534 0.3466703 0.3463956 0.3446255 0.3455716 0.3463346 0.3474333 0.3476775 0.3462431 0.3435574 0.3419703 0.3432522 0.3518892 0.3655924 0.3787158 0.389306 0.3973936 0.4047183 0.4103949 0.4142404 0.4169566 0.4257462 0.4324605 0.435665 0.4327657 0.4284319 0.4204969 0.4162546 0.4097845 0.4089605 0.4088079 0.4098761 0.410517 0.4103034 0.4075871 0.4048404 0.3988891 0.3967833 0.3928157 0.3904657 0.3865592 0.3848501 0.3825612 0.3825612 0.3811878 0.3784411 0.3757248 0.3712995 0.3701398 0.368156 0.3651956 0.3648904 0.3635476 0.364219 0.3640359 0.3623878 0.3605567 0.3538729 0.3469755 0.3378502 0.3309528 0.3232009 0.3160593 0.311634 0.3051334 0.2990905 0.2907587 0.2820607 0.2725996 0.2639627 0.2564549 0.2485808 0.243301 0.2361289 0.2285906 0.2211439 0.2143075 0.2089666 0.2028017 0.1979796 0.1934932 0.1899835 0.1858024 0.1814381 0.1769212 0.1723738 0.1675212 0.1621193 0.1572972 0.1530855 0.150705 0.1467985 0.1406946 0.1323018 0.1204908 0.1080693 0.09409144 0.08215833 0.07327718 0.06512849 0.05600318 0.04660319 0.03918696 0.03644021 0.03460905 0.03369346 0.03369346 0.03262528 0.03000061 0.02243179 0.01434414 0.005585058 0.004120125 0 0 0 0 0 0 0 0 0 0 0 0.0000610389 0.0003357138 0.002105841 0.006470121 0.01492401 0.02438503 0.0348532 0.04422267 0.05820058 0.07294147 0.08868949 0.1010499 0.1128914 0.1205213 0.1273576 0.1339193 0.1387414 0.1439907 0.1495453 0.154581 0.1620277 0.1740524 0.1903803 0.2055179 0.2165354 0.224562 0.2324666 0.2414088 0.2493438 0.2578282 0.2649087 0.2727217 0.2820302 0.2925288 0.3023561 0.3105353 0.3161509 0.3211256 0.3253677 0.3309223 0.3355612 0.3415736 0.3479216 0.3538729 0.3598242 0.364219 0.3690411 0.3741378 0.379845 0.3838735 0.387719 0.3900995 0.3944333 0.3991332 0.4029177 0.4058475 0.4076482 0.4093572 0.4114326 0.4127144 0.4144235 0.4153391 0.4159495 0.4157358 0.4157663 0.4158274 0.4154612 0.414393 0.4127449 0.4110053 0.4091741 0.4074956 0.405817 0.4056034 0.4055729 0.4065189 0.405878 0.4099982 0.4167124 0.4302936 0.4459195 0.4602026 0.4698468 0.4794909 0.4889214 0.4985351 0.5045779 0.5072026 0.5057377 0.5003357 0.4933468 0.4852896 0.4776903 0.4704572 0.4624611 0.454404 0.4449124 0.4378014 0.4303546 0.4240676 0.4135079 0.4048709 0.3964781 0.3911982 0.383843 0.3776475 0.3698651 0.3600073 0.3509125 0.3419398 0.3333944 0.328023 0.3222548 0.314808 0.3054996 0.2972899 0.2908503 0.2842276 0.2775743 0.2700055 0.2617347 0.2540133 0.2478179 0.2447354 0.2414088 0.2387231 0.2364646 0.2336263
0 0 0 0 0 0 0 0 0 0 0 0 0 0 0 0 0 0 0 0 0 0 0 0 0 0 0 0 0 0 0 0 0 0 0 0 0 0 0 0 0 0 0 0 0 0 0 0 0 0 0 0 0 0 0 0 0 0 0 0 0 0 0 0 0 0 0 0 0 0 0 0 0 0 0 0 0 0 0 0 0 0 0 0 0 0 0 0 0 0 0 0 0 0 0 0 0 0 0 0 0 0 0 0 0 0 0 0 0 0 0 0 0 0 0 0 0 0 0 0 0 0 0 0 0 0 0 0 0 0 0 0 0 0 0 0 0 0 0 0 0 0 0 0 0 0 0 0 0 0 0 0 0 0 0 0 0 0 0 0 0 0 0 0 0 0 0 0 0 0 0 0 0 0 0 0 0 0 0.0000915583 0.0007019471 0.002441555 0.006225966 0.01211622 0.01934933 0.02929866 0.04178111 0.05517915 0.06811939 0.0786486 0.08725508 0.09540378 0.1032778 0.1117012 0.1208265 0.1304706 0.1409693 0.1499725 0.1600134 0.168742 0.1794848 0.1892511 0.1963621 0.2000855 0.2016419 0.2023134 0.2047244 0.2068608 0.2122932 0.2185497 0.2248062 0.2287127 0.2322224 0.2343893 0.2374718 0.2396692 0.2408289 0.2432094 0.2445218 0.2490081 0.254349 0.2578893 0.2612769 0.2630166 0.2650003 0.2664042 0.2667399 0.267625 0.2672587 0.2675334 0.2664347 0.2664347 0.2667094 0.2689068 0.2751327 0.2826711 0.2885003 0.2916133 0.2939633 0.2959165 0.2991211 0.3043399 0.3088262 0.3161204 0.3240249 0.3314106 0.3380333 0.3426418 0.3467008 0.3486541 0.3493255 0.348532 0.3480132 0.3471281 0.3460905 0.3450223 0.3443203 0.3434047 0.343069 0.3423366 0.3424892 0.3435879 0.345358 0.3453275 0.3449002 0.3432827 0.3444424 0.3458768 0.3475249 0.347769 0.3460599 0.3436794 0.3434658 0.346121 0.3563755 0.3708417 0.3840872 0.3951047 0.4033754 0.4101813 0.4137826 0.4160105 0.4177501 0.4260209 0.4327657 0.4357566 0.4323689 0.4275469 0.4201306 0.4160105 0.410578 0.4105475 0.4110664 0.4123176 0.4127754 0.4123787 0.4097845 0.4069767 0.4009339 0.3982482 0.3935177 0.3906488 0.387017 0.3858573 0.384545 0.3849417 0.3841177 0.3820118 0.3800281 0.3756943 0.374382 0.372093 0.3695294 0.3696515 0.3691937 0.3706281 0.3710248 0.3698651 0.3682171 0.361808 0.354758 0.3447476 0.3364463 0.3280535 0.3211561 0.317158 0.3109626 0.3049808 0.2965269 0.2877068 0.2783983 0.2701581 0.2639932 0.2571263 0.2521821 0.2449795 0.2375633 0.2304828 0.2239211 0.2189465 0.2129647 0.2076848 0.2024354 0.1974303 0.192242 0.1870231 0.1817433 0.1768907 0.1713667 0.165568 0.160044 0.1554355 0.1531466 0.150003 0.1449063 0.1378258 0.127968 0.1166758 0.1030947 0.09039858 0.08118171 0.07214796 0.06155771 0.05011292 0.04077397 0.0372032 0.03479216 0.03369346 0.03369346 0.0326558 0.03003113 0.02234023 0.01419154 0.00543246 0.003906488 0 0 0 0 0 0 0 0 0 0 0 0.0001220778 0.0006103888 0.003112983 0.008453885 0.01779283 0.02734542 0.03833242 0.04986877 0.06628823 0.08203626 0.09583104 0.1057499 0.1158518 0.1234511 0.1306232 0.1372154 0.1418238 0.1463407 0.1512849 0.1564427 0.1647439 0.1780199 0.1942562 0.2083867 0.2182445 0.2260575 0.2340231 0.2424159 0.2493743 0.2569126 0.2635964 0.2718062 0.2817555 0.2924678 0.3026003 0.3112678 0.3176158 0.323323 0.3282366 0.3344931 0.3397424 0.3460905 0.3521943 0.3578099 0.3632424 0.3671184 0.3714826 0.3764573 0.3821339 0.3862235 0.3903436 0.3929988 0.3979125 0.4033144 0.4074956 0.4107001 0.4127754 0.4145761 0.4164378 0.4175059 0.4186046 0.419154 0.4193676 0.4194897 0.419917 0.4203443 0.4196728 0.4185131 0.4168345 0.4150034 0.4129891 0.41128 0.4101813 0.4106391 0.4110358 0.4122566 0.4117378 0.4165293 0.4240981 0.438015 0.4538851 0.4681987 0.4782091 0.4884026 0.4977416 0.5073552 0.5123909 0.5138558 0.5104987 0.5042727 0.4967039 0.4885247 0.480437 0.4732955 0.465452 0.4580358 0.448178 0.4405481 0.4327351 0.4266008 0.41598 0.4069767 0.3977599 0.3917781 0.384606 0.3787158 0.3710554 0.361106 0.3516145 0.3420314 0.3330281 0.3271074 0.3211866 0.3132516 0.3037905 0.2957029 0.2892632 0.282549 0.2757432 0.2682354 0.2601782 0.2529451 0.2470854 0.2442471 0.2407984 0.2381737 0.2357627 0.233138
0 0 0 0 0 0 0 0 0 0 0 0 0 0 0 0 0 0 0 0 0 0 0 0 0 0 0 0 0 0 0 0 0 0 0 0 0 0 0 0 0 0 0 0 0 0 0 0 0 0 0 0 0 0 0 0 0 0 0 0 0 0 0 0 0 0 0 0 0 0 0 0 0 0 0 0 0 0 0 0 0 0 0 0 0 0 0 0 0 0 0 0 0 0 0 0 0 0 0 0 0 0 0 0 0 0 0 0 0 0 0 0 0 0 0 0 0 0 0 0 0 0 0 0 0 0 0 0 0 0 0 0 0 0 0 0 0 0 0 0 0 0 0 0 0 0 0 0 0 0 0 0 0 0 0 0 0 0 0 0 0 0 0 0 0 0 0 0 0 0 0 0 0 0 0 0 0 0 0.0000305194 0.0003051944 0.001342855 0.003906488 0.008423366 0.01373375 0.02151621 0.03152658 0.04330709 0.05527071 0.06601355 0.07507782 0.08368431 0.09174144 0.09998169 0.109168 0.1187206 0.129555 0.1393213 0.1498199 0.1587011 0.1699628 0.1802173 0.188366 0.1927913 0.1950803 0.1963621 0.1990783 0.2016419 0.2074406 0.2139108 0.2204419 0.224562 0.2280107 0.2300555 0.2327718 0.2345419 0.2351828 0.2367088 0.2374107 0.240951 0.2453458 0.2476347 0.2499237 0.250412 0.2516023 0.2523042 0.2520906 0.252762 0.2522737 0.2530672 0.2526704 0.2540133 0.2557529 0.2594152 0.2663431 0.2740035 0.2798328 0.2830983 0.2860587 0.2895074 0.294299 0.3009522 0.3056217 0.3127938 0.32021 0.3274125 0.3341268 0.3389184 0.3429469 0.3447171 0.3449917 0.3446561 0.3449612 0.3449002 0.3440457 0.3427333 0.3417872 0.3410242 0.3408716 0.3405664 0.3409937 0.3422145 0.3436184 0.3434963 0.3428859 0.341543 0.3434047 0.3458463 0.3481353 0.3481047 0.3462125 0.3443814 0.3454495 0.3492645 0.3607093 0.3757859 0.3894281 0.4005982 0.4085943 0.4142709 0.4161631 0.4169566 0.4179943 0.4258683 0.4325826 0.4352072 0.4315144 0.4265092 0.4198865 0.4164378 0.4125008 0.4130196 0.413691 0.4146066 0.414515 0.4139657 0.4112495 0.4081975 0.4017884 0.3985534 0.3936397 0.3913508 0.388604 0.3882378 0.3876885 0.3882683 0.3881463 0.3862235 0.3844534 0.3802417 0.3792651 0.3778002 0.3762131 0.3770982 0.376793 0.3781359 0.3781359 0.3768846 0.3753586 0.3691937 0.3622352 0.3511567 0.3419398 0.3328755 0.326558 0.322621 0.3165171 0.3102606 0.3015931 0.2925288 0.2829152 0.2749496 0.2695782 0.2635659 0.2595679 0.252701 0.2459257 0.2389977 0.2325887 0.2275835 0.2215101 0.2164439 0.2112861 0.2058231 0.1999939 0.1941342 0.1881829 0.1829335 0.176677 0.1701154 0.1634316 0.1582128 0.1557407 0.1529634 0.1487518 0.1425868 0.1338888 0.1235427 0.1101752 0.09692974 0.08713301 0.078496 0.06814991 0.05594213 0.04468046 0.03930904 0.03543307 0.03387658 0.03372398 0.0326558 0.02997009 0.02209608 0.01382531 0.005066227 0.003570775 0 0 0 0 0 0 0 0 0 0 0 0.0002136361 0.0009461027 0.004303241 0.01062077 0.02078374 0.03088567 0.04345968 0.05737655 0.07483367 0.089483 0.1009888 0.1095953 0.1194531 0.1269304 0.1335226 0.1393823 0.1431667 0.1469816 0.1516816 0.1575108 0.1673076 0.1816822 0.1976134 0.2105841 0.219801 0.227553 0.2352439 0.2426906 0.248764 0.2554782 0.2622841 0.2708906 0.2814503 0.2923763 0.3028749 0.312336 0.3199658 0.3267411 0.3324178 0.3388268 0.3438015 0.3495086 0.3547274 0.3598547 0.3648599 0.3686443 0.3730391 0.3780748 0.383904 0.3880242 0.3921748 0.39483 0.4001709 0.4060307 0.410517 0.4141793 0.4168651 0.4190624 0.4208936 0.4216871 0.4225111 0.4227553 0.4227248 0.4229689 0.4234267 0.4238235 0.4229994 0.4215345 0.419917 0.4181774 0.4164378 0.4151254 0.4142709 0.415217 0.4156137 0.416804 0.4164073 0.4225722 0.431789 0.4456754 0.4614845 0.4762253 0.4881585 0.4993591 0.5079961 0.5154734 0.5183422 0.5181591 0.5140389 0.5076909 0.5000916 0.4919734 0.4833059 0.4759812 0.4680461 0.4610877 0.4513825 0.4433254 0.4350546 0.4288897 0.4184826 0.4092047 0.3991943 0.3925411 0.3851859 0.3794482 0.3717573 0.3618385 0.3521333 0.3420619 0.3325703 0.3261918 0.3196912 0.3112678 0.3018067 0.2939022 0.2874626 0.2805347 0.2735152 0.2661295 0.2584081 0.2517549 0.2462308 0.2436062 0.2400964 0.2376244 0.2351523 0.2326192
0 0 0 0 0 0 0 0 0 0 0 0 0 0 0 0 0 0 0 0 0 0 0 0 0 0 0 0 0 0 0 0 0 0 0 0 0 0 0 0 0 0 0 0 0 0 0 0 0 0 0 0 0 0 0 0 0 0 0 0 0 0 0 0 0 0 0 0 0 0 0 0 0 0 0 0 0 0 0 0 0 0 0 0 0 0 0 0 0 0 0 0 0 0 0 0 0 0 0 0 0 0 0 0 0 0 0 0 0 0 0 0 0 0 0 0 0 0 0 0 0 0 0 0 0 0 0 0 0 0 0 0 0 0 0 0 0 0 0 0 0 0 0 0 0 0 0 0 0 0 0 0 0 0 0 0 0 0 0 0 0 0 0 0 0 0 0 0 0 0 0 0 0 0 0 0 0 0 0 0.0001220778 0.0007019471 0.002319477 0.005859733 0.01010193 0.0163279 0.02423244 0.03427333 0.04483306 0.05453824 0.06268694 0.07062198 0.07828236 0.08627846 0.09586156 0.1060856 0.117683 0.1286089 0.1391686 0.1481719 0.1596777 0.17039 0.1795459 0.1846426 0.1874199 0.1890069 0.1916926 0.1943478 0.200238 0.2067387 0.2133614 0.2175426 0.2207776 0.2225783 0.2248672 0.2262711 0.2265153 0.227614 0.2278581 0.2313068 0.235427 0.2376854 0.2393335 0.2391503 0.2395166 0.239364 0.2384789 0.2388757 0.2390283 0.2405847 0.2413172 0.2437283 0.2467192 0.2515412 0.2586218 0.2660075 0.2717451 0.275499 0.2793139 0.2841055 0.2901178 0.2978087 0.3026613 0.3093145 0.3157847 0.3223463 0.3286028 0.3332112 0.3374535 0.3398035 0.3405054 0.3411768 0.3421229 0.3427333 0.3419398 0.3404444 0.3395288 0.3392236 0.3394677 0.3391626 0.3391626 0.3399866 0.3408106 0.340658 0.3401697 0.3400781 0.3434047 0.3470976 0.3491424 0.3482879 0.3463346 0.3456632 0.3480742 0.3522554 0.3648599 0.3804248 0.3950131 0.4058475 0.4130196 0.4170176 0.4172313 0.4171397 0.4179027 0.425502 0.4320332 0.4342916 0.4305378 0.4259598 0.420741 0.4179332 0.4149118 0.4149118 0.4151865 0.4156137 0.4155222 0.4151559 0.4124703 0.408991 0.4020326 0.398706 0.3940975 0.3928462 0.3908625 0.3913508 0.3912592 0.3923885 0.3924495 0.390954 0.3892755 0.3856437 0.3851859 0.384545 0.3836599 0.3850332 0.3847586 0.3856131 0.3850638 0.3833852 0.3819813 0.3758164 0.3689495 0.3572606 0.3474944 0.338308 0.3325703 0.3288164 0.3224989 0.3161814 0.3075444 0.2985412 0.2887139 0.2805957 0.2751938 0.2693341 0.266038 0.2603003 0.254349 0.2480315 0.2416224 0.2366477 0.230788 0.2255387 0.2204419 0.2143991 0.2082647 0.2015504 0.1954465 0.1901666 0.1834829 0.1764329 0.1684978 0.1623329 0.1587316 0.1560154 0.1521394 0.146829 0.1390466 0.1297381 0.1170115 0.1033083 0.09213819 0.08325703 0.07361289 0.06213758 0.05005188 0.04297137 0.03711164 0.03442593 0.03393762 0.0326558 0.02972594 0.02163828 0.01324544 0.004638955 0.003112983 0 0 0 0 0 0 0 0 0 0 0 0.0003051944 0.001403894 0.005615577 0.01290972 0.0240188 0.03546359 0.04999084 0.06552524 0.08282976 0.09589209 0.1053226 0.1131661 0.1222914 0.1293414 0.1350485 0.1401148 0.1435329 0.1471037 0.1518953 0.1587621 0.1700848 0.1851004 0.2003601 0.2123238 0.2212354 0.2287737 0.2360068 0.2424464 0.248001 0.2545626 0.2615516 0.2704023 0.2814198 0.2926204 0.3037905 0.3143197 0.3230788 0.330495 0.3360801 0.3417872 0.3460905 0.3510346 0.3556125 0.3606482 0.3657145 0.3698651 0.3746566 0.3799976 0.3860404 0.3902216 0.3944027 0.3971495 0.4026735 0.4087774 0.4133553 0.4172923 0.4205884 0.4233046 0.425502 0.4265702 0.4273027 0.4271501 0.4266618 0.4266008 0.4268449 0.4269975 0.4260209 0.4245254 0.4227858 0.4209241 0.4194897 0.4186046 0.4180858 0.4191845 0.4196118 0.4207715 0.4206189 0.4279131 0.438778 0.4528475 0.4692364 0.485076 0.4994201 0.5110175 0.5181286 0.5222487 0.5226149 0.5208448 0.516511 0.5105597 0.5033571 0.4953305 0.4864799 0.4791247 0.4710065 0.4639871 0.4540988 0.4460416 0.4374046 0.4310871 0.4207105 0.411341 0.4008423 0.3932125 0.3855826 0.3797534 0.3721541 0.3624794 0.3524995 0.3419093 0.3318989 0.3250015 0.31786 0.3090093 0.2996704 0.2919795 0.2854789 0.2782457 0.2710737 0.2638406 0.2565464 0.2505646 0.2453153 0.2428737 0.2393029 0.2369835 0.2344503 0.2321004
0 0 0 0 0 0 0 0 0 0 0 0 0 0 0 0 0 0 0 0 0 0 0 0 0 0 0 0 0 0 0 0 0 0 0 0 0 0 0 0 0 0 0 0 0 0 0 0 0 0 0 0 0 0 0 0 0 0 0 0 0 0 0 0 0 0 0 0 0 0 0 0 0 0 0 0 0 0 0 0 0 0 0 0 0 0 0 0 0 0 0 0 0 0 0 0 0 0 0 0 0 0 0 0 0 0 0 0 0 0 0 0 0 0 0 0 0 0 0 0 0 0 0 0 0 0 0 0 0 0 0 0 0 0 0 0 0 0 0 0 0 0 0 0 0 0 0 0 0 0 0 0 0 0 0 0 0 0 0 0 0 0 0 0 0 0 0 0 0 0 0 0 0 0 0 0 0 0 0 0.0000610389 0.0003051944 0.001159739 0.003723372 0.007355185 0.01251297 0.01913569 0.02765061 0.03769151 0.04663371 0.05411097 0.06070317 0.06699017 0.07367393 0.08185314 0.09100898 0.1019349 0.1129524 0.1242141 0.1337667 0.1459135 0.1572362 0.1674907 0.1736556 0.1772569 0.1791186 0.1819264 0.1845816 0.1902582 0.1966673 0.2031984 0.2074712 0.2106147 0.2123848 0.2145517 0.2157419 0.2160471 0.2168406 0.2171153 0.2204419 0.2247452 0.2272172 0.22914 0.22914 0.2297504 0.2296893 0.2286211 0.2289568 0.2290179 0.2306049 0.2313984 0.233901 0.2374412 0.243362 0.251114 0.2587438 0.2646646 0.2687847 0.2733932 0.2787341 0.2852347 0.2934139 0.2991821 0.3058963 0.3117866 0.3173106 0.3227736 0.32726 0.3322041 0.3358054 0.3376366 0.339132 0.3401697 0.3408411 0.3398645 0.3380944 0.3371177 0.3366905 0.3369957 0.3366905 0.3365379 0.3371177 0.3376976 0.3381554 0.3386742 0.3402613 0.3445645 0.3483489 0.3495086 0.3481963 0.346884 0.3472807 0.3503632 0.3551547 0.3690716 0.3852164 0.4000793 0.409815 0.4158274 0.4180858 0.4173228 0.4167735 0.417628 0.4248001 0.430965 0.4330709 0.4297442 0.4259598 0.4219313 0.4194592 0.4167124 0.4161326 0.4161631 0.4168345 0.416743 0.4161631 0.4128059 0.4085638 0.4016664 0.3988891 0.3955014 0.3953488 0.3939449 0.3950131 0.3957456 0.3975767 0.3982787 0.3967833 0.3954709 0.3924495 0.3927852 0.3927547 0.3920222 0.3931209 0.3923885 0.3927547 0.3915339 0.3894586 0.3879326 0.381554 0.3745956 0.3628456 0.353171 0.3444119 0.3393457 0.335958 0.3298541 0.3234145 0.3149911 0.30611 0.2962217 0.2879204 0.2819691 0.2756211 0.272386 0.2675945 0.2627419 0.2569432 0.2506867 0.2459562 0.2398218 0.2346335 0.229262 0.2232497 0.2166575 0.209516 0.2026796 0.1973997 0.190716 0.1838796 0.1754868 0.1687115 0.1637063 0.1600745 0.1557712 0.1505829 0.1434108 0.1353232 0.1235732 0.1099615 0.09686871 0.08688885 0.07748886 0.06753952 0.05606421 0.04809864 0.04028566 0.0357993 0.03439541 0.03259476 0.02932918 0.02090582 0.01242141 0.004089605 0.002624672 0 0 0 0 0 0 0 0 0 0 0 0.0004577916 0.002014283 0.007172069 0.01547336 0.02819996 0.04141488 0.05749863 0.07318562 0.08939144 0.1006836 0.109168 0.1161875 0.1244583 0.1305317 0.1355674 0.1400842 0.1433803 0.1468901 0.152231 0.160166 0.1728011 0.1879692 0.2026796 0.2139718 0.2227004 0.2297504 0.2362205 0.2418666 0.2474822 0.2539217 0.2612464 0.270097 0.2817555 0.293597 0.3057132 0.3168528 0.3261307 0.3335775 0.3384911 0.3431606 0.3471586 0.3518892 0.3564976 0.361869 0.367332 0.3718794 0.376793 0.3822865 0.3885125 0.3927242 0.3969664 0.3996215 0.4051456 0.4113105 0.4158579 0.4198865 0.4235183 0.4265702 0.4292865 0.4307819 0.431789 0.4316975 0.4313618 0.4312092 0.4309345 0.4303241 0.4287676 0.4272417 0.4255631 0.4237624 0.4220839 0.4214735 0.4210157 0.4222975 0.4227858 0.4244339 0.4246475 0.4328877 0.4451566 0.4594702 0.4770189 0.494476 0.5113227 0.5229812 0.5281695 0.5283526 0.5263078 0.5231338 0.518861 0.5132455 0.5062259 0.4985656 0.4894403 0.4821461 0.4736312 0.4666728 0.4567234 0.4486663 0.4398462 0.4331624 0.4226332 0.4132027 0.4024293 0.394006 0.3858268 0.3796313 0.3722761 0.3628761 0.3526216 0.3416041 0.331197 0.323445 0.315632 0.3066288 0.2975645 0.2899347 0.2833425 0.2757737 0.268449 0.2615211 0.2548068 0.2494659 0.2443997 0.2421412 0.2384484 0.236251 0.2337484 0.231551
0 0 0 0 0 0 0 0 0 0 0 0 0 0 0 0 0 0 0 0 0 0 0 0 0 0 0 0 0 0 0 0 0 0 0 0 0 0 0 0 0 0 0 0 0 0 0 0 0 0 0 0 0 0 0 0 0 0 0 0 0 0 0 0 0 0 0 0 0 0 0 0 0 0 0 0 0 0 0 0 0 0 0 0 0 0 0 0 0 0 0 0 0 0 0 0 0 0 0 0 0 0 0 0 0 0 0 0 0 0 0 0 0 0 0 0 0 0 0 0 0 0 0 0 0 0 0 0 0 0 0 0 0 0 0 0 0 0 0 0 0 0 0 0 0 0 0 0 0 0 0 0 0 0 0 0 0 0 0 0 0 0 0 0 0 0 0 0 0 0 0 0 0 0 0 0 0 0 0 0 0.0000915583 0.0005188305 0.002136361 0.005035708 0.009216871 0.01495453 0.02200452 0.03137399 0.04046878 0.04797656 0.05374473 0.05874992 0.06430446 0.07117134 0.07907587 0.08862846 0.09900507 0.1098395 0.1192395 0.1313252 0.1426784 0.1537569 0.1606849 0.1651712 0.1675822 0.17039 0.1732894 0.1790576 0.1855582 0.1924556 0.1971251 0.2006958 0.2026491 0.2050601 0.2064945 0.2070744 0.2080205 0.2083257 0.2114997 0.2155588 0.2180919 0.2201978 0.2202893 0.2214185 0.2216627 0.2208081 0.2212049 0.2214185 0.2232192 0.2242874 0.2273393 0.2316731 0.2385705 0.2471464 0.2548679 0.2606055 0.2643899 0.2689068 0.2742172 0.2807483 0.2890496 0.2954587 0.3024782 0.3079717 0.3119697 0.3164561 0.321034 0.3272905 0.3325703 0.3354697 0.3371177 0.3378197 0.3380638 0.3370872 0.3350729 0.3341573 0.3337606 0.3342184 0.3339742 0.3337606 0.3340963 0.3349203 0.3363548 0.3383996 0.3412989 0.346121 0.3492645 0.3494171 0.3482879 0.3475859 0.3490203 0.3524385 0.3580236 0.3731307 0.389367 0.4041995 0.4127449 0.4176585 0.4186657 0.4169871 0.4161326 0.4171702 0.4236099 0.4292254 0.4315754 0.4295917 0.4269059 0.4233962 0.4205884 0.4175975 0.416804 0.4170176 0.4178722 0.417628 0.4164988 0.4127144 0.4082891 0.4026124 0.4009339 0.3987365 0.3991027 0.3983703 0.3998962 0.4008423 0.4027651 0.4036196 0.4025514 0.4015748 0.3991027 0.3994384 0.3992859 0.397943 0.3982482 0.3970579 0.3970884 0.3955014 0.393304 0.3916255 0.3855216 0.3787158 0.3675762 0.3582982 0.350058 0.345358 0.3419398 0.335897 0.3297931 0.321797 0.3130379 0.3035159 0.2953672 0.2890801 0.2824879 0.2792224 0.2752243 0.2711957 0.2658854 0.259873 0.2556309 0.2499847 0.2451016 0.2395471 0.2337484 0.2268815 0.2196789 0.2115913 0.2057316 0.1981322 0.19154 0.1831166 0.1764329 0.1707257 0.1661478 0.1608069 0.1549472 0.1479888 0.1407251 0.1301349 0.11692 0.1023622 0.09018495 0.07944211 0.0700116 0.06018434 0.0532259 0.04535189 0.03937008 0.03628761 0.03305256 0.02884087 0.01992919 0.01135323 0.003448697 0.002105841 0 0 0 0 0 0 0 0 0 0 0 0.0006714277 0.002838308 0.009064274 0.01904413 0.03372398 0.04861747 0.06522004 0.08017457 0.09479338 0.1045901 0.1117927 0.117683 0.1249771 0.1305927 0.1353842 0.139718 0.1431362 0.1467985 0.1527498 0.1617225 0.1754563 0.1905329 0.2046634 0.2154978 0.223738 0.2301166 0.2360068 0.2414088 0.2472075 0.2537997 0.26146 0.2705243 0.2832509 0.295886 0.3083684 0.3191418 0.3278093 0.3347983 0.3395593 0.343832 0.3480437 0.3528963 0.3577489 0.3632424 0.3689495 0.37368 0.3787158 0.3842703 0.3905573 0.3948605 0.3992553 0.4020631 0.4077397 0.4141183 0.4186657 0.4228469 0.4267228 0.4298968 0.4330098 0.4349326 0.4361838 0.4363365 0.4360007 0.4358787 0.4351462 0.4342001 0.4322774 0.4304462 0.4286761 0.4267839 0.4248306 0.4242202 0.4237624 0.4251663 0.4257157 0.4272417 0.42773 0.4368248 0.4503449 0.4654825 0.4848318 0.5041201 0.5226454 0.5337545 0.5371422 0.5341818 0.5303058 0.5260636 0.5215467 0.5159311 0.5088812 0.5014344 0.4923396 0.4850455 0.4763169 0.4691449 0.4587377 0.4510163 0.4422267 0.4354209 0.4243118 0.4149728 0.4039858 0.3947995 0.3859183 0.3793872 0.3722456 0.3629982 0.3524995 0.3409632 0.3300678 0.3215834 0.3130379 0.3040042 0.2953977 0.2879204 0.2810535 0.2732406 0.2659769 0.2593542 0.2532808 0.2484893 0.2435451 0.2412867 0.2375633 0.2354575 0.2329549 0.2309406
0 0 0 0 0 0 0 0 0 0 0 0 0 0 0 0 0 0 0 0 0 0 0 0 0 0 0 0 0 0 0 0 0 0 0 0 0 0 0 0 0 0 0 0 0 0 0 0 0 0 0 0 0 0 0 0 0 0 0 0 0 0 0 0 0 0 0 0 0 0 0 0 0 0 0 0 0 0 0 0 0 0 0 0 0 0 0 0 0 0 0 0 0 0 0 0 0 0 0 0 0 0 0 0 0 0 0 0 0 0 0 0 0 0 0 0 0 0 0 0 0 0 0 0 0 0 0 0 0 0 0 0 0 0 0 0 0 0 0 0 0 0 0 0 0 0 0 0 0 0 0 0 0 0 0 0 0 0 0 0 0 0 0 0 0 0 0 0 0 0 0 0 0 0 0 0 0 0 0 0 0.0000305194 0.0002136361 0.00106818 0.003112983 0.006439602 0.01132271 0.01699933 0.02533114 0.03467008 0.04287981 0.04919734 0.05343954 0.05786486 0.06329732 0.06992004 0.07816029 0.08719404 0.09711286 0.1058719 0.1171947 0.1279985 0.1393823 0.1471342 0.1521699 0.1548862 0.1575719 0.1605628 0.1661478 0.1726485 0.1796069 0.1844595 0.1881829 0.1902887 0.1926997 0.1942868 0.1953244 0.1965147 0.1972777 0.2006348 0.2049991 0.2082952 0.2109504 0.211927 0.2138802 0.2148874 0.2147043 0.2154367 0.2159556 0.2180614 0.2195263 0.2230666 0.2280107 0.2356711 0.2444912 0.2517854 0.2566075 0.2594763 0.2630776 0.2680523 0.2744613 0.2828847 0.2898126 0.2969542 0.3022951 0.3059269 0.3099554 0.3143808 0.3216139 0.3280535 0.3322346 0.3338522 0.3339132 0.3337301 0.3329366 0.331319 0.3309528 0.3307392 0.3314106 0.3313801 0.3315632 0.3316853 0.3330281 0.3356223 0.3393762 0.3432216 0.3473417 0.3494171 0.3488677 0.348532 0.348532 0.3504853 0.3543307 0.3611366 0.3768235 0.3931209 0.407343 0.4150949 0.4189098 0.4186657 0.4162546 0.4154001 0.4167124 0.4225722 0.4276994 0.4304767 0.4297137 0.4276689 0.4240371 0.4205884 0.4176585 0.4172618 0.4180248 0.4189404 0.4182384 0.4165904 0.4127754 0.408991 0.4046878 0.403406 0.4020936 0.4027345 0.402704 0.4046268 0.4060917 0.4082586 0.4093878 0.4085027 0.4077092 0.4051456 0.4048709 0.4041384 0.4023073 0.4021852 0.4008423 0.4008118 0.3991943 0.3967527 0.3947384 0.3885125 0.3819813 0.3717573 0.3630898 0.3550327 0.350119 0.3460294 0.339956 0.3337911 0.3260392 0.3174937 0.3085515 0.3007996 0.2942685 0.2877983 0.2845633 0.2817555 0.2789782 0.2747055 0.2689984 0.2647867 0.2596594 0.2556614 0.2507783 0.2453458 0.2383873 0.2313679 0.2226393 0.2162608 0.2078069 0.2012147 0.1927608 0.1864433 0.1802783 0.1754563 0.1689861 0.1619972 0.1542147 0.1466764 0.136605 0.1241226 0.1086492 0.09439663 0.08145639 0.07150705 0.0624733 0.05694928 0.0500824 0.04400903 0.03943112 0.03445645 0.02850516 0.01883049 0.01013245 0.002838308 0.00161753 0 0 0 0 0 0 0 0 0 0 0.0000305194 0.0009766221 0.003998047 0.01171947 0.02368309 0.04040774 0.05630837 0.07245316 0.08582067 0.09866935 0.1068486 0.1129524 0.1180797 0.1249161 0.130318 0.135079 0.1392907 0.1428615 0.146707 0.1534823 0.1634621 0.1779894 0.1929744 0.2064945 0.2165354 0.2239517 0.2299945 0.2359153 0.2414698 0.2476042 0.2544406 0.2625893 0.2721724 0.2852652 0.2978392 0.3098333 0.319447 0.3275957 0.3347678 0.3401086 0.3447171 0.349356 0.3542086 0.3592443 0.3648294 0.3709333 0.375969 0.3812794 0.387017 0.3936092 0.3981261 0.4028261 0.405817 0.4116767 0.4182384 0.4228774 0.4271501 0.4312092 0.4343832 0.4375877 0.4396631 0.4410364 0.4417384 0.4419215 0.4421351 0.4411891 0.4397546 0.4373131 0.4350851 0.4329793 0.4308429 0.4283403 0.4274248 0.4265702 0.4279741 0.4283403 0.4296222 0.4302936 0.440365 0.4551059 0.4713422 0.4929195 0.5140694 0.5327474 0.5422694 0.5438564 0.5394006 0.5342733 0.5292071 0.524263 0.5188915 0.5114753 0.5040286 0.4949033 0.4877617 0.4789416 0.4717695 0.4609046 0.4533358 0.4442105 0.4373741 0.4260514 0.4165293 0.4054202 0.3957151 0.386193 0.3789904 0.3718794 0.3628761 0.3521028 0.3401392 0.3286944 0.3191418 0.3102301 0.3012879 0.2932918 0.2855704 0.2785509 0.2704633 0.2632607 0.2571873 0.2517854 0.2473295 0.2426296 0.2404932 0.2366783 0.2346029 0.2321309 0.2302081
0 0 0 0 0 0 0 0 0 0 0 0 0 0 0 0 0 0 0 0 0 0 0 0 0 0 0 0 0 0 0 0 0 0 0 0 0 0 0 0 0 0 0 0 0 0 0 0 0 0 0 0 0 0 0 0 0 0 0 0 0 0 0 0 0 0 0 0 0 0 0 0 0 0 0 0 0 0 0 0 0 0 0 0 0 0 0 0 0 0 0 0 0 0 0 0 0 0 0 0 0 0 0 0 0 0 0 0 0 0 0 0 0 0 0 0 0 0 0 0 0 0 0 0 0 0 0 0 0 0 0 0 0 0 0 0 0 0 0 0 0 0 0 0 0 0 0 0 0 0 0 0 0 0 0 0 0 0 0 0 0 0 0 0 0 0 0 0 0 0 0 0 0 0 0 0 0 0 0 0 0 0.0000610389 0.0004272722 0.00164805 0.004089605 0.008240249 0.0128792 0.01968504 0.02853568 0.03732528 0.04507721 0.04971617 0.05365318 0.05810902 0.06387719 0.07135445 0.07968626 0.08884209 0.09668559 0.1065739 0.1156992 0.1264726 0.1344992 0.1398401 0.1424953 0.1448758 0.1475005 0.1527803 0.1588842 0.1659647 0.1712751 0.1754868 0.178142 0.1808887 0.1829335 0.1846426 0.1863212 0.1877861 0.1914485 0.19624 0.2002991 0.2037478 0.2053653 0.2081426 0.2097296 0.2102789 0.2114997 0.2125984 0.2151621 0.2172069 0.2212659 0.2265153 0.2344503 0.2429347 0.2495269 0.2537386 0.2562412 0.2592321 0.2632912 0.2688763 0.2764146 0.2833425 0.2908503 0.2968626 0.3013795 0.3051944 0.3091619 0.316273 0.3231093 0.3281145 0.3299457 0.3300678 0.3298541 0.3294269 0.3284197 0.3286333 0.3286028 0.329732 0.3294879 0.329732 0.32961 0.3318989 0.3361106 0.3411158 0.3448697 0.3476164 0.3487456 0.3483794 0.3488372 0.3492645 0.3517671 0.3562534 0.3644326 0.3799976 0.3960508 0.4094793 0.4167124 0.4193982 0.4182079 0.4155527 0.4147897 0.4163767 0.4213819 0.4259293 0.4291949 0.4297442 0.4281267 0.4238845 0.4200085 0.4178722 0.4181468 0.419154 0.4193371 0.4178722 0.4161326 0.4132943 0.4108527 0.4076482 0.406641 0.4060307 0.4072514 0.4082891 0.4101813 0.4116157 0.4132943 0.4144235 0.4135689 0.4124397 0.4094793 0.4084417 0.4071293 0.4051456 0.4048709 0.4035891 0.4037112 0.4019715 0.3992859 0.3965391 0.3902826 0.3839346 0.3745651 0.3662943 0.357993 0.3525911 0.347647 0.3415125 0.3351645 0.3279314 0.3199048 0.3120308 0.3049197 0.2991211 0.2935055 0.291247 0.2897516 0.288012 0.2847464 0.2794055 0.2751327 0.2697918 0.2656107 0.2610328 0.255936 0.2492523 0.2424464 0.2332601 0.2264848 0.2169932 0.2106757 0.2023744 0.1966368 0.1908381 0.1863212 0.1799731 0.1722822 0.1637063 0.1550693 0.144357 0.131905 0.1161875 0.1000427 0.08435573 0.07263627 0.06360251 0.05914668 0.05389733 0.04892267 0.04355124 0.03680645 0.02847464 0.01770128 0.00875908 0.002227919 0.001190258 0 0 0 0 0 0 0 0 0 0 0.0000915583 0.001495453 0.005707135 0.01544284 0.02945126 0.04730513 0.06320576 0.07825185 0.09012391 0.1012635 0.1081304 0.1133492 0.1181102 0.1245193 0.1299518 0.1347433 0.1387109 0.1424953 0.146707 0.1543368 0.1650491 0.1802173 0.1952634 0.2080205 0.2172069 0.223738 0.229903 0.2360068 0.2421718 0.2486419 0.2561191 0.2647867 0.2743087 0.2868828 0.2984496 0.3093451 0.3183788 0.3268632 0.3348898 0.341421 0.3467008 0.3515229 0.3561008 0.361106 0.3663859 0.3726424 0.3779833 0.383843 0.3899164 0.3967527 0.4015138 0.4063358 0.4093572 0.4152475 0.4218092 0.4264481 0.4307819 0.4349326 0.438076 0.4414027 0.4436306 0.4450955 0.4462858 0.4469572 0.4476286 0.4469572 0.4454312 0.4430507 0.4402735 0.4377098 0.4352683 0.4327351 0.4317585 0.4308735 0.4318806 0.4318501 0.43243 0.432552 0.4432949 0.4590429 0.4769273 0.5007935 0.5235915 0.5414759 0.5487396 0.5488921 0.5442532 0.5386987 0.5332052 0.5277116 0.5220351 0.5142831 0.5064396 0.4970701 0.4898981 0.481139 0.474089 0.4630409 0.4555637 0.4461637 0.4393579 0.4275163 0.4179027 0.4066105 0.3965391 0.3864066 0.3785937 0.3712995 0.3621742 0.3511567 0.3387963 0.3267716 0.316273 0.3072087 0.2984191 0.2908808 0.2828237 0.2756211 0.2673808 0.260636 0.2551731 0.2503815 0.2462614 0.241714 0.2395166 0.2358237 0.2338094 0.2313374 0.2293536
0 0 0 0 0 0 0 0 0 0 0 0 0 0 0 0 0 0 0 0 0 0 0 0 0 0 0 0 0 0 0 0 0 0 0 0 0 0 0 0 0 0 0 0 0 0 0 0 0 0 0 0 0 0 0 0 0 0 0 0 0 0 0 0 0 0 0 0 0 0 0 0 0 0 0 0 0 0 0 0 0 0 0 0 0 0 0 0 0 0 0 0 0 0 0 0 0 0 0 0 0 0 0 0 0 0 0 0 0 0 0 0 0 0 0 0 0 0 0 0 0 0 0 0 0 0 0 0 0 0 0 0 0 0 0 0 0 0 0 0 0 0 0 0 0 0 0 0 0 0 0 0 0 0 0 0 0 0 0 0 0 0 0 0 0 0 0 0 0 0 0 0 0 0 0 0 0 0 0 0 0 0 0.0001220778 0.000762986 0.00216688 0.005340902 0.009338949 0.01486297 0.02246231 0.03103827 0.04004151 0.04620643 0.05041812 0.05420253 0.05874992 0.06528109 0.07324666 0.08249405 0.09076482 0.09995117 0.1085882 0.1190258 0.1276323 0.1332479 0.1359031 0.1379479 0.1401453 0.1448758 0.1505524 0.1576024 0.1631874 0.1678264 0.1706037 0.1735946 0.1757004 0.1778673 0.1797595 0.1814991 0.1853446 0.1902887 0.1950803 0.1990478 0.2014588 0.204877 0.2069829 0.20799 0.2093328 0.2105536 0.2130867 0.2151315 0.2193432 0.2246536 0.2329549 0.2412867 0.2475432 0.2514192 0.2537997 0.2562717 0.2594152 0.2639016 0.2703412 0.2775438 0.2854178 0.2924373 0.2978697 0.302112 0.3054386 0.311573 0.3178905 0.3235671 0.3261307 0.3267106 0.3263749 0.3261918 0.3259171 0.3268937 0.3268937 0.3279619 0.3274125 0.3278398 0.3281755 0.3315022 0.3371177 0.3427638 0.3459073 0.3472502 0.3479522 0.3478606 0.3491729 0.3500885 0.3532625 0.3584508 0.3671794 0.382256 0.3979735 0.4109138 0.4178417 0.4193982 0.4174449 0.4146676 0.4141488 0.4159495 0.4201306 0.4239455 0.4275469 0.4291033 0.4278826 0.4233352 0.4196423 0.4182995 0.4187878 0.4196423 0.4193066 0.4181468 0.4174754 0.4154917 0.4134164 0.4102728 0.409754 0.4100897 0.4117683 0.412867 0.4145761 0.41598 0.4178112 0.4190014 0.4178112 0.4155832 0.4119514 0.4103644 0.4092962 0.4077702 0.4078008 0.4068241 0.4068241 0.4045962 0.4012391 0.3977904 0.3914729 0.3853995 0.3762742 0.3680339 0.3592138 0.3536593 0.34841 0.3427028 0.3366905 0.3307087 0.3241165 0.3175548 0.3113288 0.3059269 0.3013795 0.2997009 0.2992431 0.2979613 0.2956418 0.2913081 0.2872185 0.2815724 0.2765061 0.2717451 0.2664347 0.2594152 0.2522126 0.2428737 0.235488 0.2254471 0.2183971 0.2104621 0.205579 0.2001465 0.1963926 0.1903498 0.1833913 0.174968 0.1661784 0.1548251 0.1419154 0.1254654 0.1075505 0.08875053 0.07462003 0.06409083 0.05994018 0.05575902 0.05246292 0.04779344 0.04043826 0.02978697 0.01721296 0.00762986 0.001739608 0.0008240249 0 0 0 0 0 0 0 0 0 0.0000610389 0.0003357138 0.002533114 0.008240249 0.02020387 0.03589086 0.05453824 0.06937069 0.08264665 0.09250443 0.1021486 0.1084051 0.1133187 0.1178966 0.124031 0.1294635 0.134194 0.1380089 0.1420985 0.146768 0.1552524 0.1666667 0.1823231 0.1974303 0.2091803 0.2173595 0.2231276 0.2298724 0.2368309 0.2438198 0.251114 0.2595679 0.268388 0.2773302 0.2883782 0.2987548 0.3094671 0.3187756 0.3277483 0.3363242 0.3435879 0.3491119 0.353995 0.3584203 0.3634865 0.3687054 0.3750839 0.3804859 0.3865592 0.3925716 0.3992859 0.4040774 0.4088689 0.4117988 0.4175365 0.4240981 0.4287676 0.4331014 0.4373436 0.4404871 0.4439053 0.4462247 0.4476286 0.4491851 0.4504669 0.4516877 0.4515046 0.4501923 0.4479949 0.4454007 0.4430507 0.4405176 0.4377098 0.4366111 0.4353598 0.4358787 0.4356955 0.4358481 0.435604 0.4467436 0.4632546 0.482726 0.5080571 0.5318013 0.5477324 0.5530733 0.5522493 0.5484954 0.5432765 0.5377526 0.5317402 0.5256363 0.5173656 0.5090337 0.4992675 0.4919123 0.4831227 0.4761338 0.4650247 0.4574254 0.4478118 0.4409449 0.4288897 0.4190319 0.4075871 0.3973631 0.3866813 0.3780748 0.3702618 0.3611976 0.3498138 0.3370872 0.3241165 0.3130379 0.3041262 0.2955197 0.288134 0.2797717 0.2724165 0.2641763 0.2580724 0.2533114 0.2491302 0.2449795 0.2407373 0.2384484 0.2349692 0.2329854 0.2305439 0.2284075
0 0 0 0 0 0 0 0 0 0 0 0 0 0 0 0 0 0 0 0 0 0 0 0 0 0 0 0 0 0 0 0 0 0 0 0 0 0 0 0 0 0 0 0 0 0 0 0 0 0 0 0 0 0 0 0 0 0 0 0 0 0 0 0 0 0 0 0 0 0 0 0 0 0 0 0 0 0 0 0 0 0 0 0 0 0 0 0 0 0 0 0 0 0 0 0 0 0 0 0 0 0 0 0 0 0 0 0 0 0 0 0 0 0 0 0 0 0 0 0 0 0 0 0 0 0 0 0 0 0 0 0 0 0 0 0 0 0 0 0 0 0 0 0 0 0 0 0 0 0 0 0 0 0 0 0 0 0 0 0 0 0 0 0 0 0 0 0 0 0 0 0 0 0 0 0 0 0 0 0 0 0 0.0000305194 0.0003051944 0.001007142 0.003021425 0.006256485 0.01055973 0.01706037 0.02478179 0.03378502 0.04147592 0.04675578 0.05121162 0.05493499 0.06018434 0.06726485 0.07593237 0.08456937 0.09375572 0.1023622 0.1126167 0.121742 0.1277544 0.1306232 0.1322102 0.1338583 0.1380089 0.1432888 0.1502777 0.1561069 0.1613258 0.1644693 0.1677959 0.1702374 0.1730452 0.1752732 0.177379 0.1812244 0.1861991 0.191479 0.1959043 0.1988036 0.2025575 0.2050906 0.2062809 0.2075017 0.2086004 0.2109809 0.2129341 0.2171763 0.2226088 0.2312458 0.2396387 0.245651 0.2490692 0.2512055 0.2530367 0.2554782 0.2591101 0.2649087 0.2725386 0.2807483 0.2886223 0.2947568 0.2992126 0.3020509 0.3066593 0.3114509 0.3169444 0.3208204 0.3228346 0.3232924 0.3236282 0.3235976 0.3250626 0.3250015 0.3261307 0.3255204 0.3260392 0.3271989 0.3317768 0.3384301 0.3438931 0.3459684 0.3463651 0.3467924 0.3474333 0.3493255 0.3510651 0.354758 0.3604956 0.3696209 0.3840261 0.3995605 0.4117988 0.4181468 0.4186962 0.4164378 0.4139962 0.4140573 0.4158274 0.4186657 0.4212904 0.4250748 0.4276384 0.4268449 0.4225111 0.4194897 0.4189098 0.4195202 0.4201611 0.4197339 0.4192761 0.4191235 0.4175059 0.4153085 0.4128059 0.4132943 0.414393 0.4159189 0.416743 0.41833 0.4201001 0.4218092 0.4222975 0.4203748 0.4175365 0.4139047 0.4125313 0.4118904 0.4108832 0.4110053 0.4098456 0.4090826 0.405878 0.4016053 0.3974852 0.3913508 0.3859488 0.3774644 0.3694684 0.3607093 0.3558567 0.3513703 0.3469755 0.3418177 0.3373924 0.3314717 0.3258866 0.3194165 0.3142892 0.3100775 0.3084295 0.3080327 0.3068119 0.3049502 0.3015626 0.298297 0.2927425 0.287371 0.2823964 0.277025 0.2701276 0.2623146 0.2525789 0.2441555 0.2328939 0.2249588 0.216688 0.2122322 0.2073186 0.2044192 0.1992309 0.1935543 0.1862296 0.178142 0.1668193 0.1536043 0.1368492 0.1172862 0.09573948 0.07840444 0.06555576 0.06052005 0.05670512 0.05475188 0.05108954 0.04385643 0.03158762 0.01754868 0.007172069 0.001556491 0.0006409083 0 0 0 0 0 0 0 0 0.0000305194 0.0001831166 0.0008240249 0.004303241 0.01184154 0.02591101 0.0425441 0.06073369 0.07385705 0.08514924 0.09354208 0.1024232 0.1084051 0.1131661 0.1176219 0.1234511 0.128731 0.1335531 0.1372459 0.1417018 0.1470427 0.1563511 0.1683452 0.1842459 0.1992004 0.2100043 0.2175121 0.2232192 0.2312153 0.2394861 0.2477568 0.2561802 0.2647867 0.2728133 0.2802295 0.2895074 0.2993652 0.3101996 0.32021 0.3295489 0.3386132 0.3466703 0.3529879 0.3582372 0.3625709 0.3675151 0.3722761 0.3780748 0.3832021 0.3890313 0.3946469 0.4009644 0.4054508 0.4100592 0.4128059 0.4182995 0.4247391 0.4295001 0.4339254 0.4382592 0.4414027 0.4449124 0.4472624 0.4486358 0.4504059 0.4519929 0.4534579 0.4538241 0.4531832 0.4518098 0.449765 0.4476286 0.4452481 0.4425624 0.4417079 0.4405786 0.4407923 0.4402429 0.4401819 0.4394494 0.4509858 0.4682598 0.489776 0.515626 0.5383324 0.5516084 0.5556675 0.5546298 0.5517915 0.5472746 0.5420558 0.5358909 0.5292071 0.5204785 0.5115364 0.5016481 0.4939572 0.4848318 0.4779344 0.4667338 0.4594397 0.4494293 0.4421657 0.4299884 0.4200085 0.4085638 0.3979125 0.3868034 0.377495 0.3689801 0.3597021 0.3479827 0.3345236 0.3208814 0.3094671 0.3009827 0.2925899 0.2851126 0.276323 0.2689678 0.2610633 0.2556309 0.2515717 0.2478789 0.2437283 0.2396692 0.2372276 0.2340841 0.2320698 0.2298419 0.2274003
0 0 0 0 0 0 0 0 0 0 0 0 0 0 0 0 0 0 0 0 0 0 0 0 0 0 0 0 0 0 0 0 0 0 0 0 0 0 0 0 0 0 0 0 0 0 0 0 0 0 0 0 0 0 0 0 0 0 0 0 0 0 0 0 0 0 0 0 0 0 0 0 0 0 0 0 0 0 0 0 0 0 0 0 0 0 0 0 0 0 0 0 0 0 0 0 0 0 0 0 0 0 0 0 0 0 0 0 0 0 0 0 0 0 0 0 0 0 0 0 0 0 0 0 0 0 0 0 0 0 0 0 0 0 0 0 0 0 0 0 0 0 0 0 0 0 0 0 0 0 0 0 0 0 0 0 0 0 0 0 0 0 0 0 0 0 0 0 0 0 0 0 0 0 0 0 0 0 0 0 0 0 0 0.0000610389 0.0003662333 0.001403894 0.003784411 0.00708051 0.01239089 0.01886101 0.02722334 0.03589086 0.04236098 0.04757981 0.05136422 0.0558811 0.06213758 0.06982848 0.07846548 0.08762132 0.0963804 0.1066349 0.1166148 0.1238174 0.1278154 0.1296466 0.1309894 0.1345297 0.138955 0.1455777 0.1514069 0.1570225 0.1602881 0.1636147 0.1660258 0.1690472 0.1714582 0.1737472 0.1775011 0.1822926 0.1878777 0.1925777 0.1958738 0.1999329 0.2025881 0.2041445 0.2052127 0.2062199 0.2085393 0.2105536 0.2150095 0.2203504 0.22914 0.2374107 0.2429347 0.2459562 0.2481536 0.2498627 0.2523347 0.2561497 0.2621315 0.2701276 0.2781542 0.2859367 0.2916743 0.2957639 0.2980223 0.3017457 0.3056217 0.3107795 0.3152964 0.3187756 0.3205152 0.3211866 0.3212476 0.3229567 0.3231093 0.3238723 0.3234145 0.3245743 0.32726 0.3329061 0.3395593 0.3439846 0.3450223 0.3451138 0.3454495 0.3467314 0.3491729 0.3521638 0.3561313 0.3623268 0.3714216 0.385491 0.4005066 0.412165 0.4177196 0.4175975 0.4154001 0.4138131 0.4140573 0.4152475 0.4164683 0.4183605 0.422328 0.4254715 0.4250137 0.4211378 0.419093 0.4188488 0.4195813 0.4203443 0.4209241 0.4218092 0.4216566 0.4195507 0.4170176 0.4156443 0.4169261 0.4184215 0.4193371 0.419978 0.4217176 0.4237624 0.4253189 0.4250137 0.4224196 0.4191845 0.41598 0.4147897 0.4146371 0.4139352 0.4137215 0.4118598 0.4098761 0.4055729 0.4006592 0.3965391 0.3914424 0.3869865 0.3792956 0.3718183 0.3640054 0.3607093 0.3569859 0.3533541 0.348471 0.3449002 0.3386437 0.3327229 0.3253067 0.3197217 0.3154184 0.3133431 0.3128853 0.3114204 0.3098944 0.3073613 0.3054996 0.3013184 0.2968626 0.2918879 0.2867912 0.2799243 0.2722334 0.2627113 0.253586 0.2418055 0.232314 0.2234939 0.2186107 0.2136056 0.2108588 0.2060978 0.2013062 0.1956296 0.1889764 0.1791186 0.1665141 0.1494232 0.1284258 0.104468 0.08438625 0.06909601 0.0624733 0.05813953 0.05636941 0.05343954 0.04648111 0.03357138 0.0185253 0.007477263 0.001739608 0.0006409083 0.0000305194 0 0 0 0 0 0 0 0.0000915583 0.0005493499 0.001922725 0.00708051 0.0164805 0.03174022 0.04837331 0.06549472 0.07700055 0.08667521 0.09399988 0.1023622 0.108283 0.1129524 0.1172862 0.1227187 0.127907 0.1327901 0.1363914 0.1414271 0.1474699 0.157694 0.1701459 0.1861381 0.2010316 0.2113471 0.2187328 0.2246841 0.2335653 0.2431789 0.2524568 0.2612769 0.2688152 0.2754074 0.2819081 0.2903925 0.3002808 0.3110541 0.3214613 0.3307087 0.3400476 0.3485625 0.3557041 0.3614417 0.3656229 0.3701398 0.374382 0.3795092 0.3844229 0.390191 0.3958677 0.4021852 0.4068547 0.4114326 0.4140878 0.4193982 0.4256852 0.4306903 0.4351767 0.4396631 0.442715 0.4462858 0.4485137 0.449704 0.4515046 0.4530916 0.454465 0.4549533 0.4545566 0.4537936 0.4524507 0.4506501 0.4486663 0.4460416 0.4456754 0.4450345 0.4455838 0.4449429 0.4448514 0.4439968 0.4560825 0.4745468 0.4983214 0.5238967 0.5441311 0.5542025 0.5571324 0.5563694 0.5543857 0.5506928 0.5458707 0.5397363 0.5328695 0.5238357 0.5144967 0.5040896 0.4959409 0.4863273 0.4794604 0.4680156 0.4609656 0.4508027 0.4431728 0.4310261 0.420741 0.4093267 0.3983397 0.3867118 0.376793 0.3672709 0.357993 0.3452664 0.3312275 0.3168834 0.3059269 0.2978697 0.2894159 0.2815113 0.2723555 0.2651834 0.2578893 0.2533419 0.2498932 0.2465055 0.2423549 0.2385094 0.2359458 0.233138 0.2311848 0.2289874 0.2263017
0 0 0 0 0 0 0 0 0 0 0 0 0 0 0 0 0 0 0 0 0 0 0 0 0 0 0 0 0 0 0 0 0 0 0 0 0 0 0 0 0 0 0 0 0 0 0 0 0 0 0 0 0 0 0 0 0 0 0 0 0 0 0 0 0 0 0 0 0 0 0 0 0 0 0 0 0 0 0 0 0 0 0 0 0 0 0 0 0 0 0 0 0 0 0 0 0 0 0 0 0 0 0 0 0 0 0 0 0 0 0 0 0 0 0 0 0 0 0 0 0 0 0 0 0 0 0 0 0 0 0 0 0 0 0 0 0 0 0 0 0 0 0 0 0 0 0 0 0 0 0 0 0 0 0 0 0 0 0 0 0 0 0 0 0 0 0 0 0 0 0 0 0 0 0 0 0 0 0 0 0 0 0 0 0.0001220778 0.0004883111 0.001892205 0.004150644 0.008362327 0.01364219 0.02060062 0.02905451 0.03665385 0.04336812 0.0480376 0.0522798 0.0577733 0.06454862 0.07288042 0.08167002 0.09024598 0.09967649 0.1101141 0.1186596 0.1245804 0.127205 0.1287005 0.1318135 0.1357505 0.1422206 0.148355 0.1542758 0.157755 0.1610816 0.1634621 0.1666056 0.1690777 0.1713667 0.1749374 0.1793017 0.1850089 0.189892 0.1935543 0.1977355 0.2005738 0.2023744 0.2032595 0.2040225 0.2061893 0.208051 0.2125374 0.2175731 0.2262406 0.2341757 0.2394555 0.2423244 0.2449795 0.247238 0.2502594 0.2544711 0.2606055 0.2687847 0.2766893 0.2839834 0.2891412 0.2921931 0.2936886 0.2960996 0.298999 0.3030581 0.3080632 0.3129158 0.3167918 0.3182567 0.3186535 0.3201489 0.3203931 0.3213087 0.3216749 0.324086 0.328023 0.3340963 0.339895 0.3431301 0.3435268 0.3440457 0.3442898 0.3462736 0.3494781 0.3535372 0.357108 0.3633034 0.3724287 0.3863761 0.4010254 0.4116157 0.4164378 0.4162241 0.4145761 0.4138131 0.4140267 0.4139657 0.4138436 0.4150949 0.419093 0.4221754 0.422206 0.4196118 0.4187878 0.4192456 0.4204358 0.421565 0.4227858 0.4237624 0.423091 0.4207105 0.4187573 0.4189709 0.4202527 0.421504 0.4219923 0.4233046 0.4252884 0.4273637 0.4279741 0.4267533 0.4237319 0.4207715 0.4182689 0.4174449 0.4173228 0.4166209 0.4154306 0.4122566 0.408991 0.4041079 0.399591 0.396356 0.3927547 0.3894281 0.3829579 0.3762437 0.3694378 0.3668742 0.3631508 0.359519 0.3544223 0.3504547 0.3428554 0.3362021 0.3277788 0.3223158 0.3179515 0.3157236 0.3154489 0.3140145 0.3127632 0.3110236 0.3104743 0.3079107 0.3046756 0.300647 0.2966795 0.2907892 0.2835256 0.2739425 0.2643289 0.2522126 0.2420802 0.2324971 0.2269426 0.2215711 0.2187328 0.2138802 0.209577 0.2047855 0.1991699 0.1908381 0.1793933 0.1631569 0.1407862 0.1145395 0.09204663 0.07434536 0.06592199 0.06067265 0.05826161 0.05502655 0.04797656 0.0348532 0.01999023 0.008820118 0.002899347 0.00106818 0.0001831166 0.0000305194 0 0 0 0 0 0.0000305194 0.0002441555 0.001220778 0.00381493 0.01055973 0.02169932 0.03744736 0.0535311 0.06882134 0.07858756 0.08710249 0.0940304 0.1021486 0.1080388 0.1127388 0.1168589 0.1219252 0.1268998 0.1319355 0.1355674 0.1413355 0.1482329 0.159342 0.1722212 0.1882134 0.2028627 0.2130867 0.2205335 0.2270341 0.237014 0.2477263 0.2576451 0.2657938 0.2718062 0.2775743 0.2836782 0.2917048 0.3010743 0.3110541 0.3214002 0.3306781 0.3402918 0.3489288 0.3564976 0.3626015 0.3669658 0.3709638 0.3751144 0.3800891 0.3853079 0.3913813 0.3976988 0.4045657 0.4096625 0.4143014 0.4168345 0.4218092 0.4277605 0.4327351 0.437191 0.4417994 0.4448514 0.4484221 0.4506806 0.4518403 0.453763 0.45535 0.4565708 0.456876 0.4565403 0.4558994 0.4548618 0.4530916 0.4511689 0.4486358 0.4486663 0.4482695 0.4491546 0.4487884 0.4492462 0.4486663 0.4614234 0.4815052 0.5070195 0.5317402 0.5491363 0.5566136 0.5584753 0.5576207 0.555698 0.5528291 0.548709 0.5432155 0.5364402 0.527498 0.5181286 0.5069584 0.4983825 0.4878838 0.4806812 0.4691449 0.4621559 0.4519013 0.4437527 0.431789 0.4213514 0.4099982 0.3984618 0.3863761 0.3756943 0.3652261 0.355521 0.3416957 0.3271989 0.3125801 0.3023561 0.29436 0.2857535 0.2774522 0.2683575 0.2616127 0.2553256 0.2516023 0.2484893 0.2451627 0.2409815 0.2372581 0.2346945 0.2322224 0.2301471 0.2279802 0.2250809
0 0 0 0 0 0 0 0 0 0 0 0 0 0 0 0 0 0 0 0 0 0 0 0 0 0 0 0 0 0 0 0 0 0 0 0 0 0 0 0 0 0 0 0 0 0 0 0 0 0 0 0 0 0 0 0 0 0 0 0 0 0 0 0 0 0 0 0 0 0 0 0 0 0 0 0 0 0 0 0 0 0 0 0 0 0 0 0 0 0 0 0 0 0 0 0 0 0 0 0 0 0 0 0 0 0 0 0 0 0 0 0 0 0 0 0 0 0 0 0 0 0 0 0 0 0 0 0 0 0 0 0 0 0 0 0 0 0 0 0 0 0 0 0 0 0 0 0 0 0 0 0 0 0 0 0 0 0 0 0 0 0 0 0 0 0 0 0 0 0 0 0 0 0 0 0 0 0 0 0 0 0 0 0 0.0000305194 0.0001831166 0.0008240249 0.002105841 0.004852591 0.009094793 0.01480193 0.02264543 0.0303058 0.03759995 0.04327657 0.04782397 0.05316487 0.05969603 0.067509 0.07635964 0.084783 0.09326741 0.1035525 0.1126473 0.1199414 0.1234817 0.1252518 0.1280901 0.131844 0.138192 0.1447232 0.1511018 0.1551303 0.1587011 0.1612342 0.1643777 0.1670024 0.1693219 0.1727706 0.1767076 0.1823231 0.1874199 0.1913264 0.1955991 0.1984984 0.2003601 0.20094 0.2012147 0.2028932 0.2043887 0.2087835 0.2136971 0.2226088 0.2306659 0.2362205 0.239364 0.2427516 0.2456815 0.2492828 0.2535555 0.2595984 0.2677776 0.2753464 0.2819996 0.2863944 0.2883171 0.2890801 0.2905756 0.2929256 0.2961912 0.3005555 0.305347 0.3104743 0.3134957 0.3149301 0.3164866 0.3172191 0.3188671 0.3205152 0.3242385 0.3290606 0.3348898 0.3392846 0.3412684 0.3415736 0.3427333 0.3432827 0.3459989 0.3499054 0.3546969 0.3578099 0.3641275 0.3733138 0.387017 0.4008423 0.410517 0.4146676 0.4149118 0.4141183 0.4140267 0.4132943 0.4117378 0.410578 0.4115547 0.4151254 0.4181774 0.4190319 0.4184826 0.4188793 0.4196728 0.4209241 0.4225722 0.4240066 0.4251358 0.4242202 0.4223585 0.4213209 0.4220533 0.4229079 0.4238235 0.4244644 0.4262955 0.4283098 0.4299884 0.4301105 0.428554 0.4256852 0.4228469 0.4207105 0.4198254 0.4192761 0.4176585 0.4154001 0.4111274 0.4077092 0.4034365 0.4004761 0.3984923 0.3963865 0.3936092 0.3876885 0.381432 0.3749619 0.3719404 0.3672099 0.3625709 0.3566502 0.3517365 0.3433132 0.3363242 0.328145 0.3229872 0.3192028 0.3170359 0.317158 0.3158457 0.3149301 0.3138619 0.3142587 0.3130684 0.310871 0.307697 0.3045535 0.299884 0.2934749 0.2844412 0.2748581 0.2628029 0.252701 0.242477 0.2364341 0.2306659 0.227675 0.222853 0.2188244 0.2147348 0.2099432 0.2030458 0.1933101 0.1780199 0.1552829 0.1265946 0.1015687 0.08081548 0.07043887 0.06424342 0.06131355 0.05676616 0.04867851 0.03521943 0.02142465 0.010987 0.005005188 0.002105841 0.0006409083 0.0000915583 0.0000305194 0 0 0 0.0000305194 0.0001220778 0.0006714277 0.002533114 0.006683758 0.01492401 0.02691815 0.04214735 0.05716291 0.0708051 0.07938106 0.08713301 0.09390832 0.1017213 0.1077031 0.1124031 0.1163096 0.1210096 0.1257706 0.131081 0.1349875 0.1418544 0.1497589 0.1619972 0.1751511 0.1905939 0.2046023 0.2146127 0.2223036 0.2294146 0.2404016 0.2516023 0.261338 0.2682048 0.2733016 0.278673 0.2847769 0.2926814 0.3014405 0.3106574 0.3206373 0.3298541 0.339132 0.3472807 0.3549411 0.3615028 0.366508 0.3705671 0.3749619 0.3797229 0.38543 0.3917475 0.3989196 0.4065495 0.412867 0.41833 0.4217787 0.4268754 0.4325826 0.4377098 0.441891 0.4462247 0.4489104 0.4522981 0.4541903 0.4550449 0.456815 0.4581273 0.4590124 0.4590124 0.4585241 0.4578832 0.4571202 0.4556858 0.4539157 0.4514436 0.451291 0.4508637 0.4517182 0.4515962 0.4523591 0.4524507 0.4665812 0.4891046 0.5160532 0.5392175 0.5535921 0.5589635 0.5601233 0.5592383 0.5570713 0.5545382 0.551059 0.5459623 0.5394921 0.5307941 0.5216993 0.5097967 0.500702 0.4894097 0.4820546 0.470091 0.4630409 0.4526338 0.4441189 0.4321858 0.4214735 0.4102728 0.3985839 0.3858268 0.3742904 0.3626015 0.3524995 0.3372398 0.322621 0.3082158 0.2989074 0.2906671 0.2817555 0.2731795 0.2642983 0.2581945 0.2530062 0.2498321 0.2469938 0.2436062 0.2395471 0.2359458 0.2334432 0.2313068 0.2291094 0.2267289 0.223738
0 0 0 0 0 0 0 0 0 0 0 0 0 0 0 0 0 0 0 0 0 0 0 0 0 0 0 0 0 0 0 0 0 0 0 0 0 0 0 0 0 0 0 0 0 0 0 0 0 0 0 0 0 0 0 0 0 0 0 0 0 0 0 0 0 0 0 0 0 0 0 0 0 0 0 0 0 0 0 0 0 0 0 0 0 0 0 0 0 0 0 0 0 0 0 0 0 0 0 0 0 0 0 0 0 0 0 0 0 0 0 0 0 0 0 0 0 0 0 0 0 0 0 0 0 0 0 0 0 0 0 0 0 0 0 0 0 0 0 0 0 0 0 0 0 0 0 0 0 0 0 0 0 0 0 0 0 0 0 0 0 0 0 0 0 0 0 0 0 0 0 0 0 0 0 0 0 0 0 0 0 0 0 0 0 0.0000305194 0.0002441555 0.0008545443 0.002380516 0.005401941 0.009522066 0.0161753 0.02374412 0.0317097 0.0384545 0.04312397 0.04809864 0.05404993 0.06161875 0.07065251 0.07941158 0.08762132 0.09744857 0.106696 0.1150888 0.1195446 0.1215589 0.1239394 0.127205 0.1330953 0.139657 0.1463102 0.1509186 0.154642 0.1573582 0.1603491 0.1631264 0.1655069 0.168803 0.1723738 0.1778063 0.1831472 0.1873894 0.1917842 0.1948056 0.196942 0.1974303 0.1975523 0.1989562 0.2003601 0.2047549 0.2100043 0.2192822 0.2279497 0.2340231 0.2375633 0.2414393 0.244827 0.2487945 0.2527315 0.258164 0.2657633 0.2728743 0.279497 0.2838003 0.2853568 0.2856925 0.2862418 0.2877678 0.2899347 0.292773 0.2964048 0.3014405 0.306171 0.3092535 0.3118782 0.3133126 0.3164256 0.3199353 0.3250626 0.3301898 0.3350424 0.3375755 0.3387353 0.3395898 0.3412684 0.342306 0.3456327 0.3503326 0.3556736 0.3582982 0.3647378 0.3738326 0.3871086 0.4000183 0.4087774 0.4126534 0.4139047 0.4141183 0.4138131 0.4115241 0.4081365 0.4064274 0.4069767 0.4099066 0.4129891 0.4155222 0.4176891 0.419093 0.4205579 0.4219618 0.4241592 0.4254715 0.426204 0.4250748 0.4242202 0.4238845 0.4248917 0.4251053 0.4260209 0.4269059 0.4292254 0.4312702 0.4323689 0.4320027 0.4301715 0.4273027 0.4246475 0.4225722 0.421443 0.4202832 0.4179943 0.4150949 0.4109748 0.4083501 0.4055118 0.4041995 0.4033144 0.401941 0.3991332 0.393243 0.3867424 0.3796008 0.3750229 0.3689495 0.3635476 0.3568943 0.3513703 0.3426113 0.3359885 0.3286333 0.3242996 0.3213087 0.3196301 0.3202405 0.3191113 0.3184704 0.3177684 0.3185009 0.3181652 0.3169444 0.3145028 0.3117866 0.3077275 0.302173 0.2933834 0.284075 0.2717756 0.2619483 0.2508698 0.2443692 0.2380211 0.2352744 0.2308185 0.2274614 0.2242874 0.2202893 0.2148569 0.2070439 0.1937679 0.1715803 0.1416712 0.1138986 0.08954404 0.07626808 0.06824147 0.06460965 0.05878044 0.04947201 0.03582982 0.02353049 0.01403894 0.007812977 0.003753891 0.001434414 0.000274675 0.0000610389 0 0 0 0.0000305194 0.0003051944 0.001556491 0.004547397 0.01028505 0.0194714 0.03149606 0.04580968 0.05960447 0.0720564 0.07977782 0.08701093 0.09360313 0.101233 0.1072758 0.1119148 0.1156992 0.1201245 0.1249466 0.1307148 0.1352011 0.1430446 0.1516816 0.1645608 0.1775011 0.1922114 0.2053958 0.2156198 0.2243484 0.2322529 0.2435757 0.2541354 0.2632302 0.2697308 0.2750717 0.280962 0.2869133 0.294299 0.3021425 0.3102911 0.3188061 0.327382 0.3361716 0.3444424 0.3523164 0.3597937 0.3660807 0.3712385 0.3763352 0.3813404 0.3874138 0.3937923 0.4016969 0.409815 0.4170482 0.4232131 0.4272722 0.432491 0.4381066 0.4435085 0.4478728 0.4522981 0.4548007 0.4578221 0.4596228 0.4602637 0.4620033 0.4631936 0.4637734 0.4634682 0.4625221 0.461515 0.4605384 0.459165 0.4572728 0.4548618 0.4541598 0.4534273 0.4537936 0.453641 0.4544345 0.4548923 0.4704877 0.4957273 0.5238967 0.5459318 0.5578343 0.5621376 0.5628395 0.5617103 0.558872 0.5560642 0.5527986 0.5480681 0.5419948 0.5335408 0.5247512 0.5126351 0.503113 0.4912104 0.4832448 0.4710065 0.4632851 0.4528475 0.4439053 0.4325215 0.4215955 0.410517 0.3985229 0.3850027 0.3723066 0.3592138 0.3480132 0.3318684 0.3180431 0.3044009 0.2953366 0.2866081 0.2772996 0.268449 0.2602088 0.2550204 0.2509614 0.2480925 0.2454984 0.2419276 0.2380211 0.2345419 0.2322835 0.2303302 0.2281023 0.2253556 0.2224257
0 0 0 0 0 0 0 0 0 0 0 0 0 0 0 0 0 0 0 0 0 0 0 0 0 0 0 0 0 0 0 0 0 0 0 0 0 0 0 0 0 0 0 0 0 0 0 0 0 0 0 0 0 0 0 0 0 0 0 0 0 0 0 0 0 0 0 0 0 0 0 0 0 0 0 0 0 0 0 0 0 0 0 0 0 0 0 0 0 0 0 0 0 0 0 0 0 0 0 0 0 0 0 0 0 0 0 0 0 0 0 0 0 0 0 0 0 0 0 0 0 0 0 0 0 0 0 0 0 0 0 0 0 0 0 0 0 0 0 0 0 0 0 0 0 0 0 0 0 0 0 0 0 0 0 0 0 0 0 0 0 0 0 0 0 0 0 0 0 0 0 0 0 0 0 0 0 0 0 0 0 0 0 0 0 0 0.0000610389 0.000274675 0.0008545443 0.002624672 0.005401941 0.01043765 0.01709089 0.02459867 0.03228957 0.0379967 0.04315449 0.04855643 0.05545382 0.0643655 0.07370445 0.08218885 0.09180248 0.1011719 0.1102667 0.116157 0.1188122 0.1207044 0.1231765 0.1281206 0.1343161 0.1409083 0.1461881 0.1501862 0.1531771 0.1559849 0.1589147 0.1613258 0.1645303 0.1676738 0.1728621 0.1781725 0.1827504 0.1873283 0.1906244 0.1931881 0.1939205 0.1941647 0.1955075 0.1971251 0.201764 0.2074712 0.2170848 0.2263627 0.2328939 0.2366172 0.2406153 0.2439724 0.248001 0.2512666 0.2559971 0.2631386 0.2701276 0.2769029 0.2814198 0.2829763 0.2832509 0.2834035 0.2843496 0.2858146 0.2869133 0.2883782 0.2910029 0.295123 0.2989379 0.303821 0.307697 0.3133431 0.3188366 0.3253067 0.3302203 0.3337301 0.335134 0.3360801 0.3378807 0.3400476 0.3416346 0.3454495 0.3506684 0.3561008 0.3583288 0.3647989 0.3738021 0.3863456 0.397943 0.4060001 0.4101202 0.412165 0.4129586 0.4115241 0.4078923 0.403528 0.4020936 0.4024293 0.4046268 0.4079534 0.4122871 0.416743 0.4193066 0.4212904 0.4232131 0.4256241 0.4265702 0.4271196 0.4262955 0.4262955 0.4265092 0.4272417 0.4273942 0.4283098 0.4298053 0.4319111 0.4337423 0.4342916 0.4338644 0.4318196 0.4290728 0.4266923 0.4245559 0.4229689 0.4212293 0.4187267 0.4162241 0.4130806 0.4119514 0.4102728 0.409754 0.4092352 0.4077702 0.4044436 0.397943 0.3904657 0.3822255 0.3766709 0.3702924 0.3646768 0.3577794 0.3520418 0.3439236 0.3380333 0.3314411 0.3275957 0.3250626 0.3232924 0.3239639 0.3228041 0.3222548 0.3215528 0.3221327 0.3220412 0.3211256 0.3189282 0.3159067 0.3120002 0.3071782 0.2990295 0.2905146 0.2785204 0.2691815 0.2572179 0.2498016 0.2422938 0.2393029 0.235488 0.2328633 0.2306965 0.227614 0.2236159 0.2177867 0.2072575 0.1869316 0.1579991 0.1297687 0.10282 0.08569859 0.07416224 0.06821095 0.06052005 0.05005188 0.03702008 0.0262162 0.01779283 0.01135323 0.006073369 0.00274675 0.0006714277 0.0001831166 0.0000305194 0 0 0.0001831166 0.0007935055 0.003021425 0.007294146 0.01403894 0.02377464 0.03518891 0.04846487 0.06094732 0.07266679 0.07989989 0.08676677 0.09320638 0.1006531 0.1066349 0.1114875 0.1152109 0.1195446 0.1244888 0.1307148 0.1357505 0.1444485 0.1534517 0.1666361 0.1792407 0.1932186 0.20564 0.2165965 0.2266984 0.2354575 0.246536 0.2560276 0.2651224 0.2718367 0.2774827 0.2831899 0.2886529 0.2953672 0.3022951 0.3093451 0.3167308 0.3245743 0.3329061 0.3419093 0.3503326 0.3588171 0.3664469 0.3726729 0.3780748 0.3830495 0.3887872 0.3948911 0.4028566 0.4109748 0.419215 0.4261124 0.4310871 0.436428 0.4422267 0.4483001 0.4531221 0.4577306 0.4601416 0.4629189 0.4643228 0.464628 0.4661539 0.4671916 0.4676494 0.4673137 0.4663371 0.4654215 0.4643838 0.463163 0.4613624 0.4590734 0.4581884 0.4573644 0.4570286 0.4564488 0.4566929 0.4572423 0.4735702 0.5009156 0.5296344 0.5508454 0.5610083 0.565037 0.5657694 0.5647928 0.5616493 0.5583227 0.5546603 0.5495636 0.5434597 0.5351889 0.5270402 0.5155039 0.5057987 0.4935604 0.4845266 0.4719221 0.4632851 0.4527864 0.4433254 0.4321858 0.4213514 0.4102423 0.3981566 0.3836904 0.369682 0.3546664 0.3426418 0.3263444 0.3132821 0.3000977 0.2909113 0.281786 0.272386 0.2639321 0.2567906 0.2525178 0.2494354 0.2466886 0.2440335 0.240127 0.2364341 0.233199 0.2311848 0.2292315 0.2267289 0.2238906 0.2212049
0 0 0 0 0 0 0 0 0 0 0 0 0 0 0 0 0 0 0 0 0 0 0 0 0 0 0 0 0 0 0 0 0 0 0 0 0 0 0 0 0 0 0 0 0 0 0 0 0 0 0 0 0 0 0 0 0 0 0 0 0 0 0 0 0 0 0 0 0 0 0 0 0 0 0 0 0 0 0 0 0 0 0 0 0 0 0 0 0 0 0 0 0 0 0 0 0 0 0 0 0 0 0 0 0 0 0 0 0 0 0 0 0 0 0 0 0 0 0 0 0 0 0 0 0 0 0 0 0 0 0 0 0 0 0 0 0 0 0 0 0 0 0 0 0 0 0 0 0 0 0 0 0 0 0 0 0 0 0 0 0 0 0 0 0 0 0 0 0 0 0 0 0 0 0 0 0 0 0 0 0 0 0 0 0 0 0 0.0000915583 0.0002441555 0.001037661 0.002563633 0.005676616 0.010987 0.01754868 0.02563633 0.03235061 0.03808826 0.04300189 0.04852591 0.05633889 0.06619667 0.07584081 0.08609534 0.09570897 0.1054447 0.1129524 0.1168284 0.1189037 0.1207654 0.1245804 0.1302264 0.1364829 0.1422816 0.1465238 0.1496673 0.1523836 0.1553439 0.1577855 0.160868 0.1637063 0.1684978 0.1738693 0.1787829 0.1836965 0.1873894 0.1904413 0.1917536 0.192242 0.1935543 0.1952634 0.2000244 0.2060673 0.2156198 0.2251724 0.2320088 0.2357627 0.2396081 0.2426601 0.2466581 0.2492218 0.2534029 0.2596594 0.2663737 0.2731795 0.2785204 0.2807789 0.2815419 0.281786 0.2822438 0.2828542 0.2827321 0.2824574 0.2824269 0.2842886 0.2875847 0.2938412 0.3003418 0.3081243 0.3154184 0.3228346 0.327382 0.3300678 0.3313496 0.3326314 0.3353476 0.3380028 0.3403833 0.3445645 0.3502411 0.3557651 0.3579015 0.3639138 0.3726729 0.3844534 0.3949216 0.4022768 0.4070073 0.4098761 0.4103339 0.4074345 0.4027345 0.3981261 0.39718 0.3973326 0.3992859 0.4033144 0.4092352 0.4156137 0.4195813 0.4226027 0.4248917 0.4271501 0.4278826 0.428554 0.4281267 0.4284624 0.428493 0.4290118 0.4292559 0.4304767 0.4323995 0.4345663 0.436428 0.4367332 0.4362754 0.4339254 0.4308735 0.4280046 0.42538 0.4236709 0.4221754 0.4203748 0.4184521 0.4162241 0.4156748 0.4146982 0.4141793 0.4134469 0.4112189 0.4072209 0.3997436 0.3914729 0.3826833 0.3769151 0.3709638 0.3653177 0.3586034 0.3532931 0.3464872 0.3416957 0.3359275 0.3324788 0.3300372 0.3278398 0.3279009 0.3261918 0.3252762 0.3244522 0.3247574 0.3246353 0.3238113 0.3216749 0.3184704 0.3142282 0.3093145 0.3015015 0.2938412 0.2830983 0.2748276 0.2627113 0.2538302 0.2446744 0.2408289 0.2371666 0.2353964 0.2342367 0.2321004 0.2289263 0.2245315 0.2161387 0.1983153 0.1720686 0.1460966 0.1194531 0.09943233 0.08334859 0.07327718 0.06256485 0.05081487 0.03866813 0.02957334 0.02212659 0.0155344 0.00927791 0.004822072 0.001770128 0.0005493499 0.0001220778 0 0.0000305194 0.0004272722 0.001709089 0.005066227 0.01086492 0.01800647 0.02749802 0.03772203 0.05017396 0.06161875 0.07263627 0.0797473 0.08640054 0.0926265 0.09982909 0.1059025 0.1110908 0.1151193 0.1197583 0.1249161 0.1312336 0.1362998 0.1452725 0.1544589 0.1676738 0.1799731 0.1933712 0.205579 0.2178478 0.2294452 0.2391503 0.2490692 0.2573704 0.2662516 0.2738509 0.2800464 0.285662 0.290423 0.2960996 0.3018983 0.3083684 0.3148691 0.3224379 0.330434 0.3398645 0.3488067 0.3581456 0.3669047 0.374321 0.3804859 0.38543 0.3904657 0.3962644 0.4038332 0.4118293 0.4207715 0.4282488 0.4338338 0.4391747 0.4448819 0.4514436 0.4569676 0.4623695 0.4653299 0.4684429 0.4697247 0.4698163 0.4710371 0.4719221 0.4724104 0.4720747 0.4711896 0.470213 0.4691449 0.4675884 0.4657572 0.4635293 0.4623695 0.4611793 0.4604163 0.4596533 0.4597449 0.4603858 0.4766831 0.5049441 0.533724 0.5540804 0.5630226 0.5675395 0.5687908 0.568211 0.5647928 0.5608863 0.5567356 0.5513031 0.5447415 0.5362266 0.528261 0.5174876 0.5081487 0.4959409 0.4857169 0.4727767 0.4631325 0.4524202 0.4422267 0.4315449 0.4208326 0.409754 0.39718 0.3816456 0.3656839 0.3491729 0.3365074 0.3208509 0.308399 0.2954587 0.2859367 0.2766282 0.2674419 0.259812 0.2537997 0.250412 0.2478179 0.2451321 0.2425075 0.2384484 0.2349387 0.2318257 0.230025 0.2278581 0.2252335 0.2223952 0.2201672
0 0 0 0 0 0 0 0 0 0 0 0 0 0 0 0 0 0 0 0 0 0 0 0 0 0 0 0 0 0 0 0 0 0 0 0 0 0 0 0 0 0 0 0 0 0 0 0 0 0 0 0 0 0 0 0 0 0 0 0 0 0 0 0 0 0 0 0 0 0 0 0 0 0 0 0 0 0 0 0 0 0 0 0 0 0 0 0 0 0 0 0 0 0 0 0 0 0 0 0 0 0 0 0 0 0 0 0 0 0 0 0 0 0 0 0 0 0 0 0 0 0 0 0 0 0 0 0 0 0 0 0 0 0 0 0 0 0 0 0 0 0 0 0 0 0 0 0 0 0 0 0 0 0 0 0 0 0 0 0 0 0 0 0 0 0 0 0 0 0 0 0 0 0 0 0 0 0 0 0 0 0 0 0 0 0 0 0 0.0000305194 0.0003357138 0.001037661 0.002594152 0.005951291 0.01071232 0.0177318 0.02545321 0.03238112 0.03827138 0.04309345 0.04925838 0.0577733 0.06735641 0.07788561 0.08807911 0.09863883 0.108344 0.1143563 0.1174998 0.1193005 0.1221388 0.1270524 0.1329732 0.1391381 0.1436245 0.1470427 0.1495453 0.1524141 0.1548862 0.1578771 0.1606543 0.1650186 0.170329 0.1754868 0.1808277 0.1849783 0.1885796 0.1905329 0.1913569 0.1924251 0.1940731 0.1987121 0.2048465 0.2140939 0.223677 0.2303913 0.2338705 0.2373192 0.2400964 0.244125 0.2465055 0.2503815 0.2562412 0.2628639 0.2699445 0.2759873 0.2789477 0.2800769 0.2800159 0.2799853 0.2803821 0.2798633 0.2785204 0.2765977 0.2761704 0.27791 0.2838613 0.291247 0.3006775 0.3091619 0.3170359 0.3211866 0.3239028 0.3258255 0.328023 0.331258 0.3341879 0.3373314 0.3420619 0.3483489 0.3536593 0.3554904 0.3607703 0.3691632 0.379967 0.3896722 0.39718 0.4028566 0.4064274 0.4061527 0.4020631 0.3972105 0.3932125 0.3926936 0.3928462 0.39483 0.3995605 0.4064274 0.4146371 0.4201916 0.4240371 0.4266008 0.428493 0.4291949 0.4299884 0.4298968 0.4302326 0.4302326 0.4304462 0.4311176 0.4328877 0.4353293 0.4374962 0.4392358 0.4393884 0.4384728 0.4355735 0.4319722 0.4288287 0.4261735 0.424678 0.4237319 0.422267 0.4211988 0.4193676 0.4191845 0.4178722 0.4170787 0.4156443 0.4125618 0.4076482 0.3992859 0.3908319 0.3819508 0.3765183 0.3711774 0.3659281 0.3600378 0.3557346 0.3501495 0.346182 0.3410853 0.3379112 0.3354392 0.3325093 0.3315327 0.328847 0.3271989 0.3260087 0.3258561 0.3256119 0.3248794 0.3229872 0.3197522 0.3152048 0.3096197 0.302234 0.2953672 0.2861808 0.2790392 0.2672587 0.2576146 0.2467802 0.2412257 0.2372887 0.2358542 0.2353354 0.23384 0.23149 0.2279497 0.2207471 0.2041751 0.1806446 0.1588842 0.1359641 0.1158213 0.09613624 0.08026613 0.06552524 0.05215772 0.04104865 0.03354087 0.02725386 0.02069218 0.01355063 0.007751938 0.003418177 0.001220778 0.0003662333 0.0000305194 0.0001220778 0.0008850638 0.003174022 0.007721419 0.01449673 0.02136361 0.03033632 0.03958371 0.05136422 0.06192394 0.0723616 0.07925899 0.08585119 0.09207715 0.09915766 0.1054447 0.1113044 0.1156687 0.1203992 0.1250992 0.1309284 0.1356894 0.1451199 0.1549167 0.1681316 0.1802783 0.1936458 0.2061283 0.2200757 0.2323445 0.2422633 0.2509003 0.2588964 0.2680523 0.2761094 0.2825185 0.2876457 0.2916133 0.2960691 0.3011048 0.307636 0.3146554 0.3223463 0.3298541 0.3391015 0.3483184 0.3579015 0.36663 0.374382 0.3809437 0.3860404 0.3904352 0.395532 0.4019715 0.4096625 0.4188793 0.4272111 0.4336812 0.4391747 0.4449124 0.4516572 0.4576695 0.4636208 0.4672526 0.470915 0.4727461 0.4729903 0.4742721 0.4749435 0.4752182 0.4749435 0.4742721 0.4735702 0.4728377 0.4717085 0.4703046 0.4688091 0.4681072 0.4667948 0.4657572 0.4642007 0.4638955 0.4641702 0.4802234 0.5084844 0.5361961 0.5553012 0.563633 0.5686687 0.5710493 0.5713239 0.5684856 0.564396 0.559635 0.5534396 0.5459623 0.5369591 0.5287493 0.5186779 0.5096442 0.4980162 0.4869072 0.4735702 0.4626137 0.4514436 0.4408228 0.4304462 0.4198254 0.4087774 0.3953488 0.3783495 0.360343 0.3428554 0.3305561 0.3160593 0.3035769 0.2905146 0.2803516 0.2711042 0.2626198 0.2561497 0.251114 0.2484893 0.2462003 0.2435757 0.2407373 0.2365867 0.2333822 0.2306965 0.2288653 0.2263017 0.2236159 0.2210523 0.2191906
0 0 0 0 0 0 0 0 0 0 0 0 0 0 0 0 0 0 0 0 0 0 0 0 0 0 0 0 0 0 0 0 0 0 0 0 0 0 0 0 0 0 0 0 0 0 0 0 0 0 0 0 0 0 0 0 0 0 0 0 0 0 0 0 0 0 0 0 0 0 0 0 0 0 0 0 0 0 0 0 0 0 0 0 0 0 0 0 0 0 0 0 0 0 0 0 0 0 0 0 0 0 0 0 0 0 0 0 0 0 0 0 0 0 0 0 0 0 0 0 0 0 0 0 0 0 0 0 0 0 0 0 0 0 0 0 0 0 0 0 0 0 0 0 0 0 0 0 0 0 0 0 0 0 0 0 0 0 0 0 0 0 0 0 0 0 0 0 0 0 0 0 0 0 0 0 0 0 0 0 0 0 0 0 0 0 0 0 0 0.0000305194 0.0002441555 0.0008545443 0.002563633 0.005585058 0.01055973 0.0177318 0.02493438 0.03204541 0.03744736 0.04281878 0.05011292 0.05899408 0.06946225 0.07993042 0.0904291 0.1013856 0.1095038 0.1147226 0.1172557 0.1194836 0.1238479 0.1294329 0.1359336 0.1408777 0.1448147 0.1474394 0.1502777 0.1526582 0.1556797 0.1584264 0.1624245 0.1674907 0.1728621 0.1785692 0.1831166 0.1871757 0.1896478 0.190716 0.1913569 0.1926692 0.1966062 0.2025575 0.2112861 0.2207776 0.2275835 0.2313679 0.2347861 0.2374718 0.2415309 0.2440335 0.2476653 0.2530672 0.2592932 0.2666178 0.2733016 0.2769029 0.2783373 0.2781847 0.2776659 0.2775438 0.2764451 0.2747971 0.2727523 0.2718062 0.2725691 0.2767808 0.283312 0.2925899 0.3012574 0.309223 0.31316 0.3169749 0.3200879 0.3229262 0.3262833 0.3289385 0.3330892 0.3381554 0.3448086 0.3497833 0.3513703 0.3559482 0.3640054 0.3741683 0.3834462 0.391656 0.3981871 0.4019715 0.4007508 0.396417 0.3922358 0.3893975 0.3890008 0.3891229 0.3915644 0.3972411 0.4045352 0.4135995 0.4203748 0.4252274 0.4278826 0.4298053 0.4305378 0.4311787 0.4313312 0.4316365 0.431728 0.4320027 0.4332845 0.4358481 0.4390527 0.4412806 0.4428371 0.4420741 0.4401208 0.4358481 0.4314839 0.4280046 0.4259293 0.42538 0.4252579 0.4243118 0.4233046 0.4216261 0.4213514 0.4194592 0.4179332 0.4154612 0.411402 0.4056644 0.3969664 0.3888177 0.38073 0.3761521 0.37133 0.3664469 0.3612891 0.3578404 0.3531404 0.3494781 0.3446255 0.341543 0.3390405 0.3357749 0.3344015 0.331197 0.3291522 0.3277178 0.3269548 0.3263749 0.3255509 0.3239639 0.3208204 0.3157236 0.3094977 0.302173 0.295947 0.2881035 0.281847 0.2718367 0.2620094 0.2498932 0.2422633 0.2374412 0.2360374 0.2357932 0.234664 0.2327413 0.2296588 0.2228224 0.2063419 0.1843985 0.1661478 0.1486907 0.1312336 0.1101447 0.08859794 0.06909601 0.05426357 0.0445889 0.03842398 0.03286944 0.02664347 0.01889153 0.01190258 0.006164927 0.002380516 0.0008240249 0.0001525972 0.0003967527 0.001678569 0.005096747 0.01059025 0.01791491 0.0241714 0.03241165 0.04098761 0.05206617 0.06204602 0.07187328 0.07867911 0.08527131 0.09149729 0.09866935 0.1052615 0.1117012 0.1162485 0.1208265 0.124855 0.1299518 0.1345602 0.1446316 0.1551608 0.1681621 0.1803394 0.1940426 0.2075017 0.2227919 0.2350302 0.2453153 0.2532503 0.2612464 0.2698834 0.2776964 0.2837698 0.2882866 0.2920405 0.2965574 0.3019899 0.3089788 0.316395 0.3235061 0.3299152 0.337545 0.3459684 0.3550327 0.3639748 0.371971 0.3790514 0.3847586 0.3892144 0.3939144 0.3993469 0.4065189 0.4155527 0.4247085 0.4321858 0.4382897 0.4440273 0.4507721 0.4573033 0.4637429 0.4679851 0.4721663 0.4746078 0.4754624 0.4770494 0.4776292 0.4777818 0.477263 0.4766221 0.4761033 0.4755844 0.4746689 0.4737228 0.472441 0.4722578 0.4713728 0.4706403 0.4692669 0.4687786 0.4692974 0.4850455 0.5126961 0.5387292 0.5561557 0.563572 0.5685467 0.5717207 0.5731856 0.5715986 0.5679973 0.5631447 0.5564305 0.5480986 0.5378136 0.5287493 0.5186169 0.5102545 0.4994812 0.4882195 0.4743331 0.4623085 0.4504059 0.4391137 0.4286456 0.4180858 0.4064579 0.3920222 0.3731612 0.354056 0.3365379 0.3252457 0.3106574 0.2977782 0.2844717 0.2743698 0.2657633 0.2584386 0.2532808 0.2490386 0.2469328 0.2445523 0.2419581 0.2387231 0.2348471 0.2321004 0.2295672 0.2274309 0.224562 0.2220595 0.2198315 0.218153
0 0 0 0 0 0 0 0 0 0 0 0 0 0 0 0 0 0 0 0 0 0 0 0 0 0 0 0 0 0 0 0 0 0 0 0 0 0 0 0 0 0 0 0 0 0 0 0 0 0 0 0 0 0 0 0 0 0 0 0 0 0 0 0 0 0 0 0 0 0 0 0 0 0 0 0 0 0 0 0 0 0 0 0 0 0 0 0 0 0 0 0 0 0 0 0 0 0 0 0 0 0 0 0 0 0 0 0 0 0 0 0 0 0 0 0 0 0 0 0 0 0 0 0 0 0 0 0 0 0 0 0 0 0 0 0 0 0 0 0 0 0 0 0 0 0 0 0 0 0 0 0 0 0 0 0 0 0 0 0 0 0 0 0 0 0 0 0 0 0 0 0 0 0 0 0 0 0 0 0 0 0 0 0 0 0 0 0 0 0 0.0000915583 0.0002441555 0.0008850638 0.002288958 0.005035708 0.01010193 0.01651102 0.02423244 0.03112983 0.036898 0.04306293 0.05050968 0.06006226 0.07089666 0.08124276 0.09256546 0.1023012 0.1099615 0.1142648 0.1166453 0.1206128 0.1257096 0.1323018 0.1378563 0.1425868 0.1455777 0.1484771 0.1508881 0.153879 0.1566868 0.1601965 0.1649271 0.1701459 0.1760972 0.1808887 0.1853446 0.1883355 0.1896173 0.189953 0.1908076 0.1941036 0.1997192 0.2078679 0.21739 0.2242263 0.2281939 0.2315205 0.2339925 0.2382042 0.2411646 0.2450711 0.2504425 0.2564549 0.2639016 0.2704633 0.2743698 0.2757737 0.2754074 0.2742172 0.2738204 0.2729964 0.2720808 0.2707685 0.2701581 0.2702191 0.2725081 0.2765977 0.284075 0.2917964 0.2999145 0.3047976 0.3106574 0.3157236 0.3195385 0.3226821 0.324971 0.3300067 0.335195 0.3420924 0.3460599 0.3471586 0.3510346 0.3588781 0.3689801 0.3780138 0.3869865 0.3936397 0.397119 0.3953183 0.3918086 0.3888177 0.3871696 0.3866508 0.3870476 0.390069 0.3962339 0.4031313 0.4121956 0.4197644 0.4256852 0.4290728 0.4308429 0.4318806 0.4322163 0.4324605 0.432552 0.4331624 0.4341696 0.4364585 0.4396936 0.4427455 0.4447598 0.4449124 0.4427455 0.4388085 0.4341085 0.4299579 0.4276079 0.4263871 0.4267839 0.4268144 0.4258988 0.4248611 0.4231521 0.4221754 0.4193982 0.4172313 0.4138131 0.4094183 0.4033449 0.3953183 0.38778 0.3803638 0.3759385 0.3715742 0.3673625 0.3628761 0.3598242 0.3551547 0.3514314 0.3464567 0.3432827 0.340597 0.3372093 0.3355612 0.3324178 0.3305255 0.3292742 0.3285113 0.3276872 0.3267411 0.3251236 0.3217359 0.3159678 0.3091009 0.3020814 0.2963743 0.2893243 0.2835561 0.2750717 0.266099 0.2539523 0.2446133 0.2382958 0.236251 0.2358848 0.2347861 0.2332296 0.2303302 0.2234023 0.2066166 0.1853751 0.1694134 0.156229 0.1428615 0.1231459 0.0982726 0.07407068 0.05725447 0.04852591 0.04388696 0.03900385 0.03320515 0.02523958 0.01715193 0.01001038 0.004455838 0.001800647 0.0004577916 0.0007935055 0.002868827 0.007477263 0.01373375 0.02096686 0.02633828 0.03369346 0.04181163 0.05240188 0.06192394 0.07114082 0.07791613 0.08463041 0.09103949 0.09854727 0.1054752 0.1121895 0.1166453 0.1206433 0.1240005 0.1284868 0.1329732 0.1439297 0.1553134 0.1680706 0.1800952 0.194592 0.209638 0.2255387 0.2375328 0.2477873 0.2556614 0.2635354 0.2714094 0.2785509 0.2847159 0.2892632 0.2935055 0.2981749 0.30376 0.3106879 0.3181347 0.3246963 0.330373 0.3363853 0.3437099 0.3514314 0.3597632 0.3674541 0.3748093 0.3811268 0.386193 0.3908014 0.3954709 0.4016969 0.4102728 0.4200696 0.4287981 0.4360923 0.4420741 0.4488494 0.4558384 0.4625221 0.4673442 0.4718611 0.474913 0.4763474 0.4785143 0.4794909 0.479552 0.478789 0.4778123 0.4772325 0.4768663 0.4765 0.4760728 0.475615 0.4761033 0.4759202 0.4757981 0.4743331 0.4738143 0.4745468 0.4899591 0.5161753 0.540835 0.5571324 0.5643045 0.5685772 0.5715986 0.5739486 0.5738266 0.5713239 0.5667765 0.5597876 0.5504792 0.5389428 0.5286577 0.5179454 0.5098883 0.4997558 0.4891046 0.4750046 0.4619423 0.4489715 0.4369774 0.426265 0.4151865 0.4025209 0.387017 0.36663 0.347647 0.330373 0.3197827 0.3046756 0.2910944 0.2780016 0.2686321 0.2610633 0.2549594 0.2508393 0.2471464 0.2452237 0.2427211 0.240249 0.2367698 0.2332296 0.2305744 0.2281939 0.2257523 0.2229445 0.2205945 0.2186718 0.2170237
0 0 0 0 0 0 0 0 0 0 0 0 0 0 0 0 0 0 0 0 0 0 0 0 0 0 0 0 0 0 0 0 0 0 0 0 0 0 0 0 0 0 0 0 0 0 0 0 0 0 0 0 0 0 0 0 0 0 0 0 0 0 0 0 0 0 0 0 0 0 0 0 0 0 0 0 0 0 0 0 0 0 0 0 0 0 0 0 0 0 0 0 0 0 0 0 0 0 0 0 0 0 0 0 0 0 0 0 0 0 0 0 0 0 0 0 0 0 0 0 0 0 0 0 0 0 0 0 0 0 0 0 0 0 0 0 0 0 0 0 0 0 0 0 0 0 0 0 0 0 0 0 0 0 0 0 0 0 0 0 0 0 0 0 0 0 0 0 0 0 0 0 0 0 0 0 0 0 0 0 0 0 0 0 0 0 0 0 0 0 0 0.0000305194 0.0002136361 0.000762986 0.001953244 0.004761033 0.009064274 0.01535128 0.02267594 0.02945126 0.03634866 0.04330709 0.05151682 0.06167979 0.07162913 0.08313496 0.09381676 0.1032473 0.1093817 0.1124031 0.1159128 0.1203687 0.1267778 0.1330648 0.1386193 0.1423122 0.1453946 0.1478362 0.150766 0.1537264 0.1569005 0.1613563 0.1662089 0.1721602 0.1771348 0.1819874 0.1854361 0.1871147 0.1874199 0.1878777 0.1904413 0.1955381 0.203229 0.212751 0.2200146 0.2247452 0.2284685 0.2312458 0.2357322 0.2391503 0.2433315 0.2482146 0.2534334 0.2600562 0.2664958 0.2708295 0.2726607 0.272325 0.2707685 0.2701581 0.2699139 0.2700665 0.2697308 0.2695172 0.269212 0.2698834 0.271623 0.2763535 0.2821828 0.2893853 0.2950925 0.3028139 0.310108 0.3154184 0.319447 0.3222243 0.3279314 0.3329976 0.3393151 0.342245 0.343008 0.3463956 0.3542086 0.3647684 0.374443 0.3838125 0.3895196 0.3922969 0.3904963 0.3882988 0.3865287 0.3855826 0.3849417 0.3856437 0.3892755 0.3955014 0.4019715 0.4102118 0.4182689 0.4250748 0.4297748 0.4316975 0.4327351 0.4329488 0.4333761 0.4335287 0.4348105 0.4369163 0.4401208 0.4434475 0.4456144 0.4464384 0.4449734 0.4411585 0.436367 0.4316365 0.428615 0.4274248 0.4274858 0.428554 0.4281878 0.4271501 0.42538 0.4238845 0.4220839 0.4191845 0.4165293 0.412867 0.4084417 0.402704 0.3955014 0.3882683 0.3815235 0.3772813 0.373558 0.3695294 0.3652872 0.361808 0.3567112 0.3523164 0.3472197 0.3436794 0.3409021 0.3373009 0.3356223 0.3328145 0.3313801 0.3306476 0.3301288 0.3292742 0.3282976 0.326497 0.32256 0.3159983 0.3086431 0.3020204 0.2967405 0.2901483 0.2845633 0.2769944 0.2690594 0.2576451 0.2478789 0.2402185 0.237014 0.2360679 0.2347861 0.233138 0.2298419 0.2223036 0.2054569 0.1852225 0.1710615 0.1603491 0.1497284 0.1323018 0.1074589 0.08075444 0.06146615 0.05215772 0.04825123 0.04471098 0.03988891 0.03244217 0.02383568 0.01529024 0.008026613 0.003784411 0.001312336 0.00161753 0.004608436 0.01013245 0.01660258 0.02328633 0.02792529 0.03454801 0.0423915 0.05249344 0.06152719 0.07034731 0.07721418 0.08453885 0.09119209 0.09863883 0.10517 0.1118232 0.1161265 0.1198804 0.1228407 0.1268388 0.1313252 0.1430446 0.1552219 0.1676738 0.1803088 0.1955991 0.2121712 0.2281633 0.2399133 0.2500763 0.2584081 0.2659464 0.2727217 0.2789172 0.2852957 0.2908808 0.2968016 0.3025392 0.3080632 0.3141366 0.3204236 0.3261918 0.3308308 0.3352561 0.340597 0.3466703 0.3543918 0.3620827 0.3696209 0.3764878 0.3824086 0.3873527 0.3919612 0.3970884 0.4044741 0.4139657 0.4240371 0.4328267 0.4397241 0.4465299 0.4540072 0.4609656 0.4665202 0.4712507 0.4746078 0.476439 0.4789111 0.480437 0.4809559 0.4804676 0.4792468 0.4783007 0.4775987 0.477202 0.4769883 0.4767137 0.4775682 0.4782091 0.4790942 0.4786364 0.4790026 0.4807422 0.4961545 0.5203565 0.5433071 0.5582616 0.5651285 0.5685467 0.5713239 0.573796 0.5747421 0.5734908 0.5699811 0.5633584 0.5536532 0.5404382 0.5287188 0.5172435 0.5090337 0.499237 0.4891351 0.4749741 0.4613014 0.4469877 0.4344442 0.4226332 0.4107001 0.396356 0.3803028 0.3597021 0.3419703 0.3248794 0.3144418 0.2979003 0.2840139 0.2716535 0.2633522 0.2569432 0.251938 0.2483367 0.2452542 0.2435757 0.2408594 0.2382653 0.2346029 0.2316426 0.2290789 0.2265763 0.2238296 0.2214491 0.2194043 0.2176952 0.2159556
0 0 0 0 0 0 0 0 0 0 0 0 0 0 0 0 0 0 0 0 0 0 0 0 0 0 0 0 0 0 0 0 0 0 0 0 0 0 0 0 0 0 0 0 0 0 0 0 0 0 0 0 0 0 0 0 0 0 0 0 0 0 0 0 0 0 0 0 0 0 0 0 0 0 0 0 0 0 0 0 0 0 0 0 0 0 0 0 0 0 0 0 0 0 0 0 0 0 0 0 0 0 0 0 0 0 0 0 0 0 0 0 0 0 0 0 0 0 0 0 0 0 0 0 0 0 0 0 0 0 0 0 0 0 0 0 0 0 0 0 0 0 0 0 0 0 0 0 0 0 0 0 0 0 0 0 0 0 0 0 0 0 0 0 0 0 0 0 0 0 0 0 0 0 0 0 0 0 0 0 0 0 0 0 0 0 0 0 0 0 0 0 0.0000305194 0.0000915583 0.0003967527 0.001464933 0.003784411 0.007782457 0.01400842 0.0208753 0.028261 0.03531099 0.04260514 0.05206617 0.06195446 0.07318562 0.08463041 0.09534273 0.1038577 0.1084966 0.1118843 0.1155771 0.1211317 0.1275713 0.1336446 0.1382836 0.1416407 0.144357 0.1469511 0.150003 0.1528108 0.156992 0.1614784 0.167216 0.1726485 0.1778673 0.1819874 0.1843069 0.1849783 0.185253 0.1872368 0.1918147 0.1989257 0.2082647 0.2161082 0.2216627 0.2259049 0.2288958 0.2332296 0.2368614 0.2411036 0.2458646 0.2501678 0.2560276 0.2618263 0.26616 0.2680828 0.2682048 0.2671367 0.2672282 0.2679912 0.2691204 0.2694256 0.2691815 0.2680217 0.2670756 0.2668315 0.2695477 0.2738509 0.2800159 0.2860587 0.2948788 0.3036379 0.3105658 0.3159983 0.32021 0.3264665 0.3310749 0.3363548 0.3381554 0.338369 0.3416041 0.3501495 0.3616554 0.3715742 0.3801196 0.3846365 0.3866813 0.3861015 0.3858878 0.3851859 0.3842703 0.3837209 0.3849722 0.3890313 0.3946469 0.4005066 0.4077092 0.4161021 0.4236709 0.4298053 0.4319111 0.4331929 0.4334676 0.4344137 0.4351157 0.4372826 0.4401819 0.4436306 0.4460416 0.4464994 0.4455228 0.4423488 0.4377098 0.4331624 0.4297442 0.4285845 0.4286761 0.4296222 0.4306598 0.4297442 0.4288897 0.4268449 0.4253189 0.4225722 0.419215 0.4159495 0.4123176 0.4085638 0.403528 0.397119 0.3899774 0.3837515 0.3798755 0.3764573 0.3724898 0.3678508 0.3640359 0.3583593 0.3536898 0.348471 0.3447476 0.341482 0.337484 0.3353476 0.3327229 0.3316242 0.331258 0.3310444 0.3306171 0.3299457 0.328145 0.3236587 0.3164866 0.3087347 0.3020509 0.2968626 0.2907282 0.2851431 0.277849 0.2706464 0.2606971 0.2514497 0.2430263 0.2384179 0.2363731 0.2347861 0.2329244 0.2289568 0.220503 0.2034121 0.1843679 0.1717329 0.1622108 0.1521699 0.1368492 0.1149362 0.08914728 0.06827199 0.05624733 0.05142526 0.04861747 0.04544345 0.03952268 0.03128242 0.02218763 0.01336752 0.007019471 0.003204541 0.003021425 0.006653238 0.01278765 0.01913569 0.02514802 0.02908503 0.03509736 0.04275773 0.05234084 0.0610694 0.06958432 0.07672587 0.08456937 0.09116157 0.09836416 0.104407 0.1109687 0.115333 0.1189343 0.1215895 0.1253128 0.1296771 0.1419459 0.1548556 0.1675212 0.1811329 0.1969114 0.2147653 0.2306659 0.2430874 0.2530977 0.2613074 0.2682964 0.2749496 0.2815113 0.2889276 0.2954282 0.3018983 0.3070866 0.3118171 0.3167918 0.3219801 0.3270158 0.3314717 0.335134 0.3391015 0.3435879 0.3496307 0.3566807 0.3640969 0.3716352 0.3782885 0.3839956 0.3889092 0.3933651 0.399469 0.4078313 0.4181163 0.4282793 0.4366722 0.4439663 0.4518708 0.4590124 0.4653299 0.4704266 0.4741805 0.4763474 0.4789111 0.4808338 0.4818409 0.4816883 0.4806201 0.4793994 0.4783617 0.4776598 0.4774461 0.4773546 0.4783007 0.4793689 0.4809559 0.4814747 0.4826039 0.4852896 0.5007325 0.5238662 0.5459318 0.5602454 0.5669291 0.5696759 0.5715986 0.5737044 0.5748642 0.5741928 0.5720564 0.5662577 0.5567051 0.5424525 0.5295428 0.5169688 0.5076909 0.4979247 0.4879448 0.4741805 0.4602637 0.4448819 0.4309345 0.4172007 0.4032229 0.3879021 0.3729476 0.353934 0.3370567 0.3190807 0.307697 0.2899957 0.2765977 0.2655802 0.2590185 0.2536776 0.249588 0.2462308 0.2436062 0.241775 0.2389062 0.2362815 0.2327107 0.2300555 0.2272783 0.2246841 0.2220595 0.2202283 0.2183056 0.216627 0.2148874
0 0 0 0 0 0 0 0 0 0 0 0 0 0 0 0 0 0 0 0 0 0 0 0 0 0 0 0 0 0 0 0 0 0 0 0 0 0 0 0 0 0 0 0 0 0 0 0 0 0 0 0 0 0 0 0 0 0 0 0 0 0 0 0 0 0 0 0 0 0 0 0 0 0 0 0 0 0 0 0 0 0 0 0 0 0 0 0 0 0 0 0 0 0 0 0 0 0 0 0 0 0 0 0 0 0 0 0 0 0 0 0 0 0 0 0 0 0 0 0 0 0 0 0 0 0 0 0 0 0 0 0 0 0 0 0 0 0 0 0 0 0 0 0 0 0 0 0 0 0 0 0 0 0 0 0 0 0 0 0 0 0 0 0 0 0 0 0 0 0 0 0 0 0 0 0 0 0 0 0 0 0 0 0 0 0 0 0 0 0 0 0 0 0.0000305194 0.0000915583 0.0004272722 0.001281817 0.002960386 0.00656168 0.01165843 0.01812855 0.02557529 0.03289996 0.04175059 0.05173045 0.06283953 0.07495575 0.08600378 0.09631936 0.1031252 0.1077031 0.1111823 0.1155771 0.121681 0.127907 0.1334615 0.137307 0.1404199 0.1428615 0.145944 0.1485992 0.1524446 0.1564427 0.1619056 0.1674602 0.1730452 0.1778063 0.1807666 0.1821095 0.1824147 0.1839407 0.1878777 0.1946225 0.2037783 0.2123543 0.2187328 0.223677 0.2270036 0.2311237 0.2344809 0.2382653 0.2427821 0.2459867 0.2506867 0.2552951 0.2601477 0.2630166 0.2646951 0.2649087 0.2657022 0.2668925 0.2681743 0.268449 0.2673503 0.2651224 0.2633217 0.2625893 0.2647867 0.2681743 0.2729964 0.2781847 0.286425 0.2954892 0.3039431 0.3112372 0.3172191 0.3237197 0.3278093 0.3321431 0.333608 0.3340353 0.3376366 0.3474028 0.3596411 0.3690411 0.3759995 0.3792956 0.3811878 0.3824086 0.3835378 0.3836599 0.3830495 0.3832937 0.3850332 0.3889703 0.3937313 0.3991332 0.4053592 0.4135079 0.4211683 0.4284319 0.4313312 0.4337118 0.4348715 0.4360007 0.4369774 0.4389611 0.4419215 0.4445462 0.445889 0.4448209 0.4426845 0.4388085 0.4347189 0.4316975 0.4298358 0.4300494 0.430904 0.4322468 0.4326436 0.4313007 0.4299579 0.4273332 0.4251053 0.4213514 0.4181163 0.4150644 0.4125923 0.4094793 0.4045352 0.3977599 0.3905878 0.3850943 0.381493 0.3781359 0.3741073 0.3689801 0.3649209 0.3591833 0.3546664 0.3496917 0.3459989 0.3425502 0.338247 0.3358359 0.3333333 0.3322346 0.3318074 0.3315327 0.331197 0.3308308 0.328847 0.3243911 0.3172801 0.3096808 0.3030275 0.2976256 0.2916438 0.2859672 0.2785509 0.2718672 0.263749 0.255936 0.2478484 0.241836 0.2385705 0.2361289 0.2336874 0.228377 0.2186107 0.2015809 0.1838796 0.1723738 0.1630654 0.1518647 0.1369102 0.11927 0.09781481 0.07770249 0.06305316 0.05484343 0.05112007 0.04870903 0.04471098 0.03821034 0.0296649 0.02044803 0.01217726 0.006592199 0.00543246 0.009186352 0.0153818 0.02121101 0.02649087 0.02984801 0.03546359 0.04297137 0.05200513 0.06039798 0.06891289 0.07654276 0.084783 0.09094793 0.09766221 0.1032168 0.1096869 0.1141427 0.117805 0.1205518 0.1238784 0.127968 0.1405725 0.1543368 0.1677959 0.1827809 0.1989562 0.2176952 0.2336568 0.2470244 0.2566075 0.2642678 0.2711042 0.2782152 0.2852652 0.2929561 0.299762 0.3064152 0.3114814 0.3153574 0.3193554 0.323384 0.3278703 0.3316853 0.3349814 0.3381859 0.3416041 0.3460905 0.3520418 0.3587255 0.3661417 0.3731612 0.3795703 0.3852164 0.3898553 0.3951047 0.4020631 0.4116462 0.422328 0.4323079 0.4407007 0.4491851 0.4567234 0.4638955 0.4694195 0.4735091 0.4760422 0.4786364 0.4808033 0.4821766 0.4825734 0.4819935 0.4807728 0.4793994 0.4781786 0.4776598 0.4773851 0.4781786 0.4794299 0.4814747 0.4829701 0.4851065 0.4889214 0.5049747 0.5270097 0.5480681 0.5618019 0.568211 0.5708967 0.5723311 0.5741012 0.5751694 0.5747116 0.5733687 0.5681804 0.5590551 0.5443142 0.5305194 0.5172435 0.5066838 0.4959409 0.4852591 0.4719526 0.4581273 0.4416468 0.4257767 0.4095404 0.3939449 0.3789294 0.3656839 0.3483184 0.3314717 0.312336 0.3001282 0.2823048 0.270036 0.2608802 0.2556309 0.2509614 0.247299 0.2440335 0.241836 0.2398828 0.2371666 0.2344198 0.2308185 0.2281328 0.2252029 0.2228224 0.2205945 0.218977 0.2170237 0.2155588 0.2140328
0 0 0 0 0 0 0 0 0 0 0 0 0 0 0 0 0 0 0 0 0 0 0 0 0 0 0 0 0 0 0 0 0 0 0 0 0 0 0 0 0 0 0 0 0 0 0 0 0 0 0 0 0 0 0 0 0 0 0 0 0 0 0 0 0 0 0 0 0 0 0 0 0 0 0 0 0 0 0 0 0 0 0 0 0 0 0 0 0 0 0 0 0 0 0 0 0 0 0 0 0 0 0 0 0 0 0 0 0 0 0 0 0 0 0 0 0 0 0 0 0 0 0 0 0 0 0 0 0 0 0 0 0 0 0 0 0 0 0 0 0 0 0 0 0 0 0 0 0 0 0 0 0 0 0 0 0 0 0 0 0 0 0 0 0 0 0 0 0 0 0 0 0 0 0 0 0 0 0 0 0 0 0 0 0 0 0 0 0 0 0 0 0 0 0 0.0000305194 0.0003357138 0.0009461027 0.002533114 0.005371422 0.009552585 0.01550388 0.02209608 0.02984801 0.03927852 0.04980773 0.0624733 0.07492523 0.0872856 0.09705182 0.1036745 0.1078252 0.1112434 0.1166148 0.1224135 0.1285479 0.1327901 0.1361777 0.1385888 0.1415187 0.1441433 0.1477141 0.1513764 0.1563816 0.1620277 0.1678569 0.1734115 0.1774705 0.1798205 0.1806751 0.1819264 0.1852225 0.1913569 0.200116 0.2091497 0.2158335 0.2209913 0.2239517 0.2278276 0.2308185 0.2343893 0.2385705 0.2414698 0.2453763 0.2492218 0.2543185 0.2582555 0.2618568 0.2633828 0.2646036 0.2656107 0.2663737 0.2660685 0.2640847 0.2609107 0.2588354 0.2582555 0.2608497 0.2640237 0.2683575 0.2730269 0.2805957 0.2888665 0.2971067 0.3048892 0.3115119 0.3180431 0.3215834 0.32491 0.3262223 0.3274431 0.3326009 0.3441983 0.3570469 0.3653787 0.3706281 0.373619 0.3758164 0.3786852 0.3808521 0.3818898 0.3819813 0.3833242 0.3855521 0.3889092 0.3927852 0.3975767 0.4032229 0.4106391 0.4177196 0.4253189 0.4296222 0.4331624 0.4352683 0.4360618 0.4375572 0.4394494 0.4420436 0.4437222 0.4439053 0.4421351 0.4397852 0.436367 0.4334066 0.4316365 0.4312092 0.4320942 0.4331319 0.4338338 0.4338033 0.4322163 0.4302631 0.4269059 0.423854 0.4198254 0.4170176 0.4145761 0.412867 0.4097235 0.4043826 0.3973936 0.3907404 0.3858268 0.3822865 0.3785937 0.3743515 0.368919 0.3648294 0.3593969 0.3553379 0.3507904 0.3471892 0.3437405 0.3394067 0.3369041 0.3345846 0.3333944 0.3327534 0.3322346 0.3317158 0.3310139 0.3288775 0.3250015 0.3188976 0.3121223 0.3054386 0.2999756 0.2941464 0.2879204 0.2803821 0.2737289 0.2669536 0.2604224 0.2533724 0.2465666 0.2422633 0.2384179 0.2347555 0.2280718 0.2173289 0.2006653 0.1842153 0.1731063 0.1630043 0.1506134 0.1361472 0.1223524 0.1057804 0.08817066 0.07202588 0.0602759 0.05398889 0.05066227 0.04767137 0.04315449 0.03631813 0.02813892 0.01910517 0.0122383 0.009583104 0.01236037 0.01779283 0.02264543 0.02740646 0.03042788 0.03573827 0.04312397 0.05169993 0.06015382 0.06866874 0.0762986 0.08432522 0.09006287 0.09644143 0.1016603 0.1079473 0.1126473 0.1166148 0.1195446 0.1225356 0.1262894 0.1390771 0.1536959 0.1685283 0.1851309 0.2017945 0.2208387 0.2371971 0.2515412 0.2607886 0.2680828 0.2751938 0.2833425 0.2915827 0.298999 0.3047976 0.310047 0.3143197 0.3176463 0.3210035 0.3242385 0.3281145 0.3318684 0.3350729 0.3378807 0.340658 0.3439236 0.3483794 0.3540255 0.3610145 0.3684612 0.3753586 0.3818592 0.3871696 0.3922664 0.3978514 0.4053897 0.415278 0.4261735 0.4361838 0.445889 0.4540072 0.4618202 0.4680767 0.4726851 0.475676 0.4783007 0.4805896 0.4821156 0.482726 0.4825734 0.4818715 0.4808033 0.4794299 0.4783617 0.4776598 0.4780565 0.4791552 0.4812611 0.4834585 0.4862357 0.4909662 0.5070805 0.5286577 0.5492278 0.5633584 0.5705304 0.5731856 0.5739486 0.5744674 0.575322 0.5748337 0.5741622 0.568974 0.5603064 0.5457181 0.5316486 0.5178233 0.5055851 0.4937435 0.4815052 0.4679851 0.4538546 0.4363059 0.4177501 0.3993469 0.3833242 0.3706891 0.3594885 0.3433437 0.325673 0.305286 0.2926204 0.2752243 0.2643594 0.2568821 0.2524873 0.2482757 0.2450101 0.2420497 0.2400659 0.237899 0.2352439 0.232314 0.2288653 0.2259965 0.2231582 0.2209608 0.2193127 0.2177867 0.2159556 0.2146127 0.2132393
