0.3449307 0.3470671 0.3481353 0.3511262 0.3553379 0.3556125 0.3560703 0.3579625 0.3605872 0.3621437 0.3616249 0.3654093 0.3706891 0.3706891 0.369743 0.3691326 0.3771287 0.3807911 0.3801196 0.3791735 0.3769151 0.3741378 0.371269 0.3714216 0.3735885 0.3739852 0.373558 0.3695599 0.3661723 0.3673015 0.3700177 0.3734664 0.3785326 0.3859488 0.3927547 0.3983397 0.4060307 0.4107917 0.41598 0.4195813 0.4178417 0.4140267 0.4119514 0.4097845 0.4086553 0.4083196 0.4071293 0.4056949 0.4029787 0.4010254 0.3962339 0.3917475 0.3876885 0.3820118 0.3766404 0.3712995 0.3668437 0.3639748 0.3603736 0.3554294 0.3506073 0.3456632 0.3394677 0.3355612 0.3309833 0.3239639 0.3192944 0.3129463 0.3012574 0.2874931 0.2762925 0.2731795 0.2658548 0.2580419 0.2556003 0.2586828 0.2571568 0.2555698 0.2567295 0.2566685 0.2544101 0.2530977 0.2530672 0.2519075 0.2493743 0.2443081 0.2434536 0.2467192 0.2455594 0.2425075 0.2404627 0.2368919 0.2347555 0.2310322 0.2276445 0.2219069 0.2143075 0.2071049 0.2009095 0.1971556 0.1943783 0.1927303 0.1916011 0.1890679 0.1835439 0.178203 0.1728926 0.1647134 0.1580907 0.1530855 0.1509186 0.1465238 0.1427089 0.1398706 0.1348959 0.1268083 0.1190563 0.1143258 0.1100531 0.1054752 0.09866935 0.09271806 0.08530184 0.07831289 0.07071354 0.06329732 0.05636941 0.04883111 0.04382592 0.03647073 0.03048892 0.02459867 0.02050906 0.01495453 0.01086492 0.01132271 0.01010193 0.01181102 0.01266557 0.01300128 0.01257401 0.0131844 0.01400842 0.0152292 0.01590063 0.01712141 0.01806751 0.01822011 0.0175792 0.01736556 0.01828115 0.01870842 0.01806751 0.01822011 0.01953244 0.02130257 0.02252335 0.02414088 0.02697919 0.03015321 0.0326558 0.03183178 0.02887139 0.02670451 0.02639932 0.02862724 0.03204541 0.03354087 0.03323567 0.03174022 0.03161814 0.03467008 0.03802722 0.04083501 0.03879021 0.03631813 0.03357138 0.03253372 0.03225905 0.0314045 0.03012269 0.02853568 0.02859672 0.03067204 0.0326558 0.03326619 0.03225905 0.03131295 0.03216749 0.03476164 0.03711164 0.03534151 0.03088567 0.02688763 0.02627724 0.02658243 0.02658243 0.02465971 0.02331685 0.02353049 0.02575841 0.0295123 0.03219801 0.03467008 0.03772203 0.04086553 0.04022462 0.03518891 0.02963438 0.02545321 0.0240188 0.02295062 0.02282854 0.02328633 0.02371361 0.02365257 0.02349997 0.02325581 0.02322529 0.02234023 0.02105841 0.01941036 0.01870842 0.01861686 0.01809803 0.01712141 0.01596167 0.01660258 0.01840322 0.01879998 0.01788439 0.01629738 0.01629738 0.01782335 0.02035647 0.02334737 0.02551425 0.02734542 0.02743698 0.02646036 0.02444607 0.02298114 0.02227919 0.02160776 0.02084478 0.02102789 0.02267594 0.02594152 0.02945126 0.03347982 0.03741683 0.04278826 0.04925838 0.05658304 0.06329732 0.06897394 0.07523042 0.08267716 0.09253494 0.1025453 0.112983 0.120796 0.1285784 0.1347128 0.1410303 0.1458829 0.1502472 0.1531771 0.1556186 0.1578465 0.1603797 0.1640725 0.167918 0.1723128 0.1763108 0.1798816 0.1841848 0.1893121 0.193951 0.1983153 0.2014588 0.203229 0.2057621 0.2093328 0.21269 0.2185802 0.2236159 0.2271562 0.231551 0.2343588
0.3387963 0.3408411 0.3424586 0.3459073 0.3486236 0.3501495 0.3513703 0.3531099 0.3548801 0.3561924 0.3564976 0.3580541 0.3602515 0.3633339 0.3637612 0.3622658 0.369682 0.37603 0.3783495 0.3785937 0.3748398 0.369743 0.366569 0.3683696 0.3716963 0.3736495 0.3754807 0.3740157 0.3706586 0.3687969 0.370506 0.3738326 0.377617 0.3843008 0.3905878 0.3961729 0.4045352 0.409693 0.4143625 0.4168345 0.4140573 0.4107611 0.4093267 0.4077702 0.4070683 0.4060307 0.4037112 0.4020631 0.3998047 0.3985229 0.3934872 0.3890313 0.3851248 0.3792956 0.3735274 0.3688885 0.3643411 0.3614722 0.358695 0.3545443 0.3498138 0.3443508 0.3373619 0.3338522 0.3284197 0.3209119 0.3152353 0.3080938 0.2987548 0.2866081 0.277025 0.2737289 0.2655497 0.2581029 0.2556614 0.257523 0.2568516 0.2554782 0.2544406 0.2543185 0.2529146 0.2502594 0.248764 0.2475432 0.2466581 0.2431789 0.2408289 0.2431179 0.2451932 0.2428432 0.239425 0.2358542 0.233962 0.2302387 0.2266068 0.2219679 0.2147348 0.207166 0.2002686 0.1939816 0.1896783 0.1871757 0.1867179 0.1850089 0.179729 0.1760667 0.1720991 0.1650186 0.1582738 0.1523836 0.1501251 0.1464933 0.1424037 0.1400232 0.1367881 0.1293109 0.1204908 0.1150278 0.1108771 0.1077336 0.1013245 0.09543429 0.08786547 0.08087651 0.07339925 0.06528109 0.05768174 0.0492889 0.04400903 0.03616554 0.02990905 0.02426296 0.02026491 0.01455777 0.01025453 0.01077336 0.00927791 0.01104804 0.01211622 0.01260453 0.01205518 0.01272661 0.01364219 0.01480193 0.01556491 0.01666361 0.01779283 0.01788439 0.01709089 0.01684673 0.01748764 0.01788439 0.0174266 0.01764024 0.01895257 0.02032595 0.02130257 0.02240127 0.02523958 0.02917659 0.03247268 0.0326558 0.02975645 0.02609412 0.02407984 0.02514802 0.02795581 0.02969542 0.030611 0.03018373 0.03024477 0.03262528 0.03540255 0.03766099 0.03558567 0.03384606 0.03213697 0.03247268 0.0328084 0.03213697 0.03042788 0.02859672 0.02874931 0.03112983 0.032961 0.03347982 0.03253372 0.03158762 0.03192334 0.03409021 0.03637917 0.03467008 0.02990905 0.02536166 0.02438503 0.02530062 0.02603308 0.0249649 0.02380516 0.02340841 0.02514802 0.02835256 0.03137399 0.03463957 0.03833242 0.04117072 0.04001099 0.03479216 0.02926814 0.02514802 0.02371361 0.02252335 0.02261491 0.02337789 0.02365257 0.02368309 0.02304218 0.0227675 0.02273698 0.02191296 0.0207227 0.01898309 0.01806751 0.01806751 0.01782335 0.01739608 0.01635842 0.01675517 0.01797595 0.01828115 0.01724348 0.01669413 0.01806751 0.02093634 0.02319477 0.02523958 0.0260636 0.02725386 0.02728438 0.02652139 0.02475127 0.02362205 0.02316426 0.02298114 0.02270646 0.02334737 0.02520906 0.02881035 0.03247268 0.03656229 0.04089605 0.04666422 0.0536837 0.06030641 0.06601355 0.07062198 0.07577977 0.08218885 0.09076482 0.09961545 0.1088934 0.1161875 0.124031 0.1308979 0.1375816 0.1428615 0.1468901 0.1495453 0.1517121 0.1544284 0.1571751 0.1610511 0.164805 0.1687115 0.1724959 0.175914 0.1802478 0.1856498 0.1904413 0.1952024 0.198651 0.2004212 0.2030458 0.206464 0.2094854 0.2149789 0.2194958 0.2225478 0.2267289 0.2294757
0.3321736 0.3350424 0.3373619 0.339895 0.341543 0.3446866 0.3466703 0.3475249 0.3482573 0.3493255 0.3509736 0.3524995 0.353934 0.3548801 0.3558567 0.3562534 0.3605261 0.3661723 0.3709943 0.3765183 0.3757859 0.3691021 0.3645853 0.3654703 0.3701093 0.372093 0.3738937 0.3756638 0.3742294 0.3715132 0.3716657 0.3738937 0.3767014 0.3824086 0.3885125 0.3933956 0.4018495 0.4071293 0.41128 0.4125923 0.4102728 0.4077092 0.4067631 0.4062748 0.405756 0.4045352 0.4020631 0.3987975 0.3961729 0.3945248 0.3906794 0.3868339 0.38308 0.3776781 0.3714216 0.3671794 0.3626015 0.3588171 0.3557041 0.3527132 0.3485015 0.3434658 0.3362021 0.3316853 0.3266801 0.3204541 0.312336 0.3039736 0.2965574 0.285723 0.277086 0.2730879 0.2649393 0.2588049 0.2565769 0.2564549 0.2555088 0.254349 0.2514497 0.2510529 0.2498627 0.2474822 0.2455899 0.2440029 0.244125 0.2431789 0.2406458 0.2401575 0.2427821 0.2423854 0.2390893 0.2352744 0.2332906 0.2288958 0.224562 0.221388 0.2149789 0.2077458 0.2000549 0.1921199 0.1874199 0.1843069 0.1831472 0.1814076 0.1762803 0.1720381 0.1691387 0.163218 0.1568089 0.1505219 0.148355 0.1466764 0.1431362 0.1400537 0.1360251 0.1299823 0.1218946 0.1156687 0.1113044 0.1089849 0.1033693 0.09760118 0.08991027 0.08307391 0.07574925 0.06741744 0.05932979 0.05026552 0.04425319 0.03598242 0.02969542 0.02404932 0.02026491 0.01474089 0.01031557 0.01080388 0.008820118 0.01016297 0.01120063 0.01181102 0.01174998 0.01251297 0.01379479 0.01504608 0.01541232 0.01620582 0.01736556 0.01770128 0.01712141 0.01660258 0.01709089 0.01785387 0.01785387 0.01800647 0.01904413 0.02029543 0.02108893 0.02179088 0.02411036 0.02792529 0.03222853 0.03363242 0.03116035 0.02679607 0.02377464 0.02377464 0.02630776 0.02813892 0.02960386 0.02972594 0.02990905 0.03146555 0.03378502 0.03598242 0.03442593 0.03308307 0.03134347 0.03289996 0.03412073 0.03384606 0.03134347 0.02893243 0.02871879 0.0317097 0.03393762 0.03482268 0.0336019 0.03213697 0.0317097 0.03347982 0.03607398 0.03518891 0.03033632 0.02469023 0.02264543 0.02325581 0.02423244 0.02414088 0.02322529 0.02295062 0.02420192 0.02697919 0.03006165 0.03357138 0.03711164 0.03979735 0.03857657 0.0336019 0.02807789 0.02414088 0.02258439 0.02160776 0.02172984 0.02230971 0.02246231 0.02243179 0.02160776 0.02154673 0.0216688 0.02142465 0.02035647 0.01849478 0.01764024 0.01776231 0.01791491 0.01754868 0.01678569 0.01706037 0.01782335 0.01815907 0.01776231 0.01883049 0.02121101 0.02414088 0.02548373 0.02655191 0.02649087 0.02710126 0.02676555 0.02603308 0.02462919 0.0240188 0.02426296 0.02490386 0.0251175 0.02618568 0.02823048 0.03174022 0.03561619 0.0395532 0.04446682 0.05057071 0.0576207 0.06366356 0.06818043 0.07230055 0.0767564 0.08255509 0.08997131 0.09741805 0.1053836 0.1121589 0.1195752 0.1268693 0.133431 0.1390771 0.1430751 0.1457303 0.1477446 0.1505524 0.1533602 0.1574193 0.1611426 0.1647745 0.1685589 0.1720991 0.1765855 0.1822011 0.1867179 0.1915095 0.1950803 0.1972166 0.200116 0.2038393 0.2065861 0.211988 0.2159861 0.2187328 0.2224867 0.2251114
0.3283892 0.3311054 0.3331197 0.3352255 0.3364768 0.3403528 0.343008 0.3435879 0.3430385 0.3437099 0.3460294 0.347708 0.349356 0.3497528 0.3507294 0.3522249 0.3542086 0.3581762 0.3638833 0.3738326 0.3776781 0.3721846 0.365806 0.3640969 0.3697735 0.3711469 0.3715437 0.3769456 0.3772203 0.3734969 0.372856 0.3746261 0.3763352 0.381493 0.3867729 0.3908625 0.3987365 0.4034975 0.4068852 0.4074345 0.4061832 0.4051456 0.4042605 0.4033754 0.4033754 0.4021547 0.3999878 0.3957456 0.3918391 0.3890008 0.3869255 0.3841787 0.3801196 0.3753281 0.3688885 0.3647378 0.3604956 0.3558567 0.3520112 0.3500885 0.3467924 0.3428859 0.3359275 0.3309833 0.326558 0.3211561 0.311695 0.3022951 0.2945126 0.2838918 0.2751022 0.2715009 0.2640542 0.2588049 0.2572179 0.2558445 0.2541964 0.2523958 0.2485503 0.2475432 0.2462614 0.244888 0.243301 0.241836 0.2423244 0.2439419 0.2423244 0.2380822 0.2381127 0.2396081 0.2382653 0.2341451 0.2321309 0.2282854 0.2239517 0.2208997 0.2147958 0.2076543 0.1996277 0.1908991 0.1859244 0.1827504 0.1803394 0.1775621 0.1726485 0.1673991 0.1649881 0.1601965 0.1549472 0.149179 0.1467985 0.1464018 0.1437466 0.1400537 0.1348654 0.1292804 0.122444 0.116157 0.1117012 0.1100836 0.1056888 0.1001038 0.09174144 0.084783 0.07779405 0.06964536 0.06103888 0.05121162 0.04446682 0.03564671 0.02926814 0.0238662 0.02011231 0.01489349 0.01040713 0.010987 0.008575963 0.009644143 0.01062077 0.01120063 0.01156687 0.01245193 0.01370323 0.01504608 0.01483245 0.01544284 0.01657206 0.01712141 0.01687725 0.01635842 0.01712141 0.01846426 0.01895257 0.01922725 0.01992919 0.02084478 0.02172984 0.02227919 0.02432399 0.02804737 0.03271684 0.03506684 0.03302203 0.02804737 0.02377464 0.0227675 0.02465971 0.02655191 0.0285662 0.02926814 0.0295123 0.02990905 0.03134347 0.03332723 0.03283892 0.03183178 0.03042788 0.0328084 0.0348532 0.0348532 0.03207593 0.02914607 0.02908503 0.03247268 0.0350058 0.0357993 0.03415126 0.03216749 0.03131295 0.03268632 0.03540255 0.03512788 0.03091619 0.02499542 0.02203504 0.02206556 0.02301166 0.02349997 0.02273698 0.02203504 0.02243179 0.02456815 0.0281084 0.03216749 0.03592138 0.0383019 0.03732528 0.03293048 0.02771165 0.02316426 0.02127205 0.02020387 0.02026491 0.02090582 0.02108893 0.02127205 0.02047854 0.02063114 0.02066166 0.02020387 0.01919673 0.01748764 0.01696881 0.01724348 0.01764024 0.01748764 0.01715193 0.01718245 0.01733504 0.01794543 0.01895257 0.021974 0.02465971 0.02658243 0.02673503 0.02713178 0.02691815 0.02707074 0.02612464 0.02530062 0.02444607 0.02453763 0.02578893 0.0271623 0.02804737 0.02902399 0.03112983 0.03430385 0.03821034 0.04242202 0.0480376 0.05459928 0.06116096 0.06637979 0.07019471 0.0741012 0.07846548 0.08402002 0.09030703 0.09628884 0.1024232 0.1080083 0.1147226 0.1223524 0.1292804 0.1354148 0.1395044 0.1421901 0.1440212 0.1468596 0.1497589 0.1541232 0.1581517 0.161631 0.1652323 0.1683452 0.1725264 0.1779894 0.1823537 0.1872063 0.1908076 0.1930355 0.19624 0.2002075 0.2031374 0.2084478 0.2123848 0.2146737 0.2180614 0.2203809
0.3275346 0.3289996 0.3302814 0.3326009 0.333608 0.3369957 0.3397729 0.3410853 0.3404138 0.3408106 0.3437405 0.345358 0.3468534 0.3474944 0.34841 0.349234 0.3504242 0.3534456 0.3589391 0.3692547 0.3766099 0.3761521 0.3702924 0.3649209 0.3698041 0.3703534 0.369743 0.3752976 0.3771898 0.3744735 0.3745041 0.3759385 0.3773729 0.3806995 0.3855216 0.3890618 0.3958982 0.3998962 0.4023988 0.4034975 0.4036807 0.4038027 0.4031618 0.4019105 0.4009034 0.3991638 0.3972105 0.3929988 0.3883599 0.3848196 0.3841177 0.3819203 0.3768235 0.3724287 0.3668132 0.3624184 0.3585119 0.3542086 0.3499054 0.3480437 0.3451444 0.3424586 0.3366905 0.3317463 0.3261613 0.3207898 0.3116645 0.3018983 0.2934139 0.2829457 0.2730574 0.2680217 0.2623146 0.2592321 0.2576756 0.255814 0.252701 0.2498016 0.2461088 0.2449795 0.2438198 0.242477 0.2414698 0.2410425 0.2419276 0.2443386 0.2438809 0.2393029 0.2353964 0.2344198 0.2347861 0.2322224 0.2304218 0.2274003 0.2231887 0.2191296 0.2131173 0.2065251 0.1988342 0.189953 0.1847952 0.1814076 0.1778673 0.173442 0.1676738 0.1619361 0.1587926 0.1561375 0.1528108 0.1467985 0.1436245 0.1433193 0.1420985 0.1393213 0.1334615 0.1277239 0.1229934 0.1182323 0.1136544 0.1111213 0.1065739 0.1009888 0.09259598 0.08621742 0.07980834 0.0720564 0.06317525 0.05292071 0.04480254 0.03558567 0.02874931 0.02328633 0.01971556 0.01486297 0.01059025 0.01129219 0.008881157 0.009583104 0.01010193 0.01046817 0.01086492 0.01196362 0.01342855 0.01455777 0.01400842 0.01452725 0.01574803 0.0166331 0.01696881 0.01657206 0.01736556 0.01843374 0.01883049 0.01919673 0.01983764 0.02108893 0.021974 0.02267594 0.02472075 0.02844412 0.03329671 0.03552463 0.03341879 0.02816944 0.02353049 0.02240127 0.02420192 0.02594152 0.02768113 0.02835256 0.02823048 0.02835256 0.02981749 0.03210645 0.03216749 0.03125191 0.0303058 0.03299151 0.03555515 0.03549411 0.03238112 0.02865775 0.02807789 0.0315571 0.0347006 0.03561619 0.0336019 0.03131295 0.03033632 0.03192334 0.03482268 0.03570775 0.03213697 0.02609412 0.02234023 0.02154673 0.02240127 0.02295062 0.02206556 0.02127205 0.02145517 0.02322529 0.02697919 0.0307636 0.03433437 0.03662333 0.03598242 0.03195386 0.02661295 0.02188244 0.01999023 0.01870842 0.01879998 0.019624 0.01995971 0.02032595 0.01980712 0.01995971 0.02014283 0.01971556 0.01870842 0.01709089 0.01641946 0.01654154 0.01693829 0.01699933 0.01706037 0.01687725 0.01718245 0.01873894 0.02148569 0.02517854 0.02743698 0.02816944 0.02768113 0.02771165 0.02713178 0.02661295 0.02520906 0.02435451 0.02414088 0.02487334 0.02688763 0.02844412 0.02984801 0.03109931 0.03357138 0.03665385 0.04092657 0.04550449 0.05160838 0.05801746 0.06372459 0.06836355 0.07162913 0.07568821 0.08011353 0.08560703 0.09128365 0.09616676 0.1008667 0.105109 0.1105109 0.1174083 0.124031 0.130318 0.1349265 0.1382836 0.1406946 0.1437161 0.1465849 0.150766 0.1549167 0.1581823 0.1619972 0.1651102 0.1693524 0.1746017 0.1788744 0.1836965 0.1873283 0.1896478 0.1932491 0.1976439 0.20094 0.2064945 0.2104315 0.2125069 0.2155893 0.2174205
0.3256424 0.3262223 0.3275346 0.3300983 0.331258 0.3338827 0.3362937 0.3377892 0.337545 0.3381859 0.3413599 0.3435879 0.3450833 0.3458463 0.3463651 0.3464262 0.3475249 0.3502716 0.3548801 0.3640054 0.372093 0.3746261 0.371971 0.3666606 0.3681255 0.3677593 0.3678203 0.3729781 0.3749619 0.3748093 0.3756943 0.3769151 0.3774034 0.3796008 0.3838735 0.3876274 0.3938534 0.3976988 0.3998047 0.4007508 0.4015138 0.402704 0.4024293 0.4010254 0.399591 0.3975157 0.3952573 0.3914729 0.3872001 0.3836599 0.3821034 0.3800281 0.3749313 0.3705976 0.3651651 0.3608008 0.3566197 0.3532931 0.3489288 0.3465788 0.3438931 0.3420619 0.3370872 0.3330587 0.3268937 0.3210035 0.3116035 0.3010743 0.291186 0.280962 0.2709516 0.2652139 0.2596594 0.2572484 0.255936 0.2545932 0.2506867 0.2469023 0.2434536 0.2424464 0.2416529 0.2406763 0.2397912 0.2395471 0.2412562 0.2440945 0.2444302 0.2407373 0.2343893 0.2305439 0.2312763 0.2302081 0.2279802 0.2263932 0.2234633 0.2197705 0.213514 0.205579 0.197766 0.1892511 0.1839407 0.1800647 0.1758835 0.1702374 0.1641335 0.1579686 0.1542453 0.1525057 0.1501862 0.1456388 0.1420375 0.141366 0.1401453 0.1378258 0.1324849 0.1273271 0.1230239 0.1187817 0.1147226 0.111518 0.1069401 0.1016297 0.09390832 0.08783495 0.08163951 0.07391809 0.06479277 0.05429409 0.04550449 0.03555515 0.02813892 0.02267594 0.01883049 0.01437466 0.01037661 0.01123115 0.008911677 0.009461027 0.00982726 0.01025453 0.01062077 0.01171947 0.01290972 0.01409998 0.01361167 0.01376427 0.01434414 0.01519868 0.01602271 0.01577855 0.01684673 0.01785387 0.01828115 0.01879998 0.01956296 0.02096686 0.02209608 0.0227675 0.0249649 0.0284136 0.03262528 0.03399866 0.03253372 0.02801685 0.02432399 0.02264543 0.02365257 0.02465971 0.02673503 0.02789477 0.02838308 0.02816944 0.02954282 0.03125191 0.03134347 0.03024477 0.02954282 0.03256425 0.03521943 0.03582982 0.03256425 0.02819996 0.02642984 0.02929866 0.0325032 0.03399866 0.03207593 0.02975645 0.02881035 0.03112983 0.03479216 0.03671489 0.03372398 0.02743698 0.02310322 0.02172984 0.02243179 0.02295062 0.02215711 0.02090582 0.0208753 0.02270646 0.02612464 0.02929866 0.03259476 0.03524996 0.03540255 0.03195386 0.02682659 0.02191296 0.01950192 0.01782335 0.01794543 0.01870842 0.01916621 0.0197766 0.01968504 0.01986816 0.02008179 0.02002075 0.01937984 0.01760972 0.01669413 0.01657206 0.01696881 0.01745712 0.01748764 0.01681621 0.01733504 0.01980712 0.02377464 0.02758957 0.02899347 0.02908503 0.02844412 0.02804737 0.02704022 0.02609412 0.02456815 0.02377464 0.02435451 0.02597204 0.02865775 0.03033632 0.03201489 0.03332723 0.0359519 0.0390954 0.04336812 0.04852591 0.05475188 0.06079473 0.06555576 0.06955381 0.07260575 0.07700055 0.08170054 0.08710249 0.09235182 0.09634987 0.1001038 0.1033999 0.1075505 0.1135018 0.1194226 0.1253128 0.1300739 0.1337667 0.1368797 0.1402979 0.1436245 0.1478056 0.1518037 0.1547031 0.1584569 0.1614784 0.16569 0.1708784 0.1749985 0.1799121 0.183605 0.1859244 0.1895257 0.193829 0.1972777 0.2031069 0.2074101 0.2098822 0.2130867 0.2147653
0.323445 0.3242691 0.3260087 0.3287554 0.3302203 0.3318684 0.333669 0.3350119 0.3350729 0.3357139 0.3390405 0.3412379 0.3425807 0.3441677 0.3448086 0.344534 0.3456632 0.3480132 0.3510956 0.3576573 0.3649515 0.3697735 0.371269 0.3685223 0.3669047 0.3656839 0.3675762 0.3697735 0.371208 0.3734054 0.3752976 0.3763352 0.3758164 0.3781969 0.3817982 0.3858268 0.3919917 0.3961118 0.3983703 0.3993774 0.3997436 0.4017579 0.4016664 0.39953 0.397943 0.3962339 0.3931819 0.3896722 0.3857962 0.3821644 0.3793261 0.3770677 0.3729781 0.3688274 0.3636086 0.3594275 0.354758 0.3522554 0.3486236 0.3457547 0.3427944 0.340658 0.3360496 0.3333333 0.3271684 0.3204236 0.3118782 0.3006775 0.2885003 0.2789477 0.2703412 0.2635964 0.2566685 0.253464 0.2529146 0.2526399 0.248825 0.244064 0.2406153 0.2404627 0.2400049 0.2390283 0.2385094 0.2381127 0.2399438 0.2428432 0.2438809 0.2409815 0.2349692 0.2294146 0.2281023 0.2281939 0.2264543 0.2256913 0.2237075 0.2208081 0.2138802 0.2045413 0.1967894 0.1885491 0.1831777 0.1785998 0.1739608 0.1677348 0.1616004 0.1559238 0.1518953 0.1495758 0.1478056 0.1446621 0.1407251 0.1390771 0.1379784 0.1359641 0.131844 0.1273271 0.1230849 0.1191174 0.115394 0.1116096 0.1069401 0.102118 0.09540378 0.08926936 0.08264665 0.07513887 0.06604407 0.0555759 0.04605383 0.03555515 0.02758957 0.021974 0.01791491 0.01382531 0.01013245 0.01104804 0.008942196 0.009491546 0.00979674 0.01031557 0.01059025 0.01190258 0.0130318 0.01434414 0.0139779 0.01336752 0.0128792 0.013337 0.01431362 0.01458829 0.01583959 0.01721296 0.01803699 0.01861686 0.01919673 0.02078374 0.02209608 0.02298114 0.02548373 0.02838308 0.03241165 0.03363242 0.03314411 0.02929866 0.02591101 0.02334737 0.02322529 0.02383568 0.02639932 0.02838308 0.02963438 0.02929866 0.03036684 0.03137399 0.03100775 0.02993957 0.02939022 0.03207593 0.03451749 0.03570775 0.03235061 0.02783373 0.02508698 0.02755906 0.03054996 0.03232009 0.0307636 0.02862724 0.02765061 0.0303058 0.03439541 0.03695904 0.03445645 0.02859672 0.02438503 0.02218763 0.02215711 0.02246231 0.0218214 0.02078374 0.02102789 0.02261491 0.02560581 0.02762009 0.0303058 0.03335775 0.03445645 0.03207593 0.02771165 0.02273698 0.02014283 0.0183727 0.01876946 0.01916621 0.01928829 0.01910517 0.01895257 0.01928829 0.01989868 0.02035647 0.02017335 0.01861686 0.01724348 0.01702985 0.01764024 0.01822011 0.01812855 0.0175792 0.01910517 0.02230971 0.02658243 0.02902399 0.0292071 0.02850516 0.02786425 0.02740646 0.02670451 0.02581945 0.02456815 0.02414088 0.0251175 0.02707074 0.03000061 0.0318623 0.03363242 0.03524996 0.03778307 0.04083501 0.04556552 0.05139474 0.05755967 0.06317525 0.06695965 0.07062198 0.07364341 0.07812977 0.0830434 0.08829274 0.09323689 0.09683818 0.1003174 0.1030336 0.1064518 0.1112739 0.1158213 0.1202466 0.1241531 0.1277544 0.1314167 0.1359946 0.1403284 0.1451199 0.149179 0.1517427 0.1554966 0.158579 0.1629433 0.1682842 0.1722822 0.1769517 0.1802783 0.1825368 0.1861075 0.1905634 0.1942257 0.2003296 0.2049075 0.2077153 0.211164 0.2128426
0.3216444 0.3233535 0.3250015 0.3278093 0.3293048 0.3305866 0.3321736 0.3329671 0.3330281 0.3340658 0.3374229 0.3384301 0.3392541 0.342245 0.343771 0.343832 0.3442593 0.346182 0.3487456 0.352469 0.3573827 0.362632 0.3676372 0.3689495 0.367393 0.3655924 0.3663859 0.365867 0.3663554 0.3688579 0.3711469 0.372856 0.3721235 0.3757554 0.3808216 0.3839651 0.3904047 0.394769 0.3973936 0.3993774 0.4000488 0.4020021 0.4017579 0.3991027 0.3967833 0.3947995 0.3916865 0.3887261 0.3852164 0.3817982 0.3778307 0.3750229 0.3718489 0.3679729 0.362693 0.357932 0.3531404 0.3509125 0.347769 0.3450833 0.3419093 0.3388574 0.3335164 0.3313801 0.3254288 0.318684 0.3105658 0.2990295 0.2853262 0.2751633 0.2681743 0.262223 0.2548679 0.2506256 0.2492218 0.2489776 0.2460477 0.2421412 0.2393029 0.2393945 0.2387841 0.238662 0.2392419 0.2383873 0.238662 0.2405237 0.241836 0.2403101 0.2357627 0.2302081 0.228438 0.2279497 0.2261796 0.2239211 0.2199536 0.218214 0.211927 0.2032595 0.1962705 0.1880303 0.1820485 0.176555 0.1716108 0.1653543 0.1596167 0.1542758 0.1504914 0.1479888 0.1449979 0.1419459 0.1387109 0.1367881 0.1354758 0.1333089 0.1298297 0.1267472 0.1234817 0.1190869 0.1158213 0.1119758 0.1069706 0.1018739 0.09570897 0.08939144 0.08292132 0.07544406 0.06702069 0.05676616 0.04648111 0.03586034 0.0274675 0.02188244 0.01739608 0.01361167 0.01007142 0.01123115 0.009308429 0.009857779 0.009979857 0.01034609 0.01101752 0.01260453 0.01391686 0.01525972 0.01489349 0.01409998 0.01278765 0.01232985 0.01297076 0.01348959 0.0155344 0.01779283 0.01956296 0.02038699 0.0205701 0.02163828 0.02270646 0.02349997 0.02575841 0.0281084 0.0315571 0.03253372 0.032961 0.03000061 0.02667399 0.02328633 0.02258439 0.0230727 0.02603308 0.02874931 0.03082464 0.03048892 0.03064152 0.02997009 0.02932918 0.0285662 0.02832204 0.03051944 0.03271684 0.03442593 0.03174022 0.02755906 0.02447659 0.02630776 0.02902399 0.03094671 0.03042788 0.02847464 0.02798633 0.03039736 0.03402918 0.03668437 0.03488372 0.03003113 0.02554477 0.0227675 0.02243179 0.0227675 0.02227919 0.02102789 0.02084478 0.02200452 0.02441555 0.02584997 0.0285662 0.03232009 0.03415126 0.03244217 0.02829152 0.02377464 0.02105841 0.01916621 0.01950192 0.01983764 0.01934933 0.01861686 0.0183727 0.01901361 0.01971556 0.02060062 0.02069218 0.01937984 0.01822011 0.01812855 0.01883049 0.01916621 0.01904413 0.01876946 0.02060062 0.02374412 0.02749802 0.02896295 0.02890191 0.02801685 0.02737594 0.02676555 0.02615516 0.02572789 0.02523958 0.02533114 0.02642984 0.02838308 0.03122139 0.03347982 0.03555515 0.03717268 0.03937008 0.04266618 0.04757981 0.05374473 0.05957395 0.06476225 0.06805836 0.07156809 0.07462003 0.07919795 0.08423366 0.08920833 0.09396936 0.09726546 0.1005005 0.1030031 0.105994 0.1102057 0.113746 0.1168895 0.1195446 0.1221693 0.1254959 0.130318 0.1353537 0.1409998 0.1457914 0.1487823 0.1526277 0.1555576 0.1595862 0.1647745 0.1685589 0.1731978 0.1764634 0.1786913 0.1821705 0.1864128 0.1901056 0.1960874 0.2008179 0.2040835 0.2078069 0.2100348
0.3204236 0.3232009 0.3246963 0.3271989 0.3290301 0.3306171 0.3321431 0.3325093 0.3326009 0.3337606 0.336782 0.3376671 0.3382165 0.3410242 0.3430996 0.3433132 0.3429469 0.3442593 0.3467008 0.3489593 0.3522249 0.3569249 0.3629372 0.3669658 0.3671489 0.3653177 0.3646768 0.3624489 0.3615028 0.364219 0.3669658 0.3692242 0.3683696 0.3720625 0.3769456 0.3812183 0.3885735 0.3942196 0.3971495 0.3991943 0.3997436 0.4011781 0.4005677 0.3981871 0.3951657 0.3922969 0.389306 0.3872917 0.3843924 0.3810657 0.3768235 0.3737716 0.3706281 0.3670268 0.3619911 0.3565281 0.3511872 0.3488982 0.3466703 0.3442593 0.340719 0.3366905 0.3309223 0.3286333 0.3227431 0.3159678 0.3083379 0.2972899 0.2830068 0.2713484 0.264512 0.259751 0.2532198 0.2481536 0.2460172 0.2457425 0.2439114 0.2411646 0.2387841 0.2393029 0.2389977 0.2389977 0.2395166 0.2381127 0.2368614 0.2382958 0.2395776 0.2391198 0.236312 0.2318867 0.2302081 0.2286516 0.2263322 0.2233718 0.2175426 0.2146127 0.2086919 0.2014588 0.1953549 0.1871757 0.1805225 0.1744186 0.1691693 0.1630043 0.1576329 0.153116 0.1493621 0.146829 0.1433803 0.1402063 0.1373985 0.135079 0.1331258 0.1306842 0.1279375 0.1254654 0.1228102 0.1184154 0.1152414 0.1118537 0.1069401 0.1014771 0.09525117 0.08905573 0.08298236 0.0756577 0.0676616 0.05746811 0.04715253 0.03628761 0.02758957 0.021974 0.01699933 0.01312336 0.00979674 0.01117012 0.009583104 0.01013245 0.01019349 0.0100409 0.01080388 0.01260453 0.0141305 0.01516816 0.01495453 0.0142831 0.01297076 0.01226882 0.01242141 0.01348959 0.01562595 0.01809803 0.02005127 0.02060062 0.02060062 0.02179088 0.02298114 0.02380516 0.02566685 0.0274675 0.03070256 0.03244217 0.03329671 0.03027529 0.02618568 0.02252335 0.02221815 0.02322529 0.02609412 0.02844412 0.03021425 0.02990905 0.02987853 0.02902399 0.02850516 0.02768113 0.0274675 0.02902399 0.03149606 0.03357138 0.0318623 0.0284136 0.02539217 0.02710126 0.0293597 0.03094671 0.03042788 0.02853568 0.02783373 0.02923762 0.03222853 0.03543307 0.0348532 0.03134347 0.02676555 0.02349997 0.02258439 0.02316426 0.02267594 0.02127205 0.02069218 0.02111945 0.02285906 0.02404932 0.02649087 0.03058048 0.03271684 0.03180126 0.02804737 0.02371361 0.02093634 0.01904413 0.01971556 0.02026491 0.01999023 0.01889153 0.01797595 0.01785387 0.0183727 0.01925777 0.01971556 0.01922725 0.01846426 0.0185253 0.01898309 0.01883049 0.01883049 0.01895257 0.02133309 0.02435451 0.02743698 0.02835256 0.02798633 0.02691815 0.02652139 0.0260636 0.02578893 0.02575841 0.02594152 0.02670451 0.02774217 0.02954282 0.03225905 0.03521943 0.03726424 0.03882073 0.04071293 0.04434475 0.04950253 0.05575902 0.06119148 0.06595251 0.06891289 0.07239211 0.07559665 0.08023561 0.08536287 0.09000183 0.09457975 0.09766221 0.1007752 0.1031557 0.1060245 0.1099921 0.1129219 0.1151193 0.1166758 0.1181102 0.1202161 0.1245193 0.1293109 0.1353842 0.1407862 0.1448147 0.1494232 0.1528719 0.1569615 0.1622413 0.1659342 0.1704511 0.1736251 0.1756699 0.1789355 0.1828725 0.1866264 0.1924556 0.1973082 0.2008179 0.2047244 0.2070439
0.3185314 0.3220412 0.3228652 0.32491 0.3268632 0.3288775 0.3303424 0.3305561 0.331258 0.3324788 0.3349203 0.3366905 0.3379418 0.339895 0.3416957 0.3422755 0.3420314 0.3433437 0.3453275 0.3465788 0.3488677 0.3519502 0.3570469 0.3624794 0.3644937 0.3636086 0.3615333 0.3585424 0.3576268 0.3604956 0.3636697 0.3663554 0.3653482 0.3683696 0.3729171 0.3774034 0.3853995 0.3920527 0.3955625 0.3976988 0.3982482 0.3996521 0.3989196 0.3967833 0.3936397 0.3902826 0.3868339 0.3852469 0.3832326 0.3802417 0.3756943 0.372795 0.3694684 0.3657755 0.3607703 0.3551547 0.3496917 0.3470976 0.3449917 0.3425807 0.3385827 0.3338522 0.3283587 0.3250015 0.3185314 0.3123055 0.3035464 0.2934139 0.2805957 0.2676555 0.2601172 0.2561497 0.2512666 0.2462919 0.2444302 0.2436977 0.2414393 0.2399744 0.2385094 0.238662 0.2384789 0.2386315 0.2393335 0.2379601 0.2356406 0.2363425 0.2372276 0.2372276 0.2364952 0.2339315 0.2329854 0.2306354 0.2274919 0.2232497 0.2152841 0.2104315 0.2047549 0.1993835 0.1939816 0.1856803 0.1782335 0.1715192 0.1663004 0.1607154 0.1562595 0.1524141 0.1490264 0.1462492 0.1429531 0.139718 0.1365135 0.1333089 0.1306842 0.1283648 0.1262284 0.1238479 0.1221388 0.1177745 0.1142343 0.1112739 0.1068486 0.1008973 0.0948239 0.0885369 0.08286028 0.07553562 0.06784472 0.05820058 0.04797656 0.03698956 0.02804737 0.02227919 0.01669413 0.01269609 0.00927791 0.0111396 0.009888299 0.01010193 0.01007142 0.009918818 0.0106818 0.01263505 0.01400842 0.01452725 0.0144357 0.01416102 0.013337 0.01242141 0.01217726 0.01306232 0.0153818 0.01779283 0.01980712 0.02020387 0.02014283 0.02124153 0.02270646 0.0240188 0.02563633 0.02682659 0.02942074 0.03125191 0.03232009 0.02954282 0.02575841 0.02234023 0.02209608 0.02313374 0.02530062 0.02737594 0.02908503 0.02908503 0.02905451 0.02819996 0.02813892 0.02697919 0.02649087 0.0273149 0.02963438 0.03204541 0.0314045 0.02835256 0.02523958 0.0262162 0.028261 0.03015321 0.03006165 0.02847464 0.02725386 0.0274675 0.0295123 0.03286944 0.03347982 0.03119087 0.02670451 0.02365257 0.02285906 0.02334737 0.02270646 0.02099738 0.01986816 0.01983764 0.02096686 0.02227919 0.02493438 0.02914607 0.03128242 0.03033632 0.02700971 0.02319477 0.02075322 0.01898309 0.01931881 0.02005127 0.01989868 0.01904413 0.01760972 0.01666361 0.01693829 0.01812855 0.01922725 0.01916621 0.01825063 0.01809803 0.01849478 0.0183727 0.01876946 0.01965452 0.02194348 0.02469023 0.0271623 0.02819996 0.02819996 0.02713178 0.02685711 0.02642984 0.02609412 0.02639932 0.02710126 0.02838308 0.0293597 0.03128242 0.03399866 0.036898 0.03860709 0.04001099 0.04202527 0.04614539 0.05151682 0.0577733 0.06265641 0.06695965 0.0697064 0.07318562 0.07651224 0.08112067 0.08627846 0.0907343 0.0951291 0.09793688 0.1009583 0.1032778 0.1060856 0.1100531 0.1127693 0.114631 0.1155771 0.1161875 0.1171641 0.1202771 0.1239089 0.1292498 0.1343466 0.1385277 0.1437466 0.1478667 0.1526582 0.1584569 0.1626076 0.1674907 0.1710004 0.1733199 0.176677 0.1805835 0.1842764 0.1897088 0.1944088 0.197827 0.2016725 0.2041445
0.3178905 0.321034 0.3218885 0.3237502 0.3260087 0.3279924 0.3289996 0.328908 0.330434 0.3318074 0.3326009 0.3347983 0.3366905 0.3383996 0.339895 0.3404138 0.3407801 0.3424281 0.3440457 0.3442898 0.345358 0.3470671 0.3506989 0.3559482 0.3591528 0.3594275 0.3574742 0.3549411 0.3541171 0.3564671 0.3591833 0.3619911 0.36193 0.3655314 0.3694989 0.3741378 0.3819203 0.3889703 0.3922053 0.3946469 0.3953488 0.3970884 0.396356 0.3948911 0.3916865 0.3883599 0.3850943 0.383019 0.3806079 0.3769151 0.3729171 0.3700482 0.3669352 0.3634255 0.3585119 0.3535677 0.3480742 0.3447781 0.3421535 0.3396814 0.3344931 0.3295184 0.3250321 0.3212171 0.31551 0.3089483 0.2980834 0.288073 0.2765366 0.264512 0.257462 0.2534945 0.2499237 0.2452542 0.2436062 0.2430263 0.240127 0.239425 0.2381432 0.2375633 0.2367088 0.2368309 0.2379601 0.2375328 0.2349997 0.2351218 0.2365257 0.2368003 0.2359153 0.2339315 0.23384 0.2310627 0.2268205 0.2216322 0.2136056 0.2081731 0.2019471 0.1964536 0.1913569 0.1832692 0.1753342 0.1685894 0.1637978 0.1587011 0.1550082 0.1518037 0.1485992 0.1455472 0.1424342 0.1393518 0.1361777 0.1325765 0.1295245 0.1264726 0.1242141 0.1218336 0.1200635 0.1157297 0.1120369 0.1094427 0.1064213 0.1008667 0.09476286 0.08859794 0.08270769 0.07483367 0.06692913 0.05765122 0.04797656 0.03732528 0.02829152 0.021974 0.01602271 0.01168895 0.008240249 0.0100409 0.009216871 0.009430507 0.009522066 0.00979674 0.01049869 0.01239089 0.01391686 0.01437466 0.01403894 0.01364219 0.01312336 0.01248245 0.01211622 0.01294024 0.01510712 0.01767076 0.01925777 0.01934933 0.01928829 0.0205701 0.02227919 0.02371361 0.02520906 0.02655191 0.02902399 0.0304584 0.03167918 0.02917659 0.02572789 0.02212659 0.02179088 0.02246231 0.02447659 0.02627724 0.02819996 0.02865775 0.02871879 0.02801685 0.02789477 0.02658243 0.02618568 0.02658243 0.02874931 0.03122139 0.03097723 0.02832204 0.02493438 0.02542269 0.02722334 0.02902399 0.02893243 0.02749802 0.02584997 0.02505646 0.02588049 0.02908503 0.03073308 0.02972594 0.02588049 0.02288958 0.02191296 0.02230971 0.02142465 0.019624 0.01870842 0.01873894 0.01995971 0.02121101 0.02328633 0.02673503 0.02816944 0.02755906 0.02490386 0.02169932 0.01950192 0.01803699 0.01831166 0.01907465 0.01895257 0.01791491 0.0163279 0.01510712 0.01547336 0.01690777 0.01794543 0.01828115 0.01794543 0.01822011 0.01889153 0.01922725 0.02008179 0.0208753 0.02273698 0.02502594 0.02737594 0.02835256 0.02819996 0.02713178 0.02694867 0.02661295 0.02639932 0.02707074 0.02823048 0.02993957 0.03094671 0.0326558 0.03528047 0.03805774 0.03949216 0.04110969 0.04339864 0.04806812 0.05359214 0.05960447 0.06399927 0.06793627 0.07046939 0.07373497 0.07727522 0.08188366 0.08716352 0.0913752 0.09549533 0.09815052 0.1010499 0.1033693 0.1061771 0.1101447 0.1127693 0.1144784 0.1151498 0.1153024 0.1155466 0.1178356 0.1203382 0.1245804 0.128731 0.1321797 0.1372459 0.1416407 0.1471647 0.1536043 0.1584569 0.1636147 0.1673381 0.1695355 0.172679 0.1763108 0.1799121 0.185314 0.189953 0.1937374 0.1975829 0.2001465
0.3166697 0.3191418 0.3201184 0.3225905 0.324971 0.3267411 0.3275346 0.3275346 0.3293963 0.3311359 0.3312885 0.3331807 0.3348898 0.336782 0.3380944 0.338369 0.3388268 0.3403223 0.3419093 0.3420314 0.3420314 0.3424281 0.3442898 0.3480742 0.3518892 0.3542697 0.3533846 0.3510041 0.349356 0.3511872 0.3535067 0.3569554 0.3587866 0.3630593 0.3666606 0.3707196 0.377556 0.3844839 0.3889703 0.3914729 0.3913813 0.393304 0.3928768 0.3917781 0.3890313 0.3855826 0.3819813 0.379143 0.3764268 0.3729781 0.3692242 0.3662028 0.3629372 0.3593359 0.354758 0.3505463 0.3456632 0.341543 0.3378502 0.3355612 0.3299457 0.3239028 0.3199963 0.3166697 0.311573 0.3055301 0.2934444 0.2832509 0.272325 0.2619789 0.255814 0.2517244 0.2490997 0.2450101 0.243301 0.2428432 0.2398523 0.2387536 0.2371666 0.2361594 0.2346029 0.2344198 0.2358542 0.2369529 0.2356101 0.2342672 0.235488 0.2358848 0.2344198 0.2327413 0.2333211 0.2304218 0.2255082 0.2200452 0.2125069 0.2067387 0.1998108 0.1935238 0.1880608 0.1799731 0.1719465 0.1653848 0.1614173 0.1569615 0.1540621 0.1510407 0.1480193 0.145242 0.142068 0.138894 0.1358725 0.1318745 0.1285784 0.1254654 0.1228407 0.1198498 0.1179576 0.113868 0.1104193 0.10752 0.1052005 0.1002869 0.09491546 0.08875053 0.08231093 0.07428432 0.06613563 0.05679668 0.04736617 0.03732528 0.02838308 0.02172984 0.01550388 0.01123115 0.007812977 0.009094793 0.008637002 0.009003235 0.009369468 0.009918818 0.01052921 0.01229933 0.01361167 0.01458829 0.0142831 0.01394738 0.01324544 0.01266557 0.01226882 0.01281817 0.0150766 0.01794543 0.01941036 0.01944088 0.01898309 0.02011231 0.02179088 0.02343893 0.02490386 0.02591101 0.02786425 0.0292071 0.0304584 0.02829152 0.02533114 0.02176036 0.02099738 0.0208753 0.02243179 0.02435451 0.02691815 0.02789477 0.0284136 0.02789477 0.02795581 0.02658243 0.02566685 0.02548373 0.02719282 0.02960386 0.02978697 0.02749802 0.02435451 0.02420192 0.02566685 0.02780321 0.02865775 0.02789477 0.02581945 0.02359153 0.02319477 0.02566685 0.02798633 0.02792529 0.02484282 0.02157724 0.01989868 0.01953244 0.01904413 0.01785387 0.01760972 0.01782335 0.01907465 0.0205701 0.02267594 0.02588049 0.02697919 0.02618568 0.02365257 0.02047854 0.0183727 0.01709089 0.01748764 0.01831166 0.01797595 0.01651102 0.01489349 0.01394738 0.01486297 0.0166331 0.01809803 0.0186779 0.01846426 0.01907465 0.02035647 0.02114997 0.02188244 0.02237075 0.02337789 0.02520906 0.02707074 0.02801685 0.02771165 0.02667399 0.02624672 0.02639932 0.02655191 0.02819996 0.02972594 0.03134347 0.03183178 0.03329671 0.03586034 0.03857657 0.04007202 0.04196423 0.04480254 0.05011292 0.05563694 0.06134408 0.06522004 0.06869926 0.07114082 0.0742538 0.07794665 0.08261613 0.08789599 0.09186351 0.09580053 0.0982726 0.1011719 0.1033999 0.1062077 0.1101752 0.1127999 0.1144784 0.1151193 0.1151498 0.1152109 0.1171336 0.1189648 0.1223219 0.1253739 0.1276018 0.1315998 0.1351706 0.1401758 0.1462492 0.1511933 0.1566868 0.16099 0.163981 0.1677043 0.1718245 0.175792 0.1811634 0.1858939 0.189953 0.1937374 0.1963621
0.3140756 0.3167613 0.3184398 0.3215528 0.3237502 0.3251846 0.3263444 0.3266801 0.3285418 0.3301593 0.3305866 0.3312275 0.3318989 0.3341879 0.3354697 0.3358054 0.3359275 0.3371177 0.3382165 0.3385827 0.3386132 0.3388574 0.3394677 0.3413294 0.3442288 0.3466703 0.3467619 0.3456937 0.3445035 0.3457853 0.3481658 0.3521028 0.355521 0.3606482 0.3641885 0.3687054 0.3746566 0.3815235 0.3868644 0.3896417 0.3890313 0.390191 0.3896112 0.3874443 0.3847891 0.3809437 0.377556 0.3749313 0.372093 0.3691021 0.3648599 0.3608314 0.3575047 0.3544223 0.3506073 0.3471586 0.3428249 0.3383385 0.3339742 0.3309223 0.3251236 0.3196606 0.3157541 0.311634 0.3065983 0.3010743 0.2898431 0.2795275 0.2682659 0.2591101 0.2541049 0.2501068 0.2482757 0.2449795 0.2430874 0.2425075 0.2396997 0.2380516 0.2360679 0.2349997 0.2334127 0.2328328 0.2333822 0.2356406 0.236251 0.233901 0.2343283 0.2358237 0.2342062 0.2308185 0.2302692 0.2272478 0.2227004 0.2180309 0.2116828 0.2060978 0.1982848 0.1906855 0.1848257 0.1762498 0.1682232 0.1622413 0.1597387 0.1558933 0.1532686 0.1502167 0.1473784 0.1448147 0.1415187 0.1381005 0.1349265 0.1311115 0.1278765 0.1249771 0.1220778 0.1187817 0.1167979 0.1128609 0.109809 0.1062992 0.1039187 0.09934078 0.09461027 0.08841482 0.08209729 0.07422328 0.0654642 0.05563694 0.04608436 0.036898 0.02847464 0.02176036 0.01547336 0.01107856 0.007812977 0.008331807 0.007935055 0.008637002 0.009003235 0.009705182 0.01028505 0.01199414 0.01324544 0.0150766 0.01483245 0.01431362 0.01336752 0.01266557 0.01232985 0.01275713 0.01519868 0.01825063 0.0197766 0.01980712 0.01892205 0.01956296 0.02075322 0.02273698 0.02469023 0.02591101 0.02719282 0.02865775 0.0303058 0.02874931 0.02572789 0.02154673 0.01995971 0.01934933 0.02096686 0.02298114 0.02560581 0.02688763 0.02749802 0.02743698 0.02725386 0.02615516 0.02505646 0.02459867 0.02609412 0.02905451 0.02957334 0.02783373 0.02459867 0.02398828 0.02478179 0.02642984 0.02762009 0.02749802 0.02545321 0.02246231 0.02105841 0.02282854 0.02536166 0.02633828 0.02435451 0.02105841 0.01843374 0.01754868 0.01715193 0.01654154 0.01660258 0.01684673 0.01800647 0.01980712 0.02179088 0.02462919 0.02581945 0.02548373 0.02340841 0.02060062 0.01840322 0.01693829 0.01733504 0.01812855 0.0175792 0.01590063 0.01403894 0.01284868 0.01358115 0.0152292 0.01666361 0.0175792 0.01797595 0.01974608 0.02234023 0.02441555 0.02487334 0.0241714 0.02362205 0.02438503 0.02612464 0.02713178 0.02688763 0.02572789 0.02505646 0.02569737 0.02679607 0.0292071 0.03106879 0.03238112 0.03262528 0.03409021 0.03640969 0.03897332 0.04056033 0.04300189 0.04642007 0.05203564 0.05752914 0.06277849 0.06628823 0.06949276 0.07193432 0.07483367 0.07858756 0.08316547 0.08847586 0.09222975 0.09601416 0.09836416 0.1012025 0.1034304 0.1062077 0.1101752 0.1127999 0.1144784 0.1151193 0.1151193 0.1151193 0.1168895 0.1185375 0.1214369 0.1239089 0.1253739 0.1284563 0.1310505 0.1351401 0.1404199 0.1449063 0.1501556 0.1544284 0.157694 0.1614784 0.1655069 0.169505 0.1747238 0.1793933 0.1836355 0.1874809 0.1902582
0.3097723 0.3125801 0.3143502 0.3182262 0.3206373 0.3222853 0.323445 0.3238418 0.3259171 0.3278398 0.3283892 0.3287859 0.3289385 0.3303119 0.3317768 0.3324788 0.3326314 0.3337606 0.3347372 0.3351035 0.3350119 0.3352866 0.3356528 0.3366905 0.3376366 0.3384606 0.3380333 0.3382165 0.3388574 0.3411463 0.3431301 0.3474944 0.352347 0.3581762 0.36193 0.3663554 0.3726729 0.3803028 0.3851859 0.3879631 0.3876579 0.3872917 0.3851553 0.3831411 0.3811268 0.3780748 0.374443 0.3712995 0.3683391 0.3652567 0.3611976 0.357169 0.3535982 0.3504853 0.3471892 0.3438015 0.3397424 0.3357749 0.3307697 0.3269243 0.3220106 0.3174632 0.3134957 0.3096197 0.3034853 0.2972288 0.2870353 0.2771776 0.2663431 0.2573704 0.252701 0.2487334 0.2468718 0.2437893 0.2416224 0.2411951 0.2389062 0.2367088 0.2346945 0.2342367 0.2329244 0.2326192 0.232375 0.2340841 0.2359458 0.2341451 0.2328023 0.2339315 0.233138 0.2292926 0.2271867 0.2240127 0.2203198 0.2164744 0.2112556 0.2062809 0.1977965 0.188427 0.1817738 0.1728621 0.1654764 0.160044 0.1583349 0.1549777 0.1524751 0.1497284 0.1470427 0.1443875 0.1409388 0.1371544 0.1339803 0.1301959 0.1273881 0.1245804 0.1215895 0.1181408 0.1160044 0.1121284 0.1090765 0.1048038 0.1019044 0.09711286 0.09302326 0.08716352 0.08105963 0.07352133 0.0646707 0.05499603 0.04513825 0.03653177 0.02823048 0.02148569 0.01501556 0.01059025 0.007599341 0.007996093 0.007904535 0.008453885 0.008881157 0.009491546 0.01007142 0.01135323 0.01229933 0.0141305 0.01446621 0.01419154 0.01327596 0.01260453 0.01205518 0.01232985 0.01471037 0.01812855 0.02008179 0.02017335 0.01873894 0.01886101 0.01989868 0.02237075 0.02499542 0.02624672 0.02682659 0.02798633 0.02926814 0.028261 0.02539217 0.02172984 0.02020387 0.01941036 0.02047854 0.02188244 0.0240188 0.02563633 0.02652139 0.02633828 0.02588049 0.0252701 0.02459867 0.02420192 0.02502594 0.02749802 0.02862724 0.02792529 0.0252701 0.02469023 0.02450711 0.02569737 0.02713178 0.02762009 0.02569737 0.02227919 0.02023439 0.02145517 0.02395776 0.02569737 0.0241714 0.02108893 0.01809803 0.01706037 0.01696881 0.0166331 0.01672465 0.01675517 0.01776231 0.01950192 0.02151621 0.02407984 0.02514802 0.02490386 0.0230727 0.02032595 0.01776231 0.01587011 0.01602271 0.01718245 0.01712141 0.0155344 0.01355063 0.01220778 0.01278765 0.01434414 0.01593115 0.01724348 0.01794543 0.02005127 0.02349997 0.02667399 0.0274675 0.02591101 0.02374412 0.02343893 0.02502594 0.02609412 0.0262162 0.02523958 0.02459867 0.02566685 0.02719282 0.02997009 0.03198437 0.03317463 0.03366295 0.03518891 0.0373558 0.03970579 0.04132332 0.04416163 0.04800708 0.05374473 0.05896356 0.06369407 0.06695965 0.07004212 0.07245316 0.07532198 0.07916743 0.08365379 0.08887261 0.09247391 0.09610572 0.09842519 0.1012025 0.1034304 0.1061771 0.1100836 0.1127388 0.1144784 0.1151193 0.1151193 0.1151193 0.1168589 0.1184459 0.1211927 0.1234511 0.1246109 0.1270829 0.1289446 0.1319966 0.1362083 0.1398096 0.1443264 0.1481109 0.1509797 0.1544589 0.1582128 0.1621498 0.1673686 0.1722822 0.1770128 0.1811939 0.1842764
0.3053775 0.3081548 0.3097113 0.313984 0.3167613 0.3186229 0.3195996 0.3196301 0.321858 0.3240554 0.3250321 0.3254898 0.3253067 0.3260087 0.3277788 0.3290606 0.3294269 0.3308613 0.3318684 0.3322041 0.3316853 0.3319905 0.3322651 0.332784 0.3323872 0.3312885 0.3293963 0.3301288 0.3318379 0.336019 0.3392846 0.3439846 0.3496917 0.3551852 0.3590002 0.3629372 0.3690106 0.3768846 0.3822255 0.3857047 0.3861015 0.3850943 0.3826528 0.3800586 0.3780443 0.3752976 0.3714826 0.3681255 0.3649209 0.3622047 0.3581151 0.3537203 0.3498443 0.3469145 0.3442898 0.3411768 0.3369346 0.3335164 0.3285723 0.3245743 0.3197217 0.316334 0.3122139 0.3083684 0.3008912 0.2937801 0.2836172 0.2743393 0.264451 0.2557529 0.2509003 0.2467192 0.244949 0.2418666 0.2398523 0.2395166 0.2375023 0.235549 0.2338094 0.2334737 0.2325581 0.2330159 0.2323445 0.2324971 0.2345724 0.2343588 0.2317646 0.231551 0.2317341 0.2283465 0.2243789 0.2208387 0.2180919 0.2148569 0.2098822 0.2050906 0.1962705 0.1857108 0.1783556 0.1698407 0.1633706 0.1586095 0.1572056 0.1539706 0.1516206 0.1489349 0.1463407 0.1438381 0.1399011 0.1364219 0.1335226 0.1296771 0.1266252 0.1241226 0.1210706 0.1173167 0.1152109 0.1111518 0.1079473 0.1033999 0.09995117 0.09488494 0.0913752 0.08588171 0.07938106 0.07202588 0.06344992 0.05395837 0.04407007 0.0361045 0.0281084 0.02111945 0.0142831 0.009552585 0.006866874 0.007355185 0.007233107 0.007843496 0.008423366 0.009125313 0.00982726 0.0108344 0.01156687 0.01272661 0.01315388 0.01315388 0.01269609 0.01245193 0.01229933 0.01226882 0.01416102 0.01702985 0.01919673 0.01953244 0.01822011 0.01809803 0.01895257 0.02163828 0.02453763 0.02609412 0.02655191 0.02789477 0.02908503 0.02835256 0.02542269 0.02191296 0.02044803 0.01989868 0.0205701 0.02151621 0.02304218 0.02508698 0.0260636 0.02609412 0.0251175 0.02450711 0.02389672 0.02377464 0.02469023 0.02704022 0.02853568 0.02847464 0.02578893 0.02450711 0.02368309 0.02487334 0.02661295 0.02795581 0.02639932 0.02295062 0.02002075 0.02044803 0.02279802 0.02517854 0.02420192 0.02151621 0.01858634 0.01770128 0.01764024 0.017274 0.01696881 0.01660258 0.01760972 0.01971556 0.02163828 0.02349997 0.02383568 0.02331685 0.02194348 0.01968504 0.017274 0.01501556 0.01461881 0.01587011 0.01660258 0.01559543 0.01342855 0.01187206 0.01205518 0.01370323 0.01559543 0.01715193 0.0183727 0.02060062 0.02493438 0.02896295 0.02969542 0.02740646 0.02395776 0.02295062 0.0241714 0.0252701 0.02539217 0.02475127 0.02478179 0.02630776 0.02813892 0.03058048 0.03232009 0.0336019 0.03467008 0.03631813 0.03808826 0.04016358 0.04178111 0.04492462 0.04910578 0.05487395 0.05978759 0.06418239 0.0672038 0.07028627 0.07281938 0.07568821 0.0795947 0.0839895 0.0891778 0.0926265 0.09616676 0.09842519 0.1011719 0.1033693 0.1061161 0.1099615 0.1126473 0.1144479 0.1151193 0.1151193 0.1151193 0.1168284 0.1183849 0.1211317 0.1233291 0.1244583 0.1267472 0.1283953 0.13102 0.1346212 0.1376427 0.1414576 0.1445096 0.1467985 0.1494537 0.1523225 0.1555576 0.1601355 0.1644693 0.1691998 0.1732894 0.1764634
0.3016847 0.3047366 0.306049 0.3100775 0.3131905 0.3152964 0.3162425 0.3156626 0.3177989 0.3198743 0.321095 0.3219496 0.3217054 0.3222548 0.3239944 0.3250931 0.3256119 0.3273515 0.328145 0.3281755 0.328023 0.3283892 0.3286944 0.3295184 0.3289996 0.3269243 0.3238113 0.3221937 0.3228652 0.3277483 0.3328755 0.3400476 0.3465177 0.3516145 0.3552768 0.3590307 0.3648904 0.3723677 0.3790514 0.3834157 0.3838735 0.3834462 0.3808216 0.3778002 0.3755722 0.3730086 0.3693463 0.3656229 0.3619911 0.359458 0.3552158 0.350882 0.3473417 0.3446561 0.3420314 0.339071 0.3348593 0.3316548 0.3267716 0.3231093 0.3190197 0.3152658 0.3102911 0.3071782 0.2995788 0.2915217 0.2804126 0.2706159 0.2615211 0.2534945 0.2491912 0.2448575 0.2432094 0.2403406 0.2382348 0.2378685 0.2361594 0.234664 0.2332296 0.2329854 0.2320393 0.2329549 0.2332601 0.2319783 0.2320698 0.2336263 0.2313068 0.2285296 0.228377 0.2274614 0.2240432 0.2200146 0.2162913 0.2118965 0.2058841 0.2010926 0.1925777 0.1822926 0.1752121 0.1673991 0.1618751 0.157755 0.1563206 0.1529634 0.1506745 0.1482024 0.1454557 0.1429531 0.1388635 0.1356284 0.1327901 0.1290667 0.1262284 0.1236953 0.1203687 0.1164317 0.1143563 0.1102973 0.1067875 0.1019044 0.09812 0.09299274 0.08981872 0.08466093 0.07767197 0.06998108 0.06161875 0.05234084 0.04275773 0.03540255 0.02783373 0.02044803 0.01327596 0.008881157 0.006378563 0.006683758 0.006805835 0.007446744 0.008240249 0.009094793 0.01001038 0.01101752 0.01168895 0.0122383 0.01220778 0.01220778 0.01232985 0.01263505 0.0130318 0.01281817 0.0139779 0.01602271 0.01818959 0.01886101 0.01803699 0.01776231 0.01825063 0.02047854 0.02313374 0.02499542 0.02569737 0.0271623 0.02801685 0.02758957 0.02472075 0.02163828 0.02029543 0.02035647 0.02066166 0.02102789 0.02194348 0.02407984 0.02533114 0.02569737 0.0249649 0.02447659 0.02392724 0.02322529 0.02377464 0.02584997 0.02795581 0.02816944 0.02542269 0.02365257 0.02243179 0.02377464 0.02569737 0.02768113 0.02615516 0.02285906 0.01974608 0.02020387 0.02215711 0.02429347 0.02328633 0.02102789 0.01834218 0.01751816 0.01760972 0.01718245 0.01678569 0.01614478 0.01764024 0.02035647 0.02279802 0.0241714 0.02371361 0.02258439 0.02114997 0.01919673 0.01706037 0.01486297 0.01437466 0.01568699 0.01660258 0.01593115 0.01379479 0.0119331 0.01187206 0.01358115 0.01565647 0.01754868 0.01892205 0.02151621 0.02618568 0.03048892 0.03106879 0.02813892 0.02398828 0.02270646 0.02392724 0.02499542 0.02520906 0.02472075 0.02508698 0.02679607 0.02877983 0.03079412 0.0326558 0.03418177 0.03567722 0.03738631 0.03879021 0.04046878 0.04217787 0.04553501 0.04989929 0.0557285 0.06045901 0.0646707 0.06757005 0.07053043 0.07297198 0.07587133 0.07980834 0.08423366 0.08936092 0.09271806 0.09616676 0.09836416 0.1011109 0.1033083 0.105994 0.1097784 0.1124947 0.1143563 0.1150888 0.1151193 0.1151193 0.1167674 0.1183239 0.1210096 0.1232375 0.1243972 0.1265336 0.1280901 0.1305011 0.1337362 0.136544 0.1399622 0.1425258 0.144479 0.1465544 0.1487823 0.151529 0.1556797 0.1596472 0.1644388 0.1683758 0.1715803
0.2970457 0.3003113 0.3022951 0.3062626 0.3092535 0.3114204 0.3124886 0.3118477 0.3141366 0.316334 0.3177074 0.3191723 0.319447 0.3197522 0.321034 0.3215528 0.3221327 0.3239944 0.3246353 0.3246963 0.3246353 0.3254593 0.3263749 0.328084 0.3281145 0.325734 0.3211561 0.3165781 0.3145028 0.3174937 0.3239639 0.332845 0.3407801 0.3474944 0.3521638 0.3549716 0.3605872 0.3679424 0.3746566 0.3796008 0.3812794 0.3804553 0.3777391 0.3750839 0.3731002 0.3708417 0.3676067 0.3636391 0.3599768 0.3573216 0.3533236 0.3490814 0.3456937 0.3433742 0.3407801 0.3376976 0.3329671 0.3292132 0.3244216 0.3219496 0.3178295 0.3136788 0.3081548 0.3039126 0.2962217 0.288134 0.2760789 0.2659159 0.2579198 0.2506256 0.2467497 0.2432094 0.2418055 0.239364 0.2374412 0.237014 0.2353049 0.2344198 0.2332601 0.2329244 0.2318562 0.2324361 0.2329854 0.2319477 0.2306659 0.2316426 0.229964 0.2258133 0.2245315 0.2247452 0.2223341 0.2179698 0.2131478 0.2080815 0.2018861 0.1961179 0.1878777 0.1787524 0.1722517 0.1657206 0.1605323 0.1564732 0.1552524 0.1519563 0.1496979 0.1472258 0.1442654 0.1419764 0.1380089 0.1346212 0.1317219 0.1283648 0.1257096 0.1231154 0.1193005 0.115394 0.1134102 0.1095038 0.1058414 0.1005616 0.09634987 0.09143624 0.08820118 0.08255509 0.0751999 0.06769212 0.05942135 0.05032656 0.04138436 0.03497528 0.02771165 0.02008179 0.01297076 0.008545443 0.006134408 0.006103888 0.006287005 0.006836355 0.007599341 0.008545443 0.00982726 0.01117012 0.01168895 0.01162791 0.0111396 0.010987 0.01147531 0.01220778 0.0130318 0.01306232 0.01394738 0.01541232 0.01760972 0.01858634 0.01846426 0.01791491 0.01791491 0.01934933 0.02172984 0.02395776 0.02536166 0.02713178 0.02762009 0.02700971 0.0238662 0.02090582 0.019624 0.0197766 0.01983764 0.01999023 0.02081426 0.02264543 0.02392724 0.02441555 0.02389672 0.02383568 0.02331685 0.02246231 0.02249283 0.02429347 0.02661295 0.02710126 0.02484282 0.02322529 0.02215711 0.0229201 0.02432399 0.02603308 0.0252701 0.0227675 0.01974608 0.01986816 0.02142465 0.02316426 0.02212659 0.02026491 0.01788439 0.01736556 0.01776231 0.01745712 0.01687725 0.01614478 0.01764024 0.02069218 0.02356101 0.02469023 0.02359153 0.02172984 0.02005127 0.01822011 0.01657206 0.01471037 0.01477141 0.01602271 0.01678569 0.01590063 0.01361167 0.01171947 0.01135323 0.01229933 0.01373375 0.0152292 0.01712141 0.02099738 0.02667399 0.03149606 0.03204541 0.02865775 0.02420192 0.02243179 0.02334737 0.02435451 0.02462919 0.02435451 0.0251175 0.02710126 0.02948178 0.03112983 0.03302203 0.03479216 0.03662333 0.03817982 0.03915644 0.04071293 0.0425441 0.04614539 0.05087591 0.05661356 0.06113044 0.06522004 0.06790575 0.07074407 0.07312458 0.07596289 0.07999145 0.08444729 0.08945248 0.0927791 0.09610572 0.09830312 0.1009888 0.1032168 0.1058109 0.1094732 0.1122505 0.1142343 0.1150583 0.1151193 0.1151193 0.1166758 0.1182323 0.1208265 0.1230544 0.1243057 0.126381 0.1279375 0.1301959 0.1332174 0.1358725 0.1391686 0.1417018 0.143655 0.1454251 0.1470732 0.1492401 0.1527193 0.1558933 0.1603186 0.1638284 0.1669108
0.29201 0.2957944 0.2985412 0.3024171 0.3050418 0.3073308 0.3087347 0.3083379 0.3105353 0.3126106 0.313923 0.3156931 0.3168223 0.3174022 0.3181652 0.3180736 0.3185619 0.3204541 0.3214613 0.3218275 0.3220412 0.3231398 0.324208 0.3267716 0.3273515 0.3251541 0.3201489 0.3135872 0.3081853 0.3069645 0.3122444 0.3216749 0.3321431 0.3412379 0.3482879 0.3516755 0.3569859 0.3633339 0.3702924 0.3754196 0.3782885 0.3769761 0.374382 0.3716657 0.3694684 0.367332 0.3648904 0.3610145 0.3569859 0.3541476 0.3503937 0.3463041 0.3429775 0.3413294 0.3385216 0.3355612 0.3300983 0.3257645 0.3207288 0.3190807 0.3150827 0.3107795 0.3050113 0.2995483 0.2915217 0.283434 0.2715315 0.2614295 0.2547458 0.2484283 0.2450711 0.2420497 0.2408594 0.238601 0.2369529 0.237075 0.2353354 0.2342672 0.2332601 0.2330464 0.2317646 0.231551 0.2320698 0.2318257 0.2294146 0.2281939 0.2275224 0.2242568 0.2215711 0.2211744 0.2196789 0.2149179 0.2084478 0.2028017 0.1964536 0.1903192 0.1827809 0.1754257 0.1700848 0.1644082 0.159403 0.155405 0.1540621 0.1511018 0.1488433 0.1460355 0.1429225 0.1410609 0.1368492 0.1335531 0.1309894 0.1277849 0.1252518 0.122444 0.1182323 0.1143869 0.1124336 0.1086797 0.1048343 0.09952389 0.09519014 0.09006287 0.08627846 0.08029665 0.07272783 0.06512849 0.05694928 0.04806812 0.03985839 0.03421229 0.02728438 0.01974608 0.01266557 0.008453885 0.006317524 0.005798694 0.00601233 0.00656168 0.007019471 0.008026613 0.009369468 0.01059025 0.01107856 0.01080388 0.01034609 0.01013245 0.0106818 0.01153635 0.01281817 0.01312336 0.01403894 0.01501556 0.01675517 0.01791491 0.01831166 0.01791491 0.01785387 0.01883049 0.02093634 0.02319477 0.02505646 0.02722334 0.02795581 0.02740646 0.02411036 0.02099738 0.0194714 0.01904413 0.01889153 0.01931881 0.02014283 0.02163828 0.0229201 0.02362205 0.02371361 0.02407984 0.02343893 0.02203504 0.02121101 0.02273698 0.02575841 0.02713178 0.02591101 0.02438503 0.02331685 0.02279802 0.02340841 0.02459867 0.02450711 0.02258439 0.02005127 0.0197766 0.02118049 0.02264543 0.0216688 0.01971556 0.01748764 0.01712141 0.01751816 0.01767076 0.01736556 0.01684673 0.01809803 0.02078374 0.02389672 0.02514802 0.02380516 0.02145517 0.01928829 0.01730452 0.01571751 0.01419154 0.01455777 0.01574803 0.01602271 0.01467985 0.01263505 0.01120063 0.01095648 0.01159739 0.01248245 0.013337 0.01519868 0.01968504 0.02609412 0.03158762 0.03232009 0.02887139 0.02407984 0.02176036 0.02246231 0.02334737 0.02368309 0.02380516 0.02523958 0.02768113 0.03009217 0.03109931 0.032961 0.03506684 0.0372032 0.03869865 0.03930904 0.04080449 0.04306293 0.04696942 0.05185253 0.05759019 0.06180187 0.0656168 0.06818043 0.0709577 0.07327718 0.07614601 0.08014405 0.08450833 0.08954404 0.0927791 0.09601416 0.09821156 0.1008057 0.1030336 0.1055973 0.109168 0.1119758 0.1140511 0.1149667 0.1150888 0.1151193 0.1165537 0.1180797 0.1206128 0.1228713 0.1241836 0.1261979 0.1276933 0.1299213 0.1326985 0.1353232 0.1385277 0.1411219 0.1431972 0.1449063 0.1463407 0.148355 0.1514069 0.1544589 0.1586401 0.1620888 0.1652628
0.2878594 0.2917048 0.2946042 0.2983886 0.3012269 0.30376 0.305408 0.3054996 0.3072697 0.3089788 0.309986 0.3121834 0.3135567 0.3145639 0.31551 0.3157847 0.3164256 0.3182873 0.319447 0.320271 0.3206373 0.321797 0.3230483 0.3253983 0.3261613 0.3244522 0.3199963 0.3126411 0.3051639 0.2997009 0.3012574 0.3091314 0.3205762 0.3307392 0.339834 0.3462125 0.3526521 0.357871 0.3656229 0.3710554 0.3749924 0.3739242 0.3718183 0.3687359 0.3660197 0.363456 0.3607093 0.3572911 0.3539034 0.3506989 0.3472197 0.3437099 0.3403833 0.3391015 0.336019 0.3329976 0.3271989 0.3228346 0.3173106 0.3154795 0.3107184 0.3067204 0.3009827 0.2952451 0.28731 0.2783373 0.2668315 0.2572484 0.2513886 0.2463834 0.2439114 0.2412562 0.2400659 0.2380516 0.2367698 0.237014 0.235488 0.2342672 0.2329244 0.2327413 0.2311237 0.2295367 0.2288958 0.22914 0.2278276 0.2255997 0.2248367 0.2234939 0.2199536 0.2170237 0.2147958 0.2101874 0.2031984 0.1983764 0.1933101 0.1876335 0.1806446 0.173503 0.1687115 0.1634621 0.1583959 0.1543673 0.153116 0.1501251 0.1476836 0.1449673 0.1417323 0.139657 0.1356284 0.132668 0.1304401 0.1271135 0.1242446 0.1213453 0.1168895 0.1133492 0.1114875 0.1076116 0.1036135 0.09839468 0.0940304 0.08859794 0.08426417 0.07791613 0.0701642 0.06244278 0.0544772 0.04635903 0.03872917 0.03320515 0.02652139 0.01895257 0.01245193 0.008301288 0.006439602 0.00546298 0.005585058 0.005920772 0.006622719 0.007599341 0.00872856 0.00979674 0.01025453 0.01034609 0.01007142 0.009705182 0.009979857 0.01077336 0.01211622 0.01269609 0.01358115 0.01434414 0.01562595 0.01657206 0.01718245 0.01736556 0.0177318 0.0186779 0.02044803 0.02230971 0.02438503 0.02697919 0.02829152 0.02819996 0.0249649 0.02172984 0.0194714 0.0185253 0.01849478 0.01919673 0.02035647 0.02172984 0.02273698 0.02316426 0.02340841 0.02395776 0.02365257 0.02206556 0.02090582 0.02240127 0.02594152 0.02783373 0.02719282 0.02514802 0.02337789 0.02203504 0.02215711 0.02322529 0.02392724 0.02252335 0.02005127 0.01922725 0.02060062 0.02176036 0.02093634 0.01889153 0.01675517 0.01641946 0.01675517 0.01721296 0.01709089 0.01672465 0.01745712 0.01999023 0.02310322 0.02472075 0.02349997 0.0208753 0.01834218 0.01635842 0.01461881 0.0131844 0.01339803 0.0144357 0.01483245 0.01388635 0.01217726 0.01089544 0.01037661 0.01043765 0.01092596 0.01156687 0.01364219 0.01843374 0.02551425 0.03158762 0.03277788 0.02929866 0.02411036 0.02111945 0.02142465 0.02224867 0.0229201 0.02349997 0.02581945 0.02890191 0.0314045 0.03198437 0.03347982 0.03524996 0.03726424 0.03872917 0.03937008 0.04114021 0.0437954 0.04785448 0.05285967 0.05841421 0.06235122 0.06595251 0.06833303 0.07114082 0.07339925 0.07623756 0.08020509 0.08459989 0.08954404 0.09274858 0.09589209 0.09805896 0.1005921 0.1028505 0.1053531 0.1087713 0.1116096 0.113868 0.1149057 0.1150888 0.1151193 0.1164317 0.1179271 0.1203687 0.1225966 0.124031 0.1259537 0.1274492 0.129555 0.1320881 0.1346518 0.1378868 0.140542 0.1428615 0.1445706 0.1458524 0.1476531 0.1503083 0.153116 0.1570836 0.1603186 0.1637063
0.2853568 0.2890496 0.292071 0.2960386 0.2990905 0.3017457 0.3035769 0.3040347 0.3053165 0.3065373 0.3078191 0.3098944 0.3112678 0.3124886 0.313984 0.3145334 0.3152964 0.317158 0.3180431 0.318745 0.3189587 0.3201489 0.3214613 0.3236587 0.3248184 0.3237197 0.3196301 0.3127022 0.3042178 0.2949094 0.2922847 0.2961301 0.3068119 0.3181041 0.3302509 0.339071 0.3469145 0.3526216 0.3613502 0.3669047 0.3717268 0.3713911 0.3694073 0.3661112 0.3632424 0.3603125 0.3574742 0.3540865 0.3506073 0.3474333 0.3444729 0.3413294 0.3383996 0.3366294 0.3326009 0.3294879 0.324208 0.3202405 0.3148386 0.3122749 0.3069645 0.3028444 0.2971373 0.291186 0.2829457 0.2735763 0.2630471 0.2545932 0.2499237 0.2456205 0.2433315 0.2407373 0.2394861 0.237838 0.2366783 0.2366172 0.2350607 0.2336263 0.2318867 0.2313679 0.2296893 0.2277971 0.2261796 0.2262101 0.226088 0.2239211 0.2225172 0.2217237 0.2183361 0.2139413 0.2100958 0.2052127 0.1983764 0.1934322 0.1886712 0.1841543 0.1784167 0.1717939 0.1672771 0.1620582 0.1570836 0.1531771 0.152353 0.1492706 0.1468596 0.1439297 0.1406031 0.1382836 0.1344076 0.1319355 0.1300128 0.1265031 0.1231154 0.1201245 0.1156687 0.1125557 0.110633 0.1064213 0.1021791 0.0970213 0.09253494 0.08691937 0.08197522 0.07532198 0.06763108 0.0599707 0.05252396 0.04449734 0.03738631 0.03174022 0.02530062 0.01770128 0.0119331 0.00820973 0.006378563 0.005188305 0.00546298 0.005676616 0.006348044 0.007324666 0.008362327 0.009369468 0.01007142 0.01010193 0.009857779 0.009674663 0.009766221 0.01049869 0.0117805 0.01266557 0.01376427 0.01431362 0.01516816 0.01562595 0.01614478 0.01702985 0.01815907 0.01944088 0.0207227 0.02154673 0.02267594 0.02487334 0.02704022 0.02838308 0.02615516 0.02301166 0.02002075 0.01855582 0.01834218 0.01910517 0.02020387 0.02148569 0.02230971 0.02249283 0.02240127 0.02301166 0.02285906 0.02185192 0.02151621 0.0230727 0.02707074 0.02972594 0.02948178 0.02670451 0.02383568 0.02160776 0.02185192 0.02313374 0.02389672 0.02234023 0.019624 0.0183727 0.01965452 0.02099738 0.02050906 0.01825063 0.01614478 0.01550388 0.01565647 0.0164805 0.01660258 0.01675517 0.0175792 0.02038699 0.02325581 0.02502594 0.02389672 0.02124153 0.01886101 0.01675517 0.01464933 0.01275713 0.01251297 0.01352011 0.0144357 0.01403894 0.01278765 0.01135323 0.01065128 0.01037661 0.01074284 0.0111396 0.01367271 0.01870842 0.02597204 0.03198437 0.03311359 0.02954282 0.02423244 0.0208753 0.02084478 0.02148569 0.02243179 0.02365257 0.02673503 0.02978697 0.03183178 0.03228957 0.03378502 0.0357993 0.03763047 0.03888177 0.03970579 0.041598 0.04449734 0.04870903 0.05380578 0.05923823 0.06287005 0.06625771 0.06848563 0.07123238 0.07352133 0.07626808 0.08026613 0.08456937 0.08942196 0.09268754 0.09573948 0.09790637 0.1003479 0.1025758 0.1050174 0.108283 0.1111518 0.1135018 0.1147226 0.1150583 0.1151193 0.1163096 0.1177135 0.1200635 0.1222914 0.1238174 0.1256485 0.1271135 0.1291583 0.1314472 0.1339803 0.1372154 0.1399316 0.1425258 0.1442044 0.1455472 0.1471647 0.1495147 0.1521394 0.1558017 0.1590979 0.1626686
0.2824574 0.2860892 0.2890496 0.2934139 0.2966795 0.2993957 0.3013184 0.3020204 0.3028444 0.303821 0.305347 0.3072697 0.3084905 0.3101386 0.3121223 0.3129463 0.3135567 0.31551 0.3166697 0.3173106 0.3174022 0.3185314 0.3195996 0.3218885 0.3232924 0.32256 0.3188061 0.3128243 0.304584 0.293536 0.2874626 0.28731 0.2945431 0.3040042 0.3170054 0.3272905 0.3373009 0.3443508 0.3540865 0.3608619 0.367393 0.3685833 0.3672709 0.3637917 0.3605567 0.3574742 0.3548495 0.3512788 0.3481963 0.3455411 0.3432827 0.3402613 0.3370262 0.3346151 0.3299152 0.326558 0.3219496 0.3185009 0.313221 0.3098944 0.3044314 0.2997009 0.2940243 0.2876457 0.2790087 0.2689678 0.2599646 0.2529146 0.2488555 0.2450101 0.2429347 0.2404322 0.2391503 0.2375633 0.2363425 0.2360068 0.2343283 0.232375 0.229964 0.2290789 0.2273698 0.2254471 0.2237075 0.2232192 0.2242263 0.2235854 0.2209302 0.2185802 0.2157114 0.210401 0.204877 0.1993225 0.193066 0.1883965 0.1843374 0.1814686 0.1768296 0.170268 0.165629 0.1605323 0.1558628 0.1518953 0.1508576 0.1478667 0.1456693 0.142892 0.1395654 0.1370628 0.1336446 0.1314167 0.1293414 0.1256791 0.1218031 0.1187817 0.1143869 0.1115791 0.1094732 0.1049258 0.1006531 0.09558689 0.09097845 0.08484405 0.07947262 0.072209 0.06479277 0.05731551 0.05054019 0.0426967 0.03613502 0.03009217 0.02362205 0.01629738 0.01117012 0.007843496 0.006256485 0.004791552 0.005157785 0.005310383 0.006103888 0.006958432 0.007996093 0.00927791 0.01022401 0.01022401 0.009735702 0.009308429 0.009430507 0.01001038 0.01123115 0.01239089 0.01355063 0.0139779 0.01458829 0.01492401 0.01577855 0.01693829 0.01806751 0.01934933 0.02050906 0.02096686 0.02139413 0.02328633 0.02581945 0.02804737 0.02658243 0.02334737 0.02014283 0.01855582 0.01831166 0.01873894 0.01968504 0.02105841 0.02169932 0.02179088 0.02124153 0.02145517 0.02133309 0.02102789 0.02133309 0.02273698 0.02652139 0.02929866 0.02960386 0.02710126 0.02343893 0.02093634 0.02111945 0.02215711 0.02279802 0.02136361 0.01861686 0.01712141 0.01806751 0.0194714 0.01934933 0.01736556 0.0150766 0.01431362 0.01467985 0.01577855 0.0161753 0.01657206 0.01754868 0.02063114 0.02359153 0.02566685 0.02481231 0.02209608 0.01974608 0.0174266 0.01501556 0.01266557 0.01205518 0.01315388 0.01440518 0.01431362 0.01330648 0.01202466 0.01129219 0.01086492 0.01117012 0.01162791 0.01452725 0.01974608 0.02652139 0.03213697 0.03317463 0.0296649 0.02441555 0.0208753 0.02066166 0.02105841 0.02243179 0.02420192 0.02758957 0.0303058 0.03183178 0.03241165 0.03399866 0.03613502 0.03796618 0.03933956 0.04028566 0.04217787 0.04526033 0.0492889 0.05441616 0.05966551 0.06320576 0.06647134 0.06863822 0.07138497 0.07364341 0.07639016 0.08029665 0.08447781 0.08926936 0.09256546 0.09555637 0.09766221 0.1000427 0.1022706 0.1046512 0.1076726 0.1105719 0.113105 0.1145395 0.1150278 0.1151193 0.1161265 0.1174693 0.1196972 0.1218336 0.1235427 0.1253433 0.1267778 0.1287005 0.1308368 0.1333394 0.1365135 0.1392602 0.142007 0.1437161 0.1451505 0.1466154 0.1486297 0.1511628 0.1544894 0.1578465 0.1615394
0.2790087 0.2829457 0.2861198 0.2908503 0.294421 0.2968321 0.2986327 0.2994873 0.3004944 0.3016542 0.3034548 0.3056827 0.3069645 0.3082463 0.3102911 0.3113593 0.3117256 0.3135872 0.3150217 0.315632 0.3159983 0.3172191 0.3180126 0.3203321 0.3219801 0.3219191 0.3189587 0.31316 0.3048892 0.2933834 0.2849905 0.2815113 0.2846243 0.2905756 0.3019899 0.3132516 0.3251541 0.3347372 0.3448697 0.3517365 0.3595495 0.3623573 0.3625709 0.3600378 0.3573216 0.3545443 0.3525301 0.3493866 0.3462431 0.3435879 0.341482 0.3378197 0.3344626 0.332082 0.327321 0.3230178 0.3184398 0.3152658 0.3107489 0.3074529 0.3020814 0.296771 0.2906366 0.2838308 0.2744003 0.2646341 0.2573704 0.2516328 0.2479399 0.2443692 0.2424464 0.2400964 0.2385094 0.2364646 0.2346335 0.2337484 0.2317341 0.2294757 0.2268815 0.2263627 0.225264 0.2240737 0.2226088 0.2215406 0.2215406 0.2209608 0.218153 0.2142159 0.2110724 0.2066776 0.200238 0.1945309 0.1898004 0.1855582 0.1814991 0.1779589 0.1734725 0.1676738 0.1635232 0.1592504 0.1548862 0.1507966 0.1495453 0.1464628 0.1441128 0.1414881 0.1384972 0.1362083 0.1330648 0.1307453 0.1281206 0.1242446 0.1204297 0.1175914 0.1134408 0.1103888 0.1080083 0.1033693 0.09931026 0.09409144 0.08920833 0.08252457 0.07669535 0.06882134 0.06161875 0.05459928 0.04858695 0.04098761 0.03451749 0.02850516 0.02209608 0.01513764 0.01071232 0.007721419 0.006225966 0.004791552 0.005218824 0.005279863 0.005859733 0.006500641 0.007477263 0.008698041 0.009583104 0.009461027 0.009033754 0.008514924 0.00875908 0.009369468 0.01043765 0.01150583 0.01254349 0.0128792 0.01352011 0.0141305 0.0152292 0.01644998 0.0174266 0.01870842 0.02020387 0.02127205 0.02179088 0.02325581 0.02581945 0.02874931 0.02774217 0.02432399 0.02063114 0.01873894 0.01834218 0.01809803 0.01843374 0.01922725 0.02005127 0.02038699 0.02002075 0.02002075 0.01974608 0.01974608 0.02047854 0.0218214 0.02542269 0.02835256 0.02942074 0.02700971 0.0230727 0.02029543 0.02029543 0.02124153 0.02163828 0.02005127 0.01751816 0.01590063 0.01626686 0.0175792 0.01797595 0.01660258 0.01452725 0.01339803 0.01345907 0.0139779 0.01425258 0.01474089 0.01635842 0.02008179 0.02353049 0.02609412 0.02560581 0.02310322 0.02041751 0.01751816 0.01483245 0.01263505 0.01205518 0.0130318 0.01391686 0.01388635 0.01306232 0.01202466 0.01129219 0.01065128 0.0108344 0.01187206 0.01529024 0.02005127 0.02578893 0.0304584 0.03167918 0.02893243 0.02438503 0.02081426 0.02032595 0.02063114 0.02224867 0.02438503 0.02762009 0.02960386 0.03094671 0.03177074 0.03366295 0.03607398 0.03781359 0.03952268 0.04077397 0.04263566 0.04562657 0.04956357 0.0544772 0.05972654 0.06323628 0.06665446 0.06872978 0.07144601 0.07370445 0.0764512 0.08023561 0.08435573 0.08902521 0.09235182 0.09525117 0.09738754 0.09967649 0.1018129 0.1042239 0.1070622 0.109931 0.1126167 0.1143258 0.1149973 0.1151193 0.1159739 0.1171641 0.1193005 0.1213758 0.123207 0.1250076 0.1264115 0.1283037 0.1301959 0.1326985 0.1356894 0.1384972 0.1413355 0.1432277 0.1447842 0.1461271 0.1478667 0.1501862 0.1532076 0.1565647 0.1603491
0.2764756 0.2806873 0.284075 0.2888665 0.2925288 0.2951535 0.2968931 0.2974119 0.2988158 0.3001892 0.3016542 0.3041568 0.3057743 0.3067204 0.3087041 0.3098028 0.3101691 0.3119087 0.3133126 0.3141976 0.314747 0.3159373 0.3166392 0.3188671 0.3204541 0.3204846 0.3180126 0.3129463 0.305408 0.2939633 0.2845328 0.2784594 0.2787341 0.2804126 0.2887749 0.2988158 0.3098944 0.3203626 0.3318989 0.3400781 0.349234 0.3543307 0.3567723 0.355521 0.3534762 0.3509431 0.3496307 0.3470366 0.3443203 0.3416651 0.3395898 0.3357444 0.3321736 0.3298846 0.3253067 0.3208509 0.3163035 0.3130379 0.3086126 0.3051029 0.2997009 0.2940243 0.2876457 0.2801074 0.2702191 0.2607886 0.2547763 0.2500763 0.246536 0.2433925 0.2413783 0.2389062 0.237075 0.2348166 0.2324666 0.2311237 0.2287737 0.2262711 0.2239822 0.2234939 0.2228224 0.2222426 0.2212354 0.2196789 0.2181224 0.2171153 0.2141549 0.2095465 0.2056095 0.2019166 0.1958127 0.190716 0.1867485 0.1832692 0.1793628 0.175029 0.1703595 0.165568 0.1620582 0.1577245 0.1534823 0.1494537 0.1482634 0.145242 0.1426784 0.1399927 0.137429 0.1355063 0.1324238 0.1296771 0.1269609 0.1229323 0.1191174 0.1164927 0.1124641 0.109046 0.1062992 0.1015992 0.09763169 0.09213819 0.08694988 0.07944211 0.07367393 0.06552524 0.05881096 0.0521272 0.04681682 0.03937008 0.0328084 0.02679607 0.02090582 0.01425258 0.01071232 0.008148691 0.006409083 0.004791552 0.005279863 0.005188305 0.005493499 0.00601233 0.006897394 0.008118171 0.009155832 0.009155832 0.008698041 0.00817921 0.008423366 0.008820118 0.009522066 0.01055973 0.01153635 0.01217726 0.01260453 0.01312336 0.01449673 0.01593115 0.01702985 0.01843374 0.02023439 0.02209608 0.02282854 0.02407984 0.02572789 0.0281084 0.02707074 0.02404932 0.02053958 0.01879998 0.01818959 0.0174266 0.0177318 0.01846426 0.01944088 0.01995971 0.019624 0.01944088 0.01895257 0.01889153 0.01950192 0.02060062 0.02356101 0.02594152 0.02740646 0.02597204 0.02264543 0.01980712 0.01934933 0.01995971 0.0205701 0.01934933 0.017274 0.01547336 0.01510712 0.01608375 0.01657206 0.01577855 0.01391686 0.01275713 0.01232985 0.01248245 0.01229933 0.01260453 0.01425258 0.01788439 0.02179088 0.02499542 0.02505646 0.02295062 0.02029543 0.017274 0.01449673 0.01232985 0.01184154 0.01266557 0.01339803 0.01355063 0.0128792 0.01211622 0.01095648 0.01016297 0.01028505 0.01187206 0.01562595 0.02005127 0.02484282 0.02899347 0.03070256 0.0285662 0.02435451 0.02093634 0.02041751 0.02069218 0.02252335 0.02456815 0.0274675 0.02893243 0.03015321 0.0315571 0.03381554 0.03616554 0.03769151 0.0394006 0.04062138 0.04266618 0.0458402 0.04974669 0.05466032 0.05978759 0.06317525 0.06653238 0.06869926 0.07147653 0.07376549 0.0764512 0.08011353 0.0841421 0.08872002 0.09207715 0.09494598 0.0970213 0.09924922 0.1013551 0.1037356 0.1063908 0.1092596 0.1120979 0.1140817 0.1149667 0.1151193 0.1158213 0.1168589 0.1188427 0.120857 0.1228713 0.1246414 0.1260453 0.1278765 0.1296161 0.1320881 0.1348349 0.1375511 0.140542 0.1425563 0.144357 0.1456082 0.1471342 0.1492706 0.1520173 0.1552524 0.1587926
0.273912 0.2781237 0.2818165 0.2866386 0.2903315 0.2934749 0.2952756 0.2952756 0.2973509 0.2990295 0.2995483 0.302173 0.3043093 0.305408 0.3072087 0.3079412 0.3083074 0.3099249 0.3112983 0.3125801 0.3132821 0.314747 0.3156626 0.317921 0.3190502 0.3185619 0.3164256 0.3129769 0.3060795 0.294421 0.284075 0.2760483 0.2744613 0.2729354 0.2784594 0.2857535 0.2947263 0.3042788 0.3165476 0.3256119 0.3355307 0.3426113 0.3472502 0.3487151 0.3477995 0.3461515 0.3455716 0.3436184 0.3416346 0.3390099 0.3369346 0.3328755 0.3295489 0.327382 0.3231398 0.3190197 0.3145334 0.3106269 0.306049 0.3026308 0.2970152 0.2910639 0.2837392 0.2757432 0.2657022 0.2569432 0.2517549 0.2475127 0.2442471 0.2409815 0.2386315 0.2358542 0.2337179 0.2315205 0.22914 0.2278276 0.2256607 0.223738 0.2219984 0.2214796 0.2206861 0.2199231 0.2189465 0.2167491 0.2139718 0.2113471 0.208051 0.2034426 0.1992919 0.1967588 0.1924556 0.1880303 0.1846731 0.1821705 0.1788744 0.1735946 0.1682842 0.1635537 0.1601965 0.1559543 0.1516816 0.1479277 0.1468596 0.1439602 0.141305 0.1388024 0.1365135 0.1346823 0.1315998 0.1283648 0.1254349 0.1212537 0.1178356 0.115333 0.1112739 0.1073979 0.1043765 0.09985961 0.09580053 0.08991027 0.08444729 0.07617652 0.07034731 0.06225966 0.05612525 0.04983824 0.04507721 0.03763047 0.03106879 0.02499542 0.02002075 0.01400842 0.01080388 0.008453885 0.006439602 0.004577916 0.005005188 0.004669474 0.005127266 0.005676616 0.00653116 0.007935055 0.009125313 0.009308429 0.009003235 0.008606482 0.00875908 0.008698041 0.008911677 0.009766221 0.01089544 0.01187206 0.01217726 0.01257401 0.01352011 0.01510712 0.01660258 0.01818959 0.02005127 0.02224867 0.02334737 0.02450711 0.02530062 0.02725386 0.0260636 0.02383568 0.02081426 0.01922725 0.01815907 0.01745712 0.01794543 0.01883049 0.01986816 0.02005127 0.01953244 0.01919673 0.01855582 0.01861686 0.01922725 0.02032595 0.0230727 0.02572789 0.02777269 0.02649087 0.02340841 0.01983764 0.01889153 0.01934933 0.02029543 0.01922725 0.01733504 0.01532076 0.01461881 0.01510712 0.01550388 0.01498505 0.01336752 0.0122383 0.01144479 0.01144479 0.01126167 0.01171947 0.01312336 0.01623634 0.02026491 0.02377464 0.02414088 0.02169932 0.01913569 0.01626686 0.0141305 0.0120857 0.01138375 0.01205518 0.01275713 0.01336752 0.01266557 0.01181102 0.01028505 0.009338949 0.009430507 0.01168895 0.01580907 0.01989868 0.02374412 0.02734542 0.02908503 0.02755906 0.0238662 0.02053958 0.02014283 0.02060062 0.02249283 0.02435451 0.02697919 0.02829152 0.0296649 0.03146555 0.03384606 0.03628761 0.03769151 0.03927852 0.04056033 0.04266618 0.04590124 0.04989929 0.05475188 0.05975707 0.06302264 0.06637979 0.06857719 0.07132393 0.07358237 0.07623756 0.07980834 0.08374535 0.08829274 0.09171092 0.09461027 0.09662455 0.09879143 0.1008362 0.1032473 0.1056888 0.1085882 0.1115486 0.113807 0.1149362 0.1151193 0.1156687 0.1165232 0.1183849 0.1203076 0.1225356 0.1243057 0.1257096 0.1274187 0.1290362 0.1314167 0.1338888 0.1366355 0.1395654 0.1418544 0.1438686 0.1450894 0.1465238 0.1483855 0.150766 0.1539706 0.1571751
0.2704328 0.2748276 0.2789172 0.2838918 0.2875542 0.2909724 0.2929561 0.2930782 0.2950314 0.296771 0.2972594 0.2995483 0.3013795 0.3030581 0.3048587 0.3056217 0.3061405 0.3075444 0.3087347 0.3103217 0.3113899 0.3124275 0.3127938 0.3145944 0.3170359 0.317097 0.3145944 0.3114814 0.3051029 0.2942379 0.2835867 0.2744918 0.2706769 0.267625 0.2711042 0.2751633 0.2813892 0.2896905 0.3011658 0.3099249 0.3201489 0.3291827 0.3357139 0.3397729 0.3404749 0.3401392 0.3402613 0.3386437 0.3371482 0.3347372 0.3324178 0.3284808 0.3250931 0.3229872 0.3192334 0.3154184 0.3105658 0.3064457 0.3015931 0.2983581 0.2927119 0.2862418 0.2776964 0.2688458 0.2596594 0.2526704 0.2481841 0.2441555 0.241012 0.237838 0.2353964 0.2328023 0.2306965 0.2288653 0.226851 0.2254776 0.2230666 0.2212354 0.2197705 0.2186107 0.2172679 0.2159556 0.2150095 0.2129341 0.2098822 0.206403 0.2028322 0.1987121 0.1947446 0.1924556 0.189892 0.1866264 0.1829335 0.1801257 0.1771043 0.1718855 0.1666972 0.1619361 0.1582433 0.1540316 0.1498505 0.1461576 0.1449368 0.1425563 0.1400232 0.1378258 0.1355368 0.1335836 0.1303485 0.1267167 0.1236037 0.1196972 0.1167063 0.1140206 0.1095953 0.1053836 0.1027895 0.0982726 0.09393884 0.08707196 0.08115119 0.07251419 0.06683758 0.05914668 0.05347006 0.04776292 0.04330709 0.03561619 0.02893243 0.02298114 0.01879998 0.01367271 0.0106818 0.008392846 0.006653238 0.004608436 0.004883111 0.004516877 0.004852591 0.005157785 0.006134408 0.007477263 0.008667521 0.009155832 0.009369468 0.009338949 0.009094793 0.008423366 0.008087652 0.008698041 0.009918818 0.01126167 0.01162791 0.01205518 0.01290972 0.01477141 0.01675517 0.01825063 0.01980712 0.0216688 0.02310322 0.02508698 0.02551425 0.02655191 0.02493438 0.02356101 0.0208753 0.01916621 0.01745712 0.01699933 0.01791491 0.01928829 0.02008179 0.01974608 0.01898309 0.01861686 0.01806751 0.01800647 0.01828115 0.01916621 0.02157724 0.02398828 0.02639932 0.02572789 0.02340841 0.01992919 0.01910517 0.01937984 0.02060062 0.019624 0.01776231 0.01544284 0.01440518 0.01446621 0.01455777 0.01409998 0.01269609 0.01174998 0.01080388 0.01071232 0.0106818 0.01141427 0.01275713 0.01571751 0.01986816 0.02343893 0.02392724 0.02154673 0.01913569 0.01641946 0.01425258 0.01205518 0.010987 0.01138375 0.01181102 0.01232985 0.01190258 0.01135323 0.009857779 0.008850638 0.00875908 0.01162791 0.01574803 0.01965452 0.02313374 0.02639932 0.0281084 0.02676555 0.02325581 0.02011231 0.01983764 0.02047854 0.02246231 0.02438503 0.02667399 0.02795581 0.0292071 0.0314045 0.0339071 0.0361045 0.03723372 0.03897332 0.04031618 0.04263566 0.04602332 0.05002137 0.05475188 0.05969603 0.06287005 0.06622718 0.06839406 0.07114082 0.07333822 0.07587133 0.07938106 0.08328755 0.08768235 0.09125313 0.09415247 0.09613624 0.09830312 0.1002869 0.10282 0.1050479 0.1078862 0.1108466 0.1133187 0.1147226 0.1150583 0.1155161 0.1161875 0.1179882 0.1197583 0.1221388 0.1238479 0.1253128 0.1269609 0.1285174 0.1307148 0.1329427 0.1355979 0.1385277 0.1410914 0.1432888 0.1446316 0.1460355 0.147531 0.1496063 0.1525362 0.155466
0.2667704 0.2712263 0.2756821 0.2808704 0.2845328 0.288073 0.2902704 0.2908808 0.2925288 0.2939938 0.2950925 0.2971678 0.2988158 0.3004334 0.302112 0.3029665 0.3038515 0.3053775 0.3064152 0.3079412 0.3089178 0.3102606 0.3104132 0.311695 0.3145334 0.3149606 0.31316 0.3098028 0.3036684 0.2934444 0.2823964 0.2728438 0.2672893 0.2625282 0.2646951 0.2667704 0.2707685 0.2770555 0.2866386 0.2938412 0.3028749 0.3129158 0.3206373 0.3278398 0.3307087 0.3327534 0.3338827 0.332845 0.3310749 0.3286639 0.3262833 0.3224379 0.3193554 0.3177074 0.3141366 0.3104438 0.3054996 0.3016847 0.2962827 0.2929256 0.2868522 0.2796802 0.2704633 0.2617652 0.2536776 0.2477263 0.2439419 0.2402185 0.2371361 0.2343283 0.2321614 0.2296893 0.2276445 0.2261491 0.2244705 0.2229445 0.2202893 0.2180614 0.2163523 0.2149484 0.2129647 0.2111945 0.2097601 0.207929 0.2053043 0.2016725 0.198529 0.1949582 0.1912959 0.1887322 0.1869316 0.1846731 0.1814381 0.1783556 0.1751511 0.1700238 0.1648355 0.1597387 0.1559849 0.1520173 0.1481719 0.1445706 0.1431667 0.1412745 0.1390771 0.1370628 0.1347128 0.1321492 0.128731 0.124855 0.1219252 0.1182628 0.115333 0.1124641 0.1078862 0.103583 0.1010194 0.09625831 0.09131417 0.08365379 0.07733627 0.06882134 0.06335836 0.05658304 0.05112007 0.04580968 0.04150644 0.03354087 0.02661295 0.02114997 0.01733504 0.013337 0.01059025 0.008423366 0.006622719 0.004486358 0.004791552 0.004303241 0.004669474 0.004883111 0.005798694 0.007141549 0.008148691 0.008942196 0.009216871 0.009369468 0.008911677 0.008118171 0.00766038 0.008118171 0.00927791 0.01049869 0.01104804 0.01132271 0.0119331 0.01382531 0.01599219 0.01779283 0.01944088 0.02145517 0.02374412 0.02649087 0.02713178 0.02737594 0.02514802 0.02392724 0.02169932 0.02002075 0.01770128 0.01681621 0.01745712 0.01901361 0.01989868 0.01950192 0.01861686 0.01809803 0.01760972 0.01760972 0.01809803 0.01895257 0.0208753 0.02295062 0.02575841 0.02545321 0.02356101 0.01986816 0.01907465 0.01950192 0.02130257 0.0205701 0.01873894 0.0161753 0.01492401 0.01480193 0.01467985 0.01431362 0.0131844 0.01226882 0.01089544 0.0106818 0.01055973 0.01101752 0.01211622 0.01513764 0.01971556 0.02343893 0.02423244 0.02185192 0.0194714 0.01678569 0.01452725 0.0122383 0.010987 0.01101752 0.01101752 0.01110908 0.01080388 0.01046817 0.009430507 0.008423366 0.008575963 0.01187206 0.01596167 0.0194714 0.02218763 0.02502594 0.02652139 0.02554477 0.02249283 0.019624 0.01959348 0.02044803 0.02243179 0.02456815 0.02658243 0.02771165 0.02890191 0.03137399 0.03381554 0.03570775 0.03653177 0.0381493 0.03988891 0.04251358 0.04611488 0.05002137 0.0547824 0.05966551 0.06283953 0.06616615 0.06833303 0.07101874 0.07324666 0.0756577 0.07904536 0.08273821 0.08710249 0.09064274 0.09360313 0.09561741 0.09787585 0.09973753 0.1023012 0.104346 0.1071232 0.1100531 0.1127083 0.1143869 0.1149667 0.1154245 0.1158823 0.1174998 0.1191784 0.12162 0.1233291 0.124855 0.126442 0.1279375 0.1300433 0.1320271 0.1346212 0.1374901 0.1402063 0.1425868 0.1440823 0.1455777 0.146768 0.1485992 0.1512238 0.1538485
0.2631081 0.2675945 0.2725691 0.2780016 0.2819081 0.2854178 0.2879204 0.2895379 0.2906366 0.2916743 0.2934749 0.2955503 0.2970152 0.2982665 0.299823 0.300647 0.3013795 0.3026918 0.3036684 0.304462 0.3051944 0.3070256 0.3073918 0.3087041 0.3105963 0.3117561 0.3109016 0.307636 0.3016236 0.2921016 0.2819691 0.2721418 0.2655191 0.2588659 0.2590185 0.2592627 0.2609717 0.265336 0.2735152 0.2798633 0.2886834 0.2987548 0.3065068 0.3155405 0.3197522 0.3234755 0.3253067 0.3247574 0.3230788 0.3211561 0.3192639 0.3159067 0.313221 0.3116035 0.3075749 0.3043704 0.2997009 0.2959775 0.2911249 0.2874321 0.2800464 0.2725996 0.2633522 0.2548984 0.2481536 0.2436062 0.2404627 0.2371666 0.2344198 0.2319477 0.2295672 0.2269426 0.224562 0.2228835 0.2208997 0.2188854 0.2158945 0.2133309 0.2110419 0.2093023 0.2074101 0.2056095 0.2042971 0.203229 0.2012452 0.1982238 0.1955075 0.1928523 0.1892816 0.1855887 0.1833913 0.1818653 0.1798205 0.1763108 0.1723738 0.1673076 0.162516 0.1574803 0.153879 0.1499115 0.1462492 0.1431362 0.1418238 0.1402673 0.1382531 0.1360862 0.13337 0.1303485 0.1267167 0.1230239 0.1203687 0.1168284 0.1135018 0.1102973 0.1058719 0.1018129 0.09894402 0.09396936 0.08814014 0.07989989 0.07294147 0.06518953 0.06000122 0.05411097 0.04910578 0.04358176 0.039248 0.0314045 0.02441555 0.01950192 0.0163279 0.0128792 0.01052921 0.008423366 0.006653238 0.004516877 0.004822072 0.003998047 0.004394799 0.004761033 0.005585058 0.006775316 0.007782457 0.00875908 0.009094793 0.009216871 0.008637002 0.007996093 0.00762986 0.008057132 0.009033754 0.00979674 0.01031557 0.0106818 0.01095648 0.01260453 0.01464933 0.01669413 0.01855582 0.02063114 0.02359153 0.02673503 0.02789477 0.0273149 0.02472075 0.02316426 0.02179088 0.0205701 0.01825063 0.01657206 0.01651102 0.01785387 0.01895257 0.01901361 0.01849478 0.01800647 0.01751816 0.0175792 0.01818959 0.01879998 0.01983764 0.02099738 0.02328633 0.02343893 0.02258439 0.01953244 0.01861686 0.01883049 0.02044803 0.02029543 0.01904413 0.01660258 0.01513764 0.01486297 0.01471037 0.01437466 0.013337 0.01229933 0.01101752 0.01074284 0.01059025 0.01080388 0.01159739 0.01440518 0.01886101 0.02249283 0.02334737 0.02148569 0.0194714 0.01672465 0.01400842 0.01147531 0.01022401 0.01025453 0.01028505 0.01016297 0.00979674 0.009155832 0.008392846 0.007782457 0.008545443 0.01245193 0.0164805 0.01968504 0.02209608 0.02450711 0.02591101 0.02493438 0.02200452 0.0194714 0.0197766 0.0208753 0.02288958 0.0249649 0.02639932 0.02725386 0.02832204 0.03109931 0.03381554 0.03576878 0.03644021 0.0381493 0.03976683 0.04245254 0.04608436 0.04999084 0.05466032 0.05951291 0.06277849 0.06607459 0.06827199 0.07086614 0.07306354 0.07547458 0.07861808 0.08221938 0.08637002 0.08994079 0.09302326 0.09509858 0.09735702 0.09915766 0.1016908 0.1036135 0.1062687 0.1090765 0.1119148 0.1139291 0.1148141 0.1153024 0.1156382 0.1170421 0.1185986 0.1209791 0.1227187 0.1244278 0.1259232 0.1273881 0.1292804 0.131142 0.1337057 0.1363609 0.1392297 0.1416407 0.1434719 0.1449673 0.1460355 0.147592 0.1498505 0.152231
0.2592321 0.2632607 0.2680523 0.2736068 0.277788 0.2814808 0.2844107 0.2866081 0.2875542 0.2886223 0.2902704 0.2922847 0.2939022 0.295184 0.29671 0.2976561 0.2986938 0.3000671 0.3009827 0.3019288 0.3025697 0.303821 0.3049502 0.306934 0.3084295 0.3094671 0.3086736 0.3061405 0.3005555 0.2909724 0.2805957 0.2705854 0.2633522 0.2556003 0.2548373 0.253586 0.2527925 0.255112 0.2617652 0.2667399 0.2753769 0.2853262 0.2930477 0.3026918 0.3080938 0.3128548 0.315571 0.315632 0.3146859 0.3128853 0.3114509 0.3088873 0.3066899 0.305286 0.3011964 0.2981139 0.2937191 0.2901788 0.2852652 0.2808704 0.2724776 0.2645425 0.2563938 0.2491302 0.2435146 0.2398828 0.2369224 0.2336874 0.2306965 0.2280718 0.2254776 0.2227614 0.2201062 0.2179698 0.2158335 0.213453 0.2104926 0.20799 0.2060062 0.2042361 0.2028322 0.2013978 0.200177 0.1993225 0.1978575 0.1953244 0.1924861 0.1904108 0.1874809 0.183666 0.1810108 0.1795764 0.1779283 0.1740219 0.1693219 0.1643472 0.1600745 0.1557102 0.1521394 0.1477141 0.1443264 0.1417018 0.1406031 0.1392602 0.1371239 0.1345907 0.1315083 0.1283037 0.124794 0.1214369 0.1190563 0.115394 0.1113044 0.1077641 0.1038882 0.1002258 0.09656351 0.09070378 0.08395898 0.07587133 0.0687603 0.06189343 0.05713239 0.05179149 0.04687786 0.04150644 0.03662333 0.0292071 0.02261491 0.01828115 0.0155344 0.01236037 0.01013245 0.00820973 0.00656168 0.004608436 0.004944149 0.00384545 0.004303241 0.004791552 0.005554538 0.006592199 0.007507782 0.00875908 0.009094793 0.009186352 0.008453885 0.007996093 0.007812977 0.008240249 0.009125313 0.00982726 0.01034609 0.01046817 0.01065128 0.01190258 0.01342855 0.01574803 0.01794543 0.02035647 0.02346945 0.02649087 0.0281084 0.0273149 0.02462919 0.02203504 0.02093634 0.02011231 0.01864738 0.01669413 0.01605323 0.01693829 0.01803699 0.01834218 0.01803699 0.01776231 0.01709089 0.01699933 0.01754868 0.0185253 0.01934933 0.02032595 0.02212659 0.02261491 0.02203504 0.0194714 0.01815907 0.01770128 0.01870842 0.01873894 0.01776231 0.01593115 0.01489349 0.01458829 0.01440518 0.01419154 0.01342855 0.01239089 0.0111396 0.01055973 0.01028505 0.01043765 0.01138375 0.0139779 0.01785387 0.02081426 0.02148569 0.02005127 0.01858634 0.01611426 0.01324544 0.01052921 0.009491546 0.009888299 0.01034609 0.01043765 0.009888299 0.008881157 0.007935055 0.007263627 0.008270768 0.01257401 0.01672465 0.01992919 0.02200452 0.02407984 0.02508698 0.02395776 0.02124153 0.01904413 0.01980712 0.02111945 0.02319477 0.0252701 0.02633828 0.02697919 0.02807789 0.03106879 0.0339071 0.03592138 0.03674541 0.03854606 0.0401941 0.04272722 0.04626747 0.05002137 0.05450772 0.05932979 0.06268694 0.06589147 0.06811939 0.07065251 0.07291094 0.0751999 0.0781908 0.08151743 0.08551547 0.08911677 0.09238235 0.09461027 0.09686871 0.0985778 0.1010194 0.102881 0.1054752 0.1080693 0.1109687 0.1132576 0.1146005 0.1152109 0.1154245 0.1166148 0.1179882 0.1203076 0.1220472 0.1238784 0.1253433 0.1268693 0.1285784 0.1303791 0.1327291 0.1351096 0.1380394 0.1406031 0.1427699 0.1443875 0.1454862 0.146829 0.1486602 0.1508271
0.2557224 0.2597204 0.264512 0.270097 0.2745529 0.2788561 0.2821522 0.2847464 0.2859061 0.2869133 0.2881646 0.2902704 0.2918269 0.2927425 0.2942685 0.2954282 0.2964353 0.2976561 0.2984191 0.2993652 0.3000061 0.3008301 0.3018067 0.3042178 0.3057438 0.3064762 0.3055606 0.3036074 0.298297 0.2889581 0.2788561 0.2687237 0.2612769 0.2524568 0.2506562 0.2482757 0.2460172 0.2466581 0.2518159 0.2551425 0.2632302 0.273149 0.2813282 0.2907282 0.2962827 0.3011353 0.3041262 0.3046145 0.3039126 0.3025087 0.301349 0.2991211 0.2969847 0.2959165 0.2921321 0.2890191 0.2852347 0.2816334 0.2764451 0.2712263 0.2625893 0.2544406 0.2475127 0.2420192 0.2374412 0.2342062 0.2313374 0.2282854 0.2254166 0.2226698 0.2199536 0.2172374 0.2146127 0.2122627 0.2097601 0.2069829 0.2042666 0.2024965 0.2010316 0.1996887 0.1988952 0.1981627 0.1969725 0.1960874 0.1948971 0.1927303 0.1899835 0.1879998 0.1859244 0.1828115 0.1798205 0.1775926 0.1755173 0.1711835 0.1659037 0.1613563 0.157816 0.1537875 0.149942 0.1456388 0.1428005 0.1408472 0.1399011 0.1384362 0.135842 0.1329122 0.1293414 0.1261979 0.1228713 0.1199719 0.1173167 0.1132576 0.1087408 0.105109 0.1016297 0.0979674 0.09320638 0.08661418 0.07925899 0.07169016 0.06491485 0.058872 0.05456876 0.04962461 0.04461942 0.03915644 0.03366295 0.02685711 0.02093634 0.01748764 0.0150766 0.01214674 0.009766221 0.007874016 0.006317524 0.004455838 0.004730513 0.003753891 0.004120125 0.004638955 0.005493499 0.006378563 0.00711103 0.008270768 0.008698041 0.00875908 0.008087652 0.007477263 0.007324666 0.007751938 0.00872856 0.009338949 0.009888299 0.01001038 0.01019349 0.01120063 0.01251297 0.01461881 0.01681621 0.01876946 0.02139413 0.02404932 0.02624672 0.02545321 0.0230727 0.01995971 0.01916621 0.0183727 0.01776231 0.01620582 0.01577855 0.01641946 0.01724348 0.01739608 0.01702985 0.01678569 0.01626686 0.0161753 0.01666361 0.01748764 0.01776231 0.01803699 0.01950192 0.02108893 0.02142465 0.01971556 0.01785387 0.01626686 0.01608375 0.01571751 0.01532076 0.01449673 0.01376427 0.01370323 0.01358115 0.01355063 0.0130318 0.01214674 0.010987 0.01028505 0.01007142 0.01043765 0.01141427 0.01373375 0.01660258 0.01870842 0.01892205 0.01818959 0.01748764 0.01544284 0.01257401 0.00982726 0.008972716 0.009491546 0.01025453 0.01049869 0.009857779 0.008820118 0.007782457 0.007019471 0.008057132 0.01236037 0.01651102 0.019624 0.02176036 0.02374412 0.02456815 0.02328633 0.0207227 0.01886101 0.01992919 0.02145517 0.02356101 0.02554477 0.02642984 0.02694867 0.02804737 0.03116035 0.0340597 0.03607398 0.036898 0.03866813 0.04022462 0.04281878 0.04629799 0.04996032 0.05441616 0.05908564 0.06244278 0.06567784 0.06793627 0.07043887 0.07263627 0.07489471 0.07767197 0.08081548 0.08456937 0.08826222 0.09174144 0.09412196 0.09641092 0.0979674 0.1003174 0.102118 0.1045901 0.1070317 0.1099921 0.1125252 0.1142953 0.1150888 0.1152719 0.116218 0.1174083 0.1195141 0.1213453 0.1233596 0.1248245 0.12632 0.1278765 0.1296466 0.1317829 0.1339193 0.1367881 0.1393823 0.1418849 0.143655 0.1449063 0.1461271 0.1475615 0.1495758
0.2516938 0.2555393 0.2602088 0.2654886 0.2703717 0.2750412 0.2782763 0.2808094 0.28261 0.2837698 0.2847159 0.2866386 0.2885308 0.28966 0.2913386 0.2925288 0.293658 0.2949704 0.2957639 0.2967405 0.2976561 0.2988769 0.2993347 0.3014405 0.3040042 0.3046145 0.3026003 0.3004028 0.2950009 0.2854178 0.2752243 0.2653665 0.2583776 0.2492523 0.2474211 0.2444607 0.2415919 0.2407373 0.2439724 0.2449795 0.2519075 0.260636 0.269273 0.2786425 0.2852347 0.290423 0.2945431 0.2954282 0.2953672 0.2937191 0.2925899 0.2899347 0.2875847 0.2861198 0.2826711 0.279375 0.2759263 0.2723555 0.2666178 0.259812 0.2514192 0.2438503 0.2382348 0.2339315 0.2303913 0.2274309 0.2242874 0.2214185 0.2187328 0.2161387 0.2136056 0.2111945 0.2088751 0.2065556 0.2042056 0.2017945 0.1998413 0.198651 0.1977355 0.1966673 0.1962095 0.1959348 0.1948056 0.193829 0.1921199 0.1900751 0.1876335 0.1855887 0.183727 0.1814381 0.1788439 0.1758835 0.1727706 0.1680095 0.1625465 0.1583959 0.1552219 0.1515595 0.1478362 0.1438992 0.1416102 0.1401758 0.1389855 0.1370628 0.1338888 0.1306537 0.1271745 0.1243362 0.1213758 0.1183239 0.1150583 0.1106635 0.1062992 0.102759 0.09891351 0.09488494 0.08920833 0.0819447 0.0741012 0.06726485 0.06161875 0.05633889 0.0521272 0.04727461 0.04190319 0.03665385 0.03106879 0.02487334 0.01968504 0.01702985 0.01501556 0.01211622 0.009399988 0.007202588 0.005554538 0.003723372 0.004150644 0.003448697 0.003753891 0.004059086 0.004791552 0.005585058 0.006225966 0.007019471 0.007538302 0.007935055 0.007385705 0.006744796 0.006470121 0.006988952 0.007965574 0.00872856 0.008972716 0.009094793 0.009308429 0.01007142 0.010987 0.01284868 0.01492401 0.01660258 0.01876946 0.02118049 0.02346945 0.02319477 0.02169932 0.01892205 0.01800647 0.01706037 0.01693829 0.01574803 0.0155344 0.01577855 0.01623634 0.01611426 0.01568699 0.01532076 0.0150766 0.01532076 0.01611426 0.01687725 0.01681621 0.01690777 0.01855582 0.02090582 0.021974 0.02038699 0.01782335 0.0153818 0.0144357 0.01352011 0.01321492 0.01294024 0.01297076 0.013337 0.01348959 0.01361167 0.01294024 0.01217726 0.01129219 0.01052921 0.01031557 0.01059025 0.01135323 0.01306232 0.01504608 0.01678569 0.01739608 0.01745712 0.01709089 0.01492401 0.0117805 0.009125313 0.008514924 0.009247391 0.009949338 0.0100409 0.009399988 0.008423366 0.00766038 0.007172069 0.00820973 0.01232985 0.01626686 0.01925777 0.02176036 0.02365257 0.02392724 0.02224867 0.0197766 0.0183727 0.01986816 0.02142465 0.02365257 0.02566685 0.02639932 0.02694867 0.02801685 0.03109931 0.03387658 0.0357993 0.03659281 0.03842398 0.03998047 0.04263566 0.04614539 0.04986877 0.05423304 0.05878044 0.06222914 0.0654642 0.06775316 0.0701642 0.0723616 0.07452847 0.07706159 0.07999145 0.08365379 0.08740768 0.09107001 0.09363364 0.09586156 0.09732649 0.09952389 0.1013856 0.1037966 0.1060551 0.1089544 0.1116096 0.113807 0.1149057 0.1151498 0.1158823 0.1168895 0.1187511 0.1206128 0.1227492 0.1242446 0.1258316 0.127205 0.1288836 0.1307453 0.1328206 0.1354758 0.13807 0.1407557 0.1427089 0.1443264 0.1454557 0.1466764 0.148355
0.2478179 0.251877 0.2563633 0.2617652 0.2670451 0.2723555 0.2758347 0.2785814 0.2803516 0.281725 0.2833425 0.28496 0.2862723 0.2877678 0.2891717 0.2903009 0.2916133 0.2927425 0.2932003 0.2940243 0.2949704 0.2962522 0.2962217 0.2975645 0.299823 0.3007386 0.2988769 0.2965269 0.2909418 0.2820302 0.2717756 0.262101 0.2552036 0.2462614 0.2444607 0.2411341 0.2380516 0.2362815 0.2376244 0.2364952 0.2410425 0.2475737 0.2559055 0.2656717 0.273973 0.2799548 0.2855399 0.2868217 0.2875237 0.2860587 0.2849295 0.281786 0.2788866 0.2769029 0.2737289 0.2703412 0.2669841 0.2626808 0.2563023 0.248764 0.2418055 0.235549 0.2309406 0.2275835 0.224501 0.2216627 0.2183971 0.215864 0.2133309 0.2107673 0.2082952 0.2060367 0.2042361 0.2021303 0.1997803 0.1976439 0.1961484 0.1952329 0.194653 0.1941647 0.1939816 0.1938595 0.1927913 0.1916926 0.1900446 0.1881829 0.1861686 0.1835134 0.181316 0.1792102 0.1767381 0.1738082 0.1701459 0.1653848 0.1599524 0.1558628 0.1526582 0.1492706 0.1458219 0.1424953 0.1406336 0.1392602 0.1376732 0.1352316 0.1316914 0.1284868 0.1254044 0.1227492 0.1196362 0.116218 0.1124947 0.1081304 0.1038577 0.1000122 0.09555637 0.09036806 0.08408106 0.07672587 0.06946225 0.06344992 0.05865837 0.05401941 0.04965513 0.04498566 0.0394006 0.03399866 0.0285662 0.02310322 0.0186779 0.0166331 0.01477141 0.01190258 0.009155832 0.006988952 0.005157785 0.0032961 0.00384545 0.0032961 0.003387658 0.003662333 0.004303241 0.005127266 0.005737655 0.006164927 0.006744796 0.007172069 0.007019471 0.00656168 0.006164927 0.00653116 0.007538302 0.008514924 0.008789599 0.008789599 0.008789599 0.009247391 0.009979857 0.01156687 0.01348959 0.01501556 0.01690777 0.01928829 0.02160776 0.02130257 0.019624 0.01718245 0.01681621 0.01651102 0.01681621 0.01599219 0.01547336 0.01541232 0.01571751 0.01541232 0.01516816 0.01510712 0.01541232 0.01577855 0.0163279 0.01635842 0.01623634 0.01669413 0.01889153 0.02157724 0.02212659 0.02011231 0.01754868 0.01556491 0.01483245 0.01382531 0.01336752 0.01306232 0.01327596 0.01385583 0.01406946 0.01391686 0.01309284 0.01229933 0.01144479 0.0106818 0.01037661 0.01052921 0.010987 0.01232985 0.01388635 0.01562595 0.01672465 0.01736556 0.01672465 0.01419154 0.01110908 0.008820118 0.008514924 0.009186352 0.009583104 0.009338949 0.008545443 0.007904535 0.007599341 0.007324666 0.008453885 0.01248245 0.01641946 0.01928829 0.02191296 0.02362205 0.0238662 0.02200452 0.01953244 0.01809803 0.01980712 0.02145517 0.02383568 0.02588049 0.02652139 0.02691815 0.02807789 0.03109931 0.03378502 0.03567722 0.03644021 0.03817982 0.03973631 0.04236098 0.04574864 0.04950253 0.05389733 0.05838369 0.06189343 0.06515901 0.067509 0.069859 0.07193432 0.0741012 0.07642068 0.07922847 0.08270769 0.08652262 0.09030703 0.09302326 0.09522066 0.09671611 0.09873039 0.1006226 0.1030031 0.105109 0.1078862 0.1105109 0.112983 0.1145089 0.1150583 0.1155771 0.1164012 0.1180492 0.1198804 0.1220167 0.1235732 0.1251907 0.1265336 0.1281511 0.1298297 0.1317219 0.1340414 0.136544 0.1393823 0.1416407 0.143655 0.1448453 0.1460355 0.1473784
