0.35255948 0.35492558 0.35760849 0.36017758 0.36285117 0.36552729 0.36860588 0.37166961 0.37464622 0.37774136 0.38088075 0.38409642 0.38735086 0.39045288 0.39196825 0.3942862 0.39741847 0.4001855 0.40298583 0.40555026 0.40759959 0.41061493 0.41337957 0.41497956 0.41697486 0.41954888 0.42221144 0.42420931 0.426139 0.42899591 0.43086442 0.43294563 0.43469981 0.43737458 0.43945688 0.44094139 0.44323257 0.44442028 0.44628991 0.44828236 0.45025806 0.45117046 0.45262437 0.45356037 0.45538178 0.4570402 0.45844267 0.45749165 0.45705851 0.45843875 0.4625978 0.46701928 0.47226375 0.47679843 0.47949059 0.48077913 0.48061977 0.48150637 0.48107132 0.48250953 0.4833425 0.48418149 0.48490494 0.48609932 0.48706579 0.48753063 0.48959836 0.49300565 0.49388075 0.49460978 0.49375893 0.4908733 0.48609054 0.48088881 0.4767275 0.47387115 0.47168171 0.47106035 0.47019462 0.46853067 0.46693417 0.46446004 0.46186327 0.45966415 0.45892067 0.45663579 0.45397042 0.45176008 0.45041352 0.45048051 0.4496464 0.44762231 0.44593464 0.44188215 0.4363237 0.4314847 0.42629302 0.42091513 0.4164508 0.41327119 0.4110936 0.40903182 0.40697326 0.40369081 0.40113685 0.3982443 0.39421846 0.39061657 0.38748682 0.38499907 0.38244713 0.38067584 0.37910728 0.37818793 0.37585332 0.37196714 0.36912738 0.36410051 0.36002134 0.35577752 0.35182244 0.34828086 0.34406202 0.33846302 0.33375153 0.32856029 0.32407113 0.32032652 0.31572476 0.31180966 0.30792877 0.30363418 0.29942776 0.29533551 0.2909961 0.28687422 0.2824392 0.27760102 0.27286296 0.26741505 0.26213894 0.25578436 0.25010882 0.24446393 0.23869488 0.23338118 0.22773915 0.22342679 0.21852433 0.21419061 0.20935987 0.20428729 0.19940937 0.19467795 0.19046063 0.18595551 0.18174135 0.17820769 0.17417551 0.16993248 0.16616231 0.16272413 0.15968491 0.15784829 0.15510294 0.1526011 0.15158218 0.14976987 0.14798743 0.14627196 0.1456287 0.14428011 0.14402735 0.14383617 0.14516348 0.14479282 0.14602562 0.14607026 0.14709014 0.14843887 0.1503083 0.1526582 0.153879 0.1552524 0.1567173 0.1581823 0.1596167 0.161753 0.1631569 0.1651712 0.1661784 0.1677043 0.16941356 0.1709105 0.17211478 0.17351061 0.17494382 0.176577 0.17821082 0.17997391 0.18192322 0.18399703 0.1863112 0.18880047 0.1915626 0.19420271 0.19794051 0.20083624 0.20455942 0.20751373 0.21065772 0.21438108 0.21810925 0.2214891 0.22578786 0.23003172 0.23313129 0.2372978 0.24041061 0.24368662 0.24661206 0.24974224 0.25244639 0.25726201 0.26089782 0.26433411 0.26965338 0.27274645 0.27561796 0.27868341 0.28127145 0.28517122 0.28930847 0.29288148 0.29630499 0.30021413 0.30485772 0.30982485 0.3145907 0.31504983 0.31702551 0.31895918 0.32079976 0.32399725 0.32612987 0.32878857 0.33019249 0.33231287 0.3355741 0.33814566 0.34084667 0.34387305 0.34548713 0.34599454 0.349173 0.35037295 0.35252581 0.35734928 0.35922104 0.35919036 0.36120064 0.3644121 0.36673898 0.36743308 0.36698069 0.36710134 0.36553511 0.36480307 0.36343713 0.36587024 0.36701457 0.37022022 0.37116259 0.37359557 0.37547293 0.3760793 0.37699285 0.37541394
0.35506422 0.3573836 0.3597613 0.36236346 0.36508216 0.36770628 0.37049522 0.3735443 0.37670613 0.3798049 0.38290858 0.38615331 0.38948219 0.39257007 0.39576445 0.39647028 0.39901184 0.40186844 0.40484298 0.40725097 0.41005235 0.41251247 0.41536226 0.41753022 0.41987934 0.42223858 0.42470783 0.42639356 0.42881938 0.43111011 0.43398597 0.43645666 0.43853515 0.44137766 0.44274059 0.44437311 0.44675486 0.44818402 0.44965783 0.45196918 0.45429668 0.45524397 0.45647159 0.45747055 0.45831854 0.45947109 0.46049384 0.45978603 0.45950205 0.46131669 0.46477446 0.47048114 0.475588 0.48015101 0.4828003 0.48321958 0.48434232 0.48507552 0.48539554 0.48600065 0.48692185 0.48713269 0.48789194 0.48825921 0.48831866 0.48906109 0.49098428 0.49484941 0.49575874 0.49652128 0.49497197 0.49110731 0.48660202 0.48176488 0.47754079 0.47505902 0.47302469 0.4719124 0.47140639 0.46911514 0.46659938 0.46336564 0.46115481 0.45909575 0.45660367 0.45421232 0.45217979 0.45127172 0.45008856 0.44924138 0.44835918 0.4453767 0.44226714 0.43723148 0.43263078 0.42683005 0.42166071 0.4165867 0.41221046 0.4090015 0.40620045 0.40482035 0.40324023 0.40006604 0.39682044 0.39266991 0.38915778 0.38494508 0.38191613 0.37936441 0.37736152 0.3763932 0.37558579 0.37421294 0.37127761 0.36788291 0.36399626 0.35854322 0.35508579 0.3509634 0.34780912 0.34416781 0.34039234 0.33499317 0.32981558 0.32495398 0.32038296 0.31713397 0.31280601 0.30861386 0.30436192 0.30008817 0.29581718 0.29219356 0.28790995 0.28365468 0.27907078 0.27482421 0.27029986 0.26501188 0.25918899 0.2536921 0.24826782 0.24317743 0.23780048 0.23217689 0.22653737 0.22293836 0.21796551 0.21320679 0.20830932 0.20320911 0.19847496 0.19385991 0.18936602 0.18476338 0.18110071 0.17688544 0.17312478 0.1693296 0.16555658 0.16211167 0.1586194 0.15598171 0.15460278 0.15190594 0.14940324 0.14857664 0.14706748 0.14535955 0.14477129 0.14345014 0.14295089 0.14283651 0.14447524 0.14410045 0.14392274 0.14533532 0.14625882 0.1475789 0.1492401 0.1521089 0.1532686 0.154581 0.1559849 0.1574498 0.160044 0.1612037 0.1626381 0.1646219 0.1664836 0.168681 0.1692303 0.17069357 0.17193034 0.17329686 0.17476175 0.17635118 0.17793619 0.18014755 0.18176778 0.18417194 0.18706068 0.18924445 0.1920288 0.19518862 0.19795054 0.20072268 0.20450939 0.20744821 0.21078753 0.21438999 0.21834015 0.22250863 0.22680529 0.23016812 0.23347707 0.23746111 0.24087406 0.24431803 0.24692491 0.25016092 0.25368326 0.25841513 0.26118424 0.26640304 0.26951976 0.27258271 0.27534032 0.27907462 0.28222912 0.28577553 0.28959815 0.29401665 0.29708197 0.30052213 0.30560487 0.30981463 0.31400891 0.31579395 0.31825445 0.32057052 0.32344984 0.3256491 0.32795681 0.32926562 0.33192877 0.33487789 0.3375612 0.33917018 0.34176099 0.34396283 0.34575834 0.34703378 0.34909807 0.35197577 0.35322908 0.35713707 0.35835674 0.36023223 0.36175731 0.36398984 0.36445916 0.36578264 0.36532184 0.36512218 0.36513616 0.36523196 0.36579442 0.36659656 0.36777118 0.37039244 0.37168038 0.37424631 0.37508246 0.37789241 0.3782305 0.37684527
0.35735205 0.35954207 0.36201981 0.36449614 0.36731531 0.37005313 0.37482665 0.37672622 0.37869551 0.38185569 0.38524807 0.38823382 0.39140545 0.39448156 0.39856485 0.39985816 0.40238291 0.40518046 0.40816085 0.4089259 0.41208936 0.41454325 0.41776562 0.41943613 0.42128721 0.42408652 0.42644 0.4292137 0.43109173 0.43386299 0.43628844 0.43936748 0.44287187 0.44468476 0.44627586 0.44844956 0.45070116 0.45237285 0.45395077 0.45475403 0.45698071 0.45903349 0.4602175 0.46083041 0.46129805 0.46168585 0.46260461 0.46336991 0.4629711 0.46494757 0.46854264 0.47306312 0.47727312 0.48255398 0.48518375 0.48652923 0.48754224 0.48806856 0.4892873 0.48900027 0.48849654 0.48954224 0.49051859 0.49006754 0.49029109 0.49060874 0.49255728 0.49605675 0.49807141 0.49725392 0.49502357 0.49172489 0.48723099 0.48258566 0.47867519 0.47699309 0.47521191 0.47304151 0.47154381 0.46950621 0.4662842 0.46396296 0.46116106 0.45902096 0.45771928 0.45373636 0.45044152 0.44847958 0.44765381 0.44667921 0.44496858 0.44113999 0.43700549 0.43251365 0.42766751 0.42158177 0.41659455 0.41157978 0.40801617 0.40396165 0.40213384 0.39990973 0.39835012 0.39467022 0.39018961 0.38678657 0.38300587 0.37894477 0.37526083 0.37298659 0.37115259 0.37103781 0.37018413 0.36836007 0.36561296 0.36169327 0.35740363 0.35272403 0.34893086 0.34503962 0.34258207 0.33852621 0.33542596 0.3304765 0.32592205 0.32127039 0.31700838 0.3137321 0.30988515 0.30540778 0.30108738 0.29644015 0.29222812 0.28898728 0.28434055 0.2795635 0.27519393 0.27038068 0.26574618 0.26084078 0.255046 0.24984565 0.246336 0.24193362 0.23676868 0.23117268 0.22590053 0.22159859 0.21710494 0.21201579 0.20698429 0.20217668 0.1975759 0.1927129 0.18792079 0.18314745 0.1787358 0.17505418 0.17263978 0.16863936 0.16481171 0.16126284 0.15813247 0.15491994 0.1524743 0.1512054 0.14880101 0.14732453 0.14597068 0.14453066 0.14385371 0.14320541 0.14281208 0.14229017 0.14148657 0.14349369 0.14325288 0.14395881 0.14481953 0.14678054 0.148416 0.1501251 0.1516816 0.153879 0.1552524 0.1566563 0.1587926 0.1606849 0.1620888 0.164103 0.1666972 0.1684978 0.16898597 0.17041922 0.17162633 0.17296136 0.17442217 0.17604789 0.17819841 0.17999008 0.18190085 0.18432309 0.18750387 0.19001453 0.19234016 0.19499965 0.197867 0.20115233 0.20424835 0.20774515 0.21132758 0.21502843 0.21975948 0.22304524 0.22664981 0.23029698 0.23410206 0.23812364 0.24151223 0.24469429 0.24798049 0.25141032 0.25439164 0.25850073 0.26183122 0.26633956 0.26867379 0.27156787 0.27479715 0.27885293 0.28289335 0.2866538 0.29098751 0.29432238 0.29735699 0.30067567 0.30529999 0.30893333 0.31349424 0.31601773 0.31833655 0.32169056 0.32365842 0.32687017 0.32778329 0.33013504 0.33480643 0.33681571 0.33814387 0.34144077 0.3439454 0.3453064 0.34500997 0.34650646 0.35067543 0.35355935 0.35536549 0.35697463 0.36073794 0.36151358 0.36218047 0.36248502 0.36410006 0.36674171 0.36594507 0.36487342 0.36377983 0.36644477 0.36658835 0.3695851 0.37365469 0.37316768 0.37451475 0.37588755 0.37795038 0.37839741 0.37724475 0.37749371
0.3599491 0.3630094 0.36497017 0.36715958 0.36958713 0.37231653 0.37597362 0.37863362 0.38165234 0.38461289 0.38790735 0.39087222 0.39430044 0.39727869 0.40058654 0.40225965 0.40546747 0.40792581 0.41021798 0.41219533 0.41402112 0.41645998 0.4196141 0.42162012 0.42461408 0.42660297 0.42877551 0.43128711 0.43385777 0.43645066 0.43928824 0.44223849 0.44530023 0.44714052 0.44967393 0.45212026 0.45425518 0.45602052 0.45748862 0.45875795 0.46027839 0.46220726 0.46396124 0.46423383 0.46435157 0.46487753 0.46536178 0.46695382 0.4679728 0.47011949 0.47380684 0.47810626 0.48089593 0.4850564 0.48715398 0.48949559 0.49115948 0.49185371 0.49133764 0.49067514 0.49151068 0.49116992 0.49191787 0.49078418 0.49023037 0.4917778 0.49403033 0.49655781 0.49776615 0.49701918 0.494654 0.49198458 0.487711 0.48388803 0.4812049 0.4797354 0.47749869 0.47472345 0.47215152 0.46859632 0.46597974 0.46255878 0.46071321 0.45917276 0.45704982 0.4525139 0.44761315 0.44509071 0.44295675 0.44112004 0.43833439 0.43651046 0.43192404 0.42705167 0.42191288 0.41665714 0.41172067 0.40679627 0.40264133 0.3996911 0.39780822 0.39465555 0.39209884 0.3874427 0.38279207 0.37983779 0.37611145 0.37231671 0.36837012 0.36615946 0.36577334 0.36511448 0.36421423 0.36208143 0.35911926 0.35571293 0.35164673 0.34787421 0.34402216 0.33993447 0.33702372 0.3335631 0.33019805 0.32644392 0.32135221 0.31681803 0.31364309 0.30976798 0.30663579 0.30232708 0.29819955 0.29369361 0.29066913 0.2865338 0.28217698 0.27742323 0.27237808 0.26782501 0.2627603 0.25745955 0.25273591 0.24791269 0.24341775 0.2385381 0.23423919 0.23001684 0.22506713 0.21983266 0.21506808 0.20969695 0.20443013 0.19975731 0.19508704 0.19007435 0.18541149 0.18066049 0.17755152 0.1733719 0.17033394 0.16717114 0.16380211 0.16044091 0.15733043 0.15432427 0.15205856 0.14993049 0.14798756 0.14674655 0.14556941 0.14416909 0.14283775 0.14224264 0.14180527 0.14140798 0.14106857 0.14127689 0.14252208 0.1433466 0.14426661 0.145647 0.1477751 0.1493927 0.1508576 0.1524446 0.1544894 0.1561069 0.1582433 0.160166 0.1616004 0.1637063 0.1653238 0.1681926 0.16862249 0.17005355 0.17123004 0.17253389 0.17475438 0.17633346 0.17844361 0.18017753 0.182072 0.18436114 0.18626939 0.1903656 0.19306156 0.1958458 0.19859184 0.20157036 0.20492177 0.20831618 0.21215374 0.21587751 0.21978669 0.22358968 0.2273523 0.23092858 0.23463311 0.23836875 0.24159094 0.24517882 0.24870414 0.25171799 0.25542165 0.25880821 0.26215342 0.26613045 0.2688447 0.27256827 0.27556991 0.27886863 0.2847847 0.28820757 0.29176549 0.29445464 0.29812311 0.30077976 0.30423923 0.30863977 0.31244114 0.31482617 0.31693433 0.32020765 0.32417422 0.32696374 0.32794684 0.3310342 0.33320763 0.33627805 0.33817846 0.34120513 0.34436799 0.34563312 0.34699607 0.34718321 0.34953903 0.35330761 0.35608634 0.35736981 0.3601754 0.36152617 0.36155855 0.36268092 0.36546522 0.36783636 0.36826588 0.36698799 0.36480692 0.3672879 0.36665492 0.37045063 0.37334559 0.37316414 0.37769638 0.37980436 0.38134459 0.38035825 0.38111061 0.38020191
0.36244226 0.36481698 0.3668046 0.36878377 0.37126391 0.37485862 0.37748259 0.38007576 0.38294971 0.38641184 0.38948689 0.39250308 0.39593178 0.39872675 0.40198184 0.40465803 0.4072169 0.40914279 0.41158761 0.41401517 0.41648845 0.41940036 0.42117482 0.42362928 0.42652518 0.42908775 0.43125894 0.43395841 0.43684057 0.43909597 0.44107048 0.44463831 0.4477802 0.44964115 0.45256389 0.45481678 0.45713048 0.45908905 0.45992003 0.46214602 0.46364723 0.46535637 0.46724203 0.46849733 0.46834764 0.46852099 0.4690816 0.47110503 0.47214322 0.47553351 0.47918695 0.48231508 0.48624647 0.48766238 0.48852423 0.49056944 0.49189538 0.49299127 0.49320097 0.49245788 0.4940733 0.49282034 0.49367121 0.49260706 0.49259696 0.49393878 0.49476989 0.49746775 0.4992199 0.4969067 0.49427091 0.49079922 0.48766504 0.48538107 0.48300377 0.48071159 0.47796384 0.47429215 0.47059445 0.46735366 0.46458495 0.46174308 0.45915315 0.45808861 0.45513995 0.45018456 0.44446028 0.44025643 0.43761211 0.43435651 0.43223438 0.43041719 0.42768558 0.42160998 0.41743071 0.41122079 0.40588405 0.40070914 0.39741464 0.39521364 0.39255048 0.38916138 0.38362486 0.37966484 0.37558636 0.37144507 0.36884931 0.36444473 0.3607256 0.35967082 0.35964388 0.35879036 0.35752163 0.35584397 0.35210303 0.34844982 0.34519343 0.34240082 0.33828552 0.33475499 0.33201533 0.3291269 0.32612949 0.32187544 0.31709178 0.31283811 0.30947472 0.30659991 0.30333416 0.29900392 0.29534143 0.29154519 0.28846898 0.28399016 0.27997717 0.27472072 0.26978136 0.26524559 0.26073128 0.25557644 0.25001631 0.24590363 0.24175735 0.23723638 0.23278589 0.22772129 0.22252835 0.21829982 0.21403378 0.20825394 0.20253272 0.19768014 0.19287858 0.18834318 0.18355074 0.17938175 0.17483101 0.17252464 0.16855483 0.16564205 0.16286224 0.15966758 0.15645768 0.15345302 0.1515257 0.14948576 0.14750053 0.14582601 0.14472405 0.14363882 0.14239948 0.14145852 0.14097926 0.14104335 0.14069119 0.14067315 0.14203552 0.14264339 0.14368067 0.14503217 0.1468596 0.1485992 0.1501251 0.1515595 0.153116 0.1555881 0.1577245 0.1596472 0.1611121 0.16334 0.1649881 0.1666667 0.16761244 0.16959753 0.17074242 0.17277677 0.17493419 0.17659237 0.17868798 0.1804177 0.1822976 0.1843962 0.18844861 0.19044729 0.19379123 0.19643872 0.19960904 0.20244893 0.20603737 0.20918886 0.21299565 0.21632023 0.22022705 0.22416628 0.22778429 0.23135488 0.23505952 0.23862526 0.24195329 0.24603091 0.24936286 0.25259866 0.25553157 0.25864752 0.26299686 0.26676559 0.26911361 0.27244931 0.27571804 0.28040496 0.28516757 0.28858031 0.29139335 0.29459738 0.29792289 0.30057835 0.30358538 0.30767376 0.31070858 0.3145264 0.31637969 0.32086047 0.32446116 0.32673375 0.32978452 0.3307121 0.33335481 0.33714288 0.33869265 0.34092085 0.34264965 0.34444908 0.34583755 0.34822803 0.34961224 0.35279477 0.35540046 0.35638984 0.35771869 0.36062378 0.36171802 0.36424594 0.36561775 0.36729573 0.37004434 0.368673 0.36752812 0.37064145 0.36907509 0.37057784 0.37191026 0.37615696 0.37918981 0.38108367 0.38354796 0.38286113 0.38267221 0.38240464
0.36515037 0.36666546 0.36841614 0.37061149 0.3736087 0.37626633 0.37876918 0.38150782 0.38426674 0.38759805 0.391022 0.39395785 0.39693782 0.39985125 0.40307845 0.40613044 0.40867568 0.4113156 0.41339163 0.41596041 0.41822244 0.42029048 0.42345664 0.42524028 0.42822537 0.43098579 0.43302186 0.43571183 0.43833389 0.44120816 0.44406062 0.44699596 0.45009698 0.45273498 0.45598646 0.45779886 0.46009152 0.46172763 0.46392771 0.46591957 0.46760494 0.46906267 0.47019729 0.47167378 0.47236033 0.47287537 0.47312492 0.47466853 0.47726984 0.48064402 0.48387098 0.48721203 0.49061063 0.49099948 0.4900677 0.49044 0.4914454 0.49378512 0.49293671 0.49432799 0.49471422 0.49536643 0.49575514 0.49536913 0.49479477 0.49584565 0.49539303 0.49757178 0.49783138 0.49523239 0.49144885 0.48876187 0.48576727 0.48505637 0.48191098 0.48042804 0.47702952 0.47353324 0.4705097 0.4660323 0.46344658 0.46072849 0.45813541 0.45520108 0.45115324 0.44668441 0.44070351 0.43595339 0.43314321 0.42896489 0.4248828 0.42252475 0.41948991 0.41582401 0.41137839 0.40641754 0.40114084 0.39547742 0.39187737 0.38943145 0.38619492 0.381326 0.37673892 0.37162067 0.36781995 0.36385138 0.36164854 0.35850393 0.35609887 0.35427788 0.35390221 0.35301513 0.35115121 0.34811134 0.34407622 0.34167436 0.33852243 0.3363063 0.3338222 0.33002617 0.32710722 0.3236066 0.32101224 0.31767284 0.31306675 0.30875931 0.30547119 0.30297919 0.30007951 0.29596664 0.29257376 0.28859577 0.28541195 0.28111516 0.27700348 0.27240266 0.26815451 0.26325745 0.25838817 0.25332769 0.24832132 0.24377915 0.23974724 0.23475544 0.23056011 0.22595052 0.22114772 0.21652231 0.21093568 0.2056869 0.20034725 0.1952532 0.19068672 0.18612346 0.18177044 0.17744631 0.17416695 0.17014931 0.16814913 0.16470038 0.16129674 0.15870816 0.15559412 0.15245995 0.14958443 0.14774614 0.14526966 0.14360934 0.14143081 0.13964235 0.14176424 0.14124409 0.14017874 0.1399426 0.13956882 0.14009708 0.14160863 0.14215339 0.14300543 0.14438879 0.1461271 0.1478362 0.1493011 0.1508576 0.152231 0.1550998 0.1572362 0.1591589 0.1605933 0.1629128 0.1645608 0.1660258 0.16697215 0.16907734 0.17098654 0.1722278 0.17380423 0.17689173 0.17894764 0.18072718 0.18264382 0.18469612 0.18853956 0.19045087 0.19434236 0.19734837 0.199815 0.20291327 0.20642146 0.20993933 0.21357326 0.21682947 0.22052597 0.22427649 0.22784799 0.23160592 0.23512179 0.23890657 0.24288685 0.24603822 0.249739 0.252583 0.25564861 0.25891799 0.26316127 0.26754863 0.27048598 0.27364362 0.2770482 0.28096361 0.28522975 0.28794114 0.2907374 0.29431182 0.29752305 0.30048006 0.30387544 0.30659132 0.31018237 0.31313259 0.31600178 0.31951792 0.32187407 0.32457715 0.32844609 0.3308139 0.33330676 0.33701815 0.33905423 0.34163757 0.34283688 0.34369124 0.34656852 0.34912944 0.35093309 0.35317437 0.35441525 0.35551485 0.35671508 0.35912178 0.36002133 0.36292394 0.36756377 0.36889203 0.369667 0.36918397 0.36976649 0.372611 0.37202304 0.37257815 0.37530145 0.3774785 0.37929282 0.38140838 0.38341188 0.38463165 0.38604294 0.38703812
0.36706445 0.36854683 0.37161742 0.37325744 0.37685351 0.37904864 0.38129188 0.38376309 0.38631632 0.38983054 0.39345096 0.39555811 0.39798288 0.40133884 0.40405838 0.40694919 0.41004906 0.41301367 0.41588189 0.41769104 0.42035718 0.42204414 0.42503381 0.42749359 0.42957417 0.43216691 0.43419222 0.43744957 0.44044439 0.44361001 0.44739579 0.45009082 0.452901 0.45550218 0.45794251 0.46143168 0.46445667 0.46596185 0.46804089 0.46918071 0.47146906 0.47357383 0.47422239 0.47617556 0.47641831 0.47664004 0.47834862 0.47914105 0.48066336 0.48398108 0.48740743 0.49138397 0.49340188 0.49265063 0.49086769 0.4908978 0.49064298 0.49296311 0.49476648 0.49587615 0.49657461 0.4972398 0.49834766 0.49751815 0.49668685 0.49787048 0.49815725 0.4986312 0.49685477 0.49320853 0.48950934 0.48755006 0.48607137 0.48509465 0.48313949 0.48047049 0.47659008 0.47270892 0.46962078 0.46479855 0.46291054 0.45905929 0.4552963 0.45205888 0.44746267 0.44282132 0.43699923 0.43212308 0.42705629 0.42322462 0.42010706 0.41633748 0.41188397 0.40907372 0.4047658 0.40018294 0.39548868 0.39004675 0.38642486 0.38313359 0.3792883 0.37409485 0.36922569 0.3646668 0.35984383 0.356581 0.35386534 0.3514738 0.34932196 0.34796456 0.34711714 0.34671797 0.34296951 0.34021696 0.33677935 0.33402762 0.33153512 0.32968304 0.32743206 0.32451656 0.32091413 0.31830937 0.31594467 0.31214627 0.30799215 0.30462745 0.30164476 0.29908737 0.2962063 0.29171781 0.28847951 0.28561971 0.28248625 0.27771537 0.27338621 0.26911483 0.26579878 0.26129262 0.25566155 0.25149113 0.24655241 0.24233446 0.23759951 0.23346763 0.22906945 0.22448875 0.21957113 0.21422811 0.20944418 0.20399584 0.19883393 0.19433821 0.18966585 0.18491222 0.18027928 0.17621867 0.17237136 0.16961106 0.16634129 0.16372805 0.16018195 0.15709294 0.15451209 0.15153677 0.1485452 0.14684441 0.1445817 0.14295987 0.14077739 0.1393146 0.13960778 0.14003021 0.13938634 0.13848161 0.13905015 0.13967105 0.13990286 0.14089908 0.14159634 0.14374549 0.1454251 0.1471037 0.1485381 0.1501556 0.1514375 0.1546725 0.1567478 0.1586095 0.160044 0.1623939 0.163981 0.1652933 0.16629858 0.16858776 0.17000876 0.17186295 0.17411301 0.17716665 0.17923967 0.1810674 0.18302954 0.18505628 0.18850606 0.19221033 0.19510154 0.19750017 0.20060323 0.20393734 0.20692401 0.21040711 0.21393947 0.21729189 0.22071158 0.22448617 0.22952086 0.23230446 0.2355292 0.23892608 0.2422485 0.24647957 0.24955721 0.25274128 0.25705341 0.26041752 0.26486508 0.26855623 0.27152048 0.2748323 0.27833573 0.28141325 0.2848632 0.28827308 0.2903803 0.29408309 0.29782313 0.29991109 0.30225867 0.30541712 0.30901015 0.31232189 0.31657363 0.31882609 0.32077917 0.32434607 0.32648002 0.32965801 0.33282207 0.33673799 0.34048479 0.34092715 0.34269414 0.34449632 0.34735593 0.35006457 0.35256813 0.35339016 0.35466338 0.35440549 0.35231538 0.35734984 0.36136777 0.36526649 0.36840248 0.36829041 0.36891018 0.37018795 0.37367279 0.37409547 0.37453491 0.37598882 0.37695998 0.37825366 0.37952465 0.38229715 0.38269581 0.38785674 0.38906777 0.3913483
0.36976412 0.37095578 0.37299989 0.37568704 0.37792481 0.38025133 0.38238609 0.38498989 0.38785843 0.39101179 0.39408758 0.39718161 0.40007505 0.40226806 0.40491499 0.40805956 0.4108553 0.41406236 0.41692943 0.4190499 0.42147791 0.42341178 0.42627994 0.42908684 0.43088769 0.43348973 0.43615416 0.43938377 0.44307344 0.44622977 0.44987772 0.45236633 0.45504569 0.45746257 0.46076465 0.46408061 0.46800161 0.4703045 0.47174645 0.47385659 0.47558419 0.47707297 0.47807381 0.47983563 0.48092564 0.4813381 0.48182138 0.4844623 0.48603804 0.4878981 0.49041766 0.49348647 0.49533342 0.49484605 0.49324873 0.49270758 0.49278996 0.49473844 0.49696548 0.49730398 0.49921328 0.50047528 0.50047461 0.5009476 0.50058537 0.50152737 0.50074094 0.49923552 0.49617139 0.49169615 0.48908297 0.48793576 0.48726358 0.48570372 0.48396787 0.48196564 0.47821397 0.47409482 0.46898279 0.46465114 0.46037314 0.45704046 0.45316602 0.44840058 0.44291264 0.43718832 0.43205807 0.42652422 0.42152665 0.41719717 0.41360772 0.40884834 0.40485753 0.40221732 0.39777212 0.39367727 0.38897555 0.3843726 0.38061369 0.37683799 0.37210048 0.36658222 0.36183218 0.35685026 0.3523926 0.34978856 0.3468703 0.34473602 0.34311879 0.34102496 0.33967328 0.33928259 0.33541348 0.33159308 0.32932046 0.32585307 0.32388991 0.32160159 0.3203424 0.31772807 0.31510238 0.31214669 0.30976448 0.3066115 0.30336007 0.30013024 0.29776656 0.29468593 0.29054156 0.2877285 0.28457342 0.28159837 0.27871963 0.27494891 0.26999699 0.26657002 0.26253644 0.25870617 0.2539929 0.249299 0.24480251 0.24084419 0.23620807 0.23133077 0.22667533 0.22202493 0.21731935 0.21090765 0.20603141 0.20051825 0.19568692 0.19117234 0.18655137 0.18205894 0.17759376 0.17538141 0.17162826 0.16841491 0.16498004 0.16145992 0.15947154 0.15578512 0.15281798 0.15036952 0.14752655 0.14587609 0.14421248 0.14217062 0.13989893 0.13896729 0.13809794 0.13749544 0.13864039 0.13763241 0.13758942 0.13882237 0.13880569 0.14022576 0.14192969 0.14310092 0.1447537 0.1464018 0.1477751 0.1495147 0.1507355 0.1542147 0.1561985 0.1580297 0.1594336 0.1618446 0.1633095 0.1646219 0.16568811 0.1681575 0.16957984 0.17213833 0.17441766 0.17738189 0.17955209 0.18140417 0.18331992 0.18536425 0.18854427 0.19294765 0.19529292 0.19816403 0.20165548 0.20446908 0.20769666 0.21118482 0.21433163 0.21766381 0.22137193 0.22491587 0.22914856 0.23269155 0.23666684 0.23950631 0.24280713 0.24637591 0.24980466 0.25376196 0.25702422 0.26061615 0.26452753 0.26761268 0.27169389 0.27498959 0.27830763 0.28165812 0.28501679 0.2882005 0.29101322 0.29446272 0.29742973 0.30032492 0.30284603 0.30606225 0.309454 0.31180912 0.31514697 0.31840392 0.32270503 0.32464057 0.32727721 0.32903463 0.33178437 0.33674997 0.33884865 0.34130723 0.34467724 0.34580411 0.34724016 0.3499761 0.35075812 0.35215878 0.35272682 0.35339784 0.35398115 0.35710105 0.35990084 0.36431114 0.36764226 0.3684314 0.36890543 0.37163113 0.3751674 0.37658185 0.37698218 0.37869856 0.3798488 0.37973366 0.3818822 0.38511467 0.3849495 0.38852994 0.39059837 0.39078726
0.3722951 0.37370358 0.37498796 0.37703333 0.37868979 0.38110151 0.38333973 0.38585642 0.38938385 0.39226674 0.39506774 0.39826554 0.40084219 0.4044955 0.40714793 0.41005915 0.41293011 0.41531692 0.41736569 0.42032925 0.42263086 0.42470686 0.42765225 0.43058089 0.43307469 0.43557445 0.43863715 0.44157759 0.44498856 0.44845939 0.45183784 0.45506754 0.45806994 0.46039397 0.46315707 0.46662906 0.47107049 0.47288832 0.47499119 0.47732003 0.47817515 0.48075454 0.48153904 0.48365751 0.48510876 0.48466777 0.4866548 0.48855543 0.48982387 0.49154811 0.49335848 0.49442854 0.49586099 0.49588612 0.49519789 0.49472826 0.49532697 0.49752559 0.50005045 0.50033541 0.50039785 0.50207158 0.50216133 0.50276157 0.50337929 0.50365056 0.50192883 0.49933452 0.49537477 0.49158294 0.49051045 0.48938765 0.48828892 0.48661909 0.4845401 0.48165795 0.47862598 0.47459005 0.46834724 0.46345765 0.45908145 0.45354023 0.44941865 0.44417531 0.43721203 0.43275187 0.42565808 0.42074157 0.41493263 0.41037108 0.40686197 0.40309566 0.39891466 0.39511547 0.39070289 0.38612618 0.38076041 0.37730227 0.37300255 0.36874982 0.36377663 0.35845663 0.35373738 0.34919033 0.3445297 0.34232035 0.34027669 0.3383695 0.33685423 0.33541125 0.33303072 0.33087236 0.3276022 0.32444163 0.32189577 0.31910166 0.31631192 0.31488442 0.31221648 0.31074163 0.30839037 0.30559266 0.30287496 0.29953648 0.29610131 0.29438176 0.29205824 0.28947459 0.28622859 0.28305591 0.28117598 0.27770804 0.27465311 0.27083482 0.26675656 0.26291756 0.25924013 0.25562405 0.25167843 0.24764388 0.24339014 0.23929431 0.23529136 0.22969515 0.22525802 0.21996372 0.2144224 0.20881456 0.20317123 0.19845782 0.19435408 0.18970465 0.18546173 0.18058815 0.17614702 0.17312659 0.16989051 0.16751758 0.16369655 0.16017434 0.15680963 0.1549192 0.15223256 0.14943856 0.14638911 0.14400621 0.14327344 0.14117706 0.13892552 0.13847201 0.13670258 0.1359995 0.13549507 0.136541 0.13683297 0.13733105 0.13780047 0.13881998 0.14055256 0.14251669 0.1441128 0.1457303 0.1470427 0.1489349 0.1501862 0.1536959 0.1555881 0.1573888 0.1587926 0.1612037 0.1626076 0.1639504 0.16516761 0.16770112 0.1690909 0.17082528 0.17462507 0.17586339 0.1798383 0.18166333 0.18360269 0.18566916 0.18854819 0.19317297 0.19600153 0.19916041 0.20211479 0.20533116 0.20860258 0.21166772 0.21506308 0.21811807 0.22148126 0.22581526 0.22952159 0.23291654 0.23681057 0.23977876 0.2430369 0.24661764 0.250321 0.25359153 0.25664533 0.26089574 0.264653 0.266879 0.27092677 0.27458495 0.27851553 0.28230386 0.28703062 0.28856582 0.29132092 0.29385209 0.2966163 0.29937705 0.3032112 0.30597869 0.30898918 0.31126101 0.31455975 0.31919233 0.32298791 0.32535389 0.32783781 0.3289935 0.33189455 0.33657625 0.33937794 0.34137233 0.34522322 0.34662771 0.34741734 0.34878753 0.35036628 0.35201139 0.35062798 0.35225962 0.35397454 0.35606965 0.35940507 0.36278119 0.36603093 0.36855495 0.36885262 0.37144858 0.37540157 0.37794541 0.38112998 0.3809221 0.38197609 0.38346144 0.3821553 0.3848719 0.38894071 0.38963345 0.39060188 0.3904157
0.37329876 0.37504628 0.37671621 0.37825488 0.37980952 0.38204327 0.3842958 0.38676997 0.3898132 0.3929103 0.3957252 0.39900214 0.4020169 0.40518022 0.40754848 0.41024442 0.4134424 0.41646417 0.4193744 0.42214393 0.42435164 0.42787225 0.43038166 0.43272191 0.43487892 0.437843 0.44076086 0.44393602 0.44717846 0.4506976 0.45457241 0.45756692 0.46064747 0.4634667 0.46590033 0.46919601 0.47309129 0.47563425 0.47741005 0.48017979 0.48172486 0.48373992 0.4852217 0.48720482 0.48863979 0.48885581 0.49068732 0.49190292 0.49478709 0.49580635 0.49630272 0.49699023 0.49807233 0.49794036 0.4968897 0.49831031 0.49877753 0.50144617 0.50200958 0.50350025 0.50307123 0.50412502 0.50461254 0.50652408 0.50549004 0.5055422 0.50331528 0.50042005 0.49696434 0.49372519 0.49247102 0.49002733 0.48885008 0.48749452 0.48672146 0.48233722 0.47798564 0.47224711 0.4660315 0.46085147 0.4558098 0.45031253 0.44489465 0.43904105 0.43317891 0.4281374 0.42080511 0.41414215 0.40887248 0.40502066 0.40026196 0.39637181 0.3924172 0.38731878 0.38232264 0.37806363 0.37384153 0.36863296 0.36453986 0.36055536 0.35581137 0.34955916 0.34487189 0.34064135 0.33649362 0.33418413 0.3328106 0.33080937 0.32947268 0.32778584 0.32528822 0.32208551 0.31843126 0.31576251 0.31374911 0.31190845 0.30959174 0.30746603 0.30583178 0.30284323 0.30122134 0.29819413 0.29688145 0.29348405 0.29089919 0.28832754 0.28637467 0.28395896 0.28192734 0.27884379 0.27611247 0.27289492 0.26966584 0.2662362 0.26271061 0.25991474 0.25624473 0.25208538 0.24802743 0.2444877 0.2413067 0.2372182 0.23315352 0.22835116 0.22331785 0.21782354 0.21240183 0.20689987 0.20148321 0.19670106 0.19246637 0.18814641 0.18394568 0.17915665 0.17442932 0.17049592 0.16725281 0.16546244 0.16224577 0.15852202 0.15544306 0.15345301 0.15019797 0.14808686 0.14519691 0.14357808 0.14155773 0.14025453 0.13837234 0.13785108 0.1361812 0.13555649 0.13490021 0.13612371 0.13593263 0.13651381 0.13713092 0.13790175 0.13926428 0.14129219 0.1434719 0.1450894 0.1464018 0.1483855 0.1496368 0.1531466 0.1549472 0.1566868 0.1592199 0.1605628 0.1619361 0.1632485 0.16468407 0.16721554 0.16866548 0.17027606 0.1738605 0.17605793 0.18006706 0.18186023 0.18386736 0.1858612 0.19128334 0.19389431 0.19704061 0.19970091 0.20289232 0.20614523 0.20901651 0.21190607 0.21561428 0.21907077 0.22233833 0.22602123 0.22958658 0.23322102 0.23720021 0.24003208 0.2435994 0.24722824 0.25050131 0.25382668 0.25820714 0.26107156 0.26471593 0.26764386 0.27105804 0.27449117 0.27778724 0.28273775 0.28554253 0.28859016 0.29128756 0.29409961 0.29631663 0.29868984 0.30185992 0.30556716 0.30788906 0.31043103 0.31350466 0.31792083 0.32180356 0.3252264 0.32840224 0.33026136 0.33200846 0.33477455 0.33827135 0.34157565 0.34384685 0.34515996 0.34578223 0.34738002 0.35006175 0.35028238 0.35115127 0.35268614 0.35356154 0.35758948 0.35992265 0.36365253 0.36632061 0.36821335 0.37089549 0.37359545 0.3748521 0.37802836 0.38088674 0.38200693 0.382317 0.38475549 0.38337382 0.38529913 0.38945171 0.39163612 0.39043048 0.39164228
0.37461486 0.37642295 0.37792116 0.37935878 0.38071955 0.38268466 0.38485762 0.38784285 0.39048137 0.39326667 0.39630159 0.3992952 0.40272835 0.40521872 0.40823921 0.41104402 0.41386773 0.4175265 0.42008643 0.42326766 0.42575969 0.42908876 0.43272165 0.43447893 0.43671129 0.44004731 0.44415365 0.44672131 0.45026662 0.45402585 0.45649171 0.45961523 0.46350211 0.46609701 0.46774568 0.47142036 0.47449029 0.47735139 0.47982764 0.48227535 0.48501915 0.48621351 0.48830221 0.49099643 0.49041827 0.49217698 0.49451336 0.49634313 0.49806198 0.49924439 0.49992296 0.4998637 0.49907441 0.49997566 0.501036 0.50165222 0.50202077 0.50384826 0.50396503 0.50527105 0.50569433 0.50616184 0.50791535 0.5084194 0.50812212 0.50670905 0.50497575 0.50198044 0.49836513 0.49562485 0.4939362 0.49094487 0.48977495 0.48793373 0.48620821 0.48181269 0.47616223 0.47083306 0.46411117 0.45849144 0.45266527 0.44716487 0.44170973 0.43548984 0.42951608 0.42344268 0.41619409 0.40897466 0.40340133 0.39952832 0.39508545 0.39004961 0.38492078 0.37923952 0.37403945 0.36989787 0.36519853 0.36020597 0.35627657 0.35217649 0.34646012 0.34072376 0.33716196 0.33232985 0.32875012 0.32688926 0.32440033 0.3233972 0.32165289 0.31962039 0.31639718 0.31309936 0.30986345 0.30692651 0.30544898 0.30469805 0.30260103 0.2999848 0.29858337 0.29609093 0.29417905 0.29239363 0.28991857 0.28661249 0.28440841 0.28233077 0.27987642 0.27818226 0.2763163 0.27354308 0.27126909 0.26795059 0.26503485 0.26169915 0.2589005 0.25639643 0.25346207 0.24964678 0.24535021 0.24210429 0.23867514 0.2350132 0.23010819 0.2249957 0.22103061 0.21604374 0.21036485 0.20492998 0.19916479 0.194092 0.18902979 0.18483502 0.18086479 0.17743458 0.17274323 0.17003586 0.1668972 0.16318494 0.1603272 0.15704809 0.15439585 0.15286665 0.14975259 0.14720145 0.14432275 0.14251373 0.14048391 0.13984549 0.13808154 0.13683022 0.13532976 0.1350309 0.13439046 0.13506257 0.13464249 0.13554719 0.13633881 0.13722795 0.13837308 0.14052552 0.1424342 0.144418 0.1457608 0.1478362 0.1490875 0.1525667 0.1543063 0.1559849 0.1579076 0.1598608 0.1612342 0.1625771 0.16416649 0.16666695 0.16808775 0.16978618 0.17349558 0.17498966 0.18073921 0.18219312 0.1857023 0.18781639 0.19121669 0.19393077 0.19744746 0.20052307 0.20358606 0.20648613 0.20932656 0.21292628 0.21578626 0.21898373 0.22258157 0.22597851 0.22968945 0.23315471 0.23711534 0.24020977 0.2450325 0.24767843 0.25070614 0.25537606 0.25847554 0.26203299 0.26489069 0.26806802 0.27099439 0.27423159 0.27811333 0.28099575 0.28415346 0.28744786 0.29066248 0.29321163 0.29570474 0.29945707 0.30233549 0.30436739 0.30766627 0.30923614 0.31277754 0.31801631 0.32214677 0.32598991 0.32759301 0.32944212 0.33223614 0.33562626 0.33691997 0.34031561 0.34363257 0.34353498 0.34556984 0.34591347 0.34921796 0.34954142 0.35122452 0.35332732 0.35445344 0.3568115 0.35945375 0.36452531 0.36662898 0.37080379 0.37415885 0.3748261 0.37583478 0.37934389 0.37930674 0.38381759 0.38399802 0.38656154 0.38546135 0.38721309 0.39015359 0.39096223 0.39256136 0.39388992
0.37603224 0.37778256 0.37873052 0.38032053 0.38217213 0.38372246 0.38662369 0.38958435 0.39201437 0.3946836 0.3976662 0.400559 0.40372664 0.40662076 0.40857534 0.41177944 0.4147604 0.41848524 0.4210348 0.42453257 0.42733763 0.43087363 0.43358997 0.43566043 0.43903999 0.44256514 0.44693907 0.45029541 0.45350601 0.45602379 0.4585973 0.46192017 0.4652922 0.46806999 0.4705666 0.47330762 0.47655547 0.48051808 0.48320912 0.48409051 0.48695877 0.48889237 0.49123439 0.49232092 0.49441066 0.49563947 0.49722396 0.49982799 0.50303931 0.50135847 0.50158906 0.50253345 0.50080837 0.50231531 0.50397907 0.50437501 0.50564154 0.50493112 0.50513806 0.50619703 0.50814967 0.50996628 0.51081675 0.51101806 0.5096117 0.50788429 0.50496155 0.50361936 0.49977401 0.49670395 0.49396556 0.49139876 0.48907598 0.48700927 0.48464017 0.48023713 0.47498787 0.46920798 0.46195729 0.45602541 0.44972035 0.44427732 0.43788919 0.43088144 0.42487705 0.41861727 0.41223746 0.40533424 0.39911075 0.3944697 0.38935497 0.38280879 0.37727718 0.37174875 0.36729494 0.36119616 0.35668445 0.35164977 0.34684322 0.34240946 0.33717473 0.33193399 0.32727557 0.32406931 0.32149605 0.31865556 0.31672276 0.31497268 0.31270488 0.31086248 0.30751977 0.30518111 0.30230079 0.29940391 0.29763051 0.296717 0.29571945 0.29310252 0.29070026 0.2887058 0.287664 0.28515462 0.28205757 0.28010487 0.27745154 0.27573826 0.2742395 0.2726526 0.27159103 0.2692406 0.26625051 0.26332916 0.25993436 0.25716814 0.25537629 0.25316294 0.25016105 0.24667091 0.24303512 0.2392964 0.23625795 0.23273889 0.22666457 0.22231666 0.21769035 0.21338048 0.20684669 0.20184141 0.19652472 0.19183426 0.1877766 0.18367735 0.17934441 0.17591185 0.17163778 0.16849889 0.16515895 0.16188325 0.15942985 0.15615459 0.15304996 0.15139277 0.1487255 0.1456343 0.14328255 0.14167643 0.14005293 0.13898891 0.13701526 0.1362603 0.13562628 0.13455034 0.13391917 0.1345042 0.13495997 0.13494873 0.13539563 0.13646226 0.13763823 0.13988372 0.1427699 0.1437771 0.1460966 0.1472868 0.1485076 0.1519563 0.1536654 0.155405 0.1572362 0.1589758 0.1605628 0.1619056 0.16361634 0.16599812 0.1674775 0.16929666 0.17324697 0.17475324 0.17641892 0.18417287 0.18609192 0.18834643 0.190237 0.19392595 0.19836091 0.20141536 0.20416709 0.20685888 0.21016942 0.21315083 0.2163685 0.21968774 0.22325639 0.22647367 0.2301083 0.23332313 0.23691109 0.24028188 0.24451484 0.24727818 0.25094036 0.25542911 0.25850099 0.26216892 0.26515466 0.2687926 0.27096218 0.274147 0.27720058 0.28049902 0.28385416 0.2864803 0.28978888 0.29261562 0.29537045 0.2993979 0.30261492 0.30450081 0.30745625 0.30998177 0.31328025 0.31793654 0.32134987 0.32452379 0.32714999 0.32969777 0.33074945 0.33410003 0.33723192 0.34033593 0.3421661 0.34332641 0.34309764 0.34539149 0.34714954 0.34960717 0.34952937 0.35345655 0.35651176 0.35858542 0.36123941 0.36450845 0.36789781 0.3719253 0.37436946 0.37524859 0.37568251 0.37985576 0.38265112 0.3835635 0.38592102 0.38752857 0.38845887 0.38906486 0.39164404 0.39312074 0.39537388 0.39715634
0.37844143 0.37897043 0.38013116 0.38096337 0.38230234 0.38519085 0.38721052 0.39030594 0.39336577 0.39573126 0.39831736 0.40151202 0.4045029 0.40806373 0.41100091 0.41258248 0.41579383 0.41838837 0.42180074 0.42563525 0.428878 0.43146412 0.43487037 0.43735505 0.44116168 0.444921 0.44965573 0.45294468 0.45629108 0.45901515 0.4629905 0.46506189 0.46742357 0.47004829 0.47349246 0.47600137 0.4788406 0.48232829 0.48567841 0.48618165 0.48922085 0.4910813 0.4930037 0.49451966 0.49727833 0.49856904 0.50168728 0.5027718 0.50345845 0.50457104 0.50504638 0.5050444 0.50343962 0.50642869 0.50752068 0.50825834 0.50977296 0.50912557 0.50972963 0.51067113 0.51085047 0.5126779 0.51465827 0.51330393 0.51074812 0.50970967 0.50727904 0.50370826 0.49995677 0.49622035 0.4947045 0.49095632 0.48733604 0.48630675 0.48302877 0.47814108 0.47300753 0.46603392 0.4594532 0.45271977 0.44569075 0.43992407 0.43251411 0.4256647 0.41937221 0.41315939 0.40681116 0.39960284 0.39401382 0.38873905 0.38300332 0.3765582 0.36958636 0.36488407 0.35868427 0.35344404 0.34805638 0.34225894 0.33678994 0.33179017 0.32660612 0.32188561 0.31867217 0.31625128 0.31428761 0.310439 0.30846618 0.30701359 0.30357244 0.30124039 0.29883689 0.2963707 0.29388727 0.29198922 0.29069245 0.28935283 0.28881439 0.28528815 0.28317699 0.28134824 0.28001204 0.27751702 0.27451745 0.2727124 0.27036956 0.26839934 0.26762037 0.26637288 0.26611056 0.26333525 0.26191219 0.2585241 0.25525804 0.25368044 0.25152572 0.24959626 0.24704595 0.24357276 0.24000019 0.23646751 0.23311068 0.23020358 0.22398864 0.21971278 0.21523624 0.20973373 0.20528867 0.20017886 0.1951969 0.19021782 0.1866289 0.18230193 0.17849346 0.17509879 0.17029043 0.16710319 0.16410563 0.16068813 0.15762155 0.15424137 0.15255041 0.14970804 0.14720042 0.14467288 0.14259247 0.14071728 0.13930317 0.13792442 0.13610648 0.13509083 0.13446203 0.13413702 0.13338299 0.1338191 0.1337631 0.13443652 0.13475494 0.13551543 0.13681186 0.13927282 0.1414271 0.1431972 0.1447232 0.1466764 0.1489044 0.1513764 0.153055 0.1547641 0.1565342 0.1582433 0.1597998 0.1612342 0.162946 0.16526624 0.16778247 0.1688712 0.1730005 0.17456078 0.1761387 0.18403471 0.18585535 0.18809204 0.19035843 0.19383288 0.19927556 0.20187248 0.20453038 0.20777679 0.21050575 0.21373322 0.21722882 0.22049608 0.22351373 0.2264318 0.23003665 0.23296272 0.23631166 0.240377 0.2445219 0.24712365 0.25071861 0.25533518 0.25840106 0.26251381 0.26571507 0.2685353 0.27146492 0.2739007 0.27687462 0.27983512 0.28318855 0.28588749 0.28978843 0.29312405 0.29639465 0.29814869 0.30116227 0.30343701 0.30714906 0.30889518 0.31253226 0.31639975 0.32077722 0.32317267 0.32647627 0.32936228 0.33150102 0.33400671 0.33671682 0.33993086 0.34124696 0.34141439 0.34211279 0.34332124 0.3433387 0.34777105 0.34927621 0.35455534 0.35864987 0.35893868 0.36045216 0.36468593 0.36978031 0.371697 0.37427077 0.37420912 0.37715472 0.37914371 0.38307409 0.38590098 0.38902125 0.3890764 0.3891648 0.39263119 0.39243733 0.39542604 0.39496545 0.39913371
0.37988494 0.38027851 0.38081308 0.3822058 0.38364404 0.38550622 0.38796535 0.39093106 0.39349168 0.39591971 0.39847983 0.40190344 0.4050835 0.40821088 0.41153573 0.41475605 0.4166611 0.41966769 0.42173872 0.42562142 0.43015651 0.43308671 0.43568659 0.43885435 0.44294903 0.44654123 0.4523022 0.45524566 0.45906817 0.46264529 0.46614029 0.46688057 0.47061163 0.47203608 0.47486331 0.47829743 0.48257341 0.48458721 0.48797297 0.48839023 0.49105303 0.4924894 0.48992057 0.4961954 0.49882649 0.50131564 0.50517251 0.50637266 0.50566707 0.50730958 0.50903248 0.50896388 0.5094323 0.50988394 0.51079859 0.51145702 0.51293451 0.51193235 0.51375943 0.51316332 0.5150013 0.51695291 0.51802566 0.51691286 0.51531751 0.5105985 0.50865173 0.50388899 0.49929939 0.49617937 0.49421264 0.49130562 0.48709227 0.48362949 0.47973507 0.47563411 0.46981365 0.46266243 0.45438244 0.44799306 0.44076029 0.43362544 0.42672511 0.42012972 0.41308953 0.40682854 0.40133019 0.3952636 0.3896768 0.38292406 0.3776928 0.36918583 0.36263325 0.35696594 0.35160269 0.34531643 0.34006926 0.33401438 0.32859112 0.32268501 0.31761076 0.31394616 0.31002972 0.30734282 0.30441668 0.30183826 0.30007006 0.29775279 0.29469636 0.29201654 0.28933746 0.2874021 0.28568432 0.28472482 0.28210973 0.28070689 0.27868925 0.27669931 0.27467008 0.27374326 0.27071307 0.26897212 0.26659293 0.26456928 0.26276464 0.26151993 0.26020944 0.25983764 0.25910537 0.25680776 0.25500987 0.25322475 0.25094367 0.24952619 0.24719602 0.24518472 0.24352965 0.2407417 0.23715993 0.23406687 0.23113333 0.22798853 0.22120951 0.21752435 0.21175586 0.2072982 0.20207723 0.1977256 0.19323281 0.18853274 0.18460035 0.18080912 0.17722443 0.17351919 0.16933985 0.16607228 0.16308909 0.15996688 0.15670105 0.1537666 0.15087212 0.14909632 0.14664694 0.14424184 0.14194326 0.1402838 0.13844487 0.13715095 0.13633576 0.13465431 0.13340907 0.13304504 0.13284188 0.13345239 0.13323148 0.13337341 0.13423777 0.13484279 0.13605002 0.13878377 0.1408167 0.1425563 0.1441433 0.1456082 0.1473173 0.150766 0.1524141 0.1540927 0.1558323 0.1575413 0.1590979 0.1605323 0.16224349 0.16453337 0.16598225 0.16850467 0.17278746 0.17424606 0.17645421 0.18372465 0.18614026 0.188351 0.1906338 0.19390048 0.19920623 0.20237845 0.20546347 0.2082166 0.21130713 0.21441476 0.21785242 0.22090165 0.22382754 0.22686837 0.22981173 0.23337921 0.23689348 0.24028993 0.24394064 0.24791263 0.25108241 0.25452897 0.25768504 0.26158289 0.26492884 0.26846812 0.27175929 0.27399657 0.27623784 0.27906147 0.28235841 0.28522555 0.28890773 0.29227119 0.29572855 0.29851499 0.30067398 0.30270819 0.30692135 0.3088367 0.31162993 0.31594072 0.31972004 0.32230679 0.32486179 0.32908736 0.33151901 0.33455425 0.33653701 0.33787578 0.33906129 0.34076182 0.34134035 0.3434947 0.34412978 0.34663439 0.34958292 0.35384968 0.35779531 0.36063958 0.36328341 0.36734121 0.37068749 0.37250498 0.37516417 0.37613642 0.37872408 0.38097553 0.38225162 0.38633441 0.38730783 0.38943804 0.39052995 0.39421293 0.39699467 0.39777981 0.39813746 0.40111076
0.38149573 0.38118619 0.38159666 0.38300481 0.38393862 0.38599581 0.38820473 0.39070696 0.39359689 0.39686466 0.39953276 0.4027425 0.40613514 0.40952629 0.41297756 0.41532729 0.41788304 0.42056625 0.42401653 0.42647081 0.43081268 0.43408632 0.43716844 0.43969397 0.4442429 0.44807831 0.453412 0.4567429 0.46042869 0.46444048 0.46806675 0.46901478 0.47243134 0.47433701 0.47750495 0.48158664 0.48400759 0.48757054 0.49088338 0.4921329 0.49300925 0.49467651 0.49525034 0.49784836 0.50093931 0.504544 0.50753491 0.50866092 0.50982687 0.5114475 0.51123035 0.51256194 0.51220822 0.51286653 0.51511642 0.51576322 0.51559375 0.51629916 0.51698924 0.51755509 0.51931793 0.51975534 0.5198669 0.51880291 0.51645263 0.51236872 0.50859942 0.5052549 0.50091799 0.49706311 0.4932005 0.49066689 0.48614089 0.48132354 0.47768139 0.47242063 0.46637453 0.45828447 0.45113741 0.44326553 0.43783211 0.42910515 0.42232341 0.41582914 0.40895291 0.40219794 0.39574368 0.38928408 0.3820886 0.37627265 0.36956597 0.36270762 0.35447486 0.34807341 0.3429298 0.33678725 0.33062906 0.3248852 0.31935373 0.31390383 0.30886938 0.30486209 0.30217892 0.29835943 0.2949314 0.29257644 0.2899926 0.28828557 0.28564401 0.28331767 0.28046526 0.27871357 0.2772713 0.27530477 0.27371822 0.27190314 0.26971993 0.26818338 0.2666083 0.26490536 0.26273154 0.26058659 0.2580593 0.2573287 0.25618298 0.25506764 0.25358633 0.25341209 0.25195005 0.25035306 0.24928654 0.24727731 0.24567005 0.24457191 0.24319755 0.24125077 0.23932744 0.23718588 0.23400382 0.2313475 0.22884989 0.22178323 0.21853901 0.21419904 0.21042901 0.20510426 0.20045967 0.19594735 0.19127 0.18694486 0.18270054 0.17892873 0.17458627 0.17262699 0.16899234 0.16502654 0.16191656 0.15878625 0.15590585 0.15310501 0.15008893 0.14781345 0.14583796 0.14360586 0.14142398 0.13949638 0.13788134 0.13600394 0.13489156 0.13424272 0.13294578 0.13200566 0.13177281 0.13302719 0.13276353 0.13280468 0.13326296 0.134293 0.13553127 0.13820434 0.1402368 0.1419764 0.1435634 0.1450589 0.1464628 0.1501556 0.1517427 0.1534212 0.1551608 0.1568394 0.1584264 0.1598303 0.16151109 0.16398683 0.16518766 0.16777 0.17256707 0.17392504 0.17744122 0.18320636 0.18574517 0.18862363 0.19097235 0.19405055 0.19921237 0.20243605 0.206042 0.20989244 0.21213685 0.21544838 0.21842167 0.22135699 0.22384819 0.22676032 0.22954409 0.23350121 0.236699 0.24063544 0.24512467 0.24814919 0.25169643 0.2544606 0.25771032 0.26108225 0.2645155 0.268333 0.2718791 0.27362885 0.2758686 0.27898942 0.28105844 0.285097 0.28808069 0.29237984 0.29575346 0.29782235 0.30051132 0.30271939 0.3055534 0.30871843 0.31211485 0.31591332 0.31777379 0.32167966 0.32501073 0.32839934 0.33103282 0.33472318 0.33695823 0.33596183 0.33702965 0.33978851 0.34142785 0.34317902 0.34341208 0.34630204 0.34939037 0.35316334 0.3554122 0.35997408 0.36212706 0.36622979 0.3726102 0.37358152 0.37642885 0.37632389 0.37988757 0.38262831 0.38427358 0.38629882 0.3862194 0.39075006 0.39340268 0.39459279 0.39706422 0.39805379 0.40090811 0.4054984
0.38184919 0.38189988 0.38254818 0.38365691 0.38496122 0.38681436 0.38889032 0.39121228 0.39416452 0.39732601 0.40027121 0.40323772 0.40651014 0.40990053 0.41345672 0.41647246 0.4192773 0.42207384 0.42505994 0.42811449 0.43223013 0.43512002 0.43740498 0.44080991 0.4447177 0.44881731 0.45440936 0.45791744 0.46152662 0.4662832 0.46957669 0.47035301 0.47346043 0.47679084 0.48003466 0.48466127 0.48701423 0.49053922 0.49286878 0.49345366 0.49438793 0.49627655 0.49924143 0.50055753 0.50254785 0.50820524 0.51108152 0.51203454 0.51445955 0.51360978 0.51477814 0.51664477 0.51575889 0.51666046 0.51880871 0.51824623 0.51813911 0.51981459 0.52113332 0.52048027 0.52164016 0.52287651 0.52310678 0.52126684 0.51802241 0.51362317 0.50970459 0.50592104 0.50190672 0.4964893 0.49322275 0.48960327 0.48526736 0.47948465 0.47448905 0.46884133 0.46071824 0.45446361 0.4466935 0.44026168 0.43358242 0.42599357 0.41910835 0.41200687 0.40372437 0.39674422 0.38968856 0.38264009 0.37535488 0.36814913 0.36196633 0.35482406 0.34818694 0.34074479 0.33417602 0.32728582 0.32151674 0.31584825 0.31079913 0.30558805 0.30054741 0.29675051 0.29326964 0.28895128 0.28586697 0.28328533 0.28122476 0.27816164 0.27550534 0.27359504 0.27140598 0.26878563 0.26728399 0.26578863 0.26386 0.26241394 0.26118293 0.2581769 0.25744725 0.25572804 0.2545854 0.25219872 0.25023923 0.24889039 0.24879192 0.24771521 0.24678669 0.246337 0.24507144 0.24381127 0.24273795 0.24161977 0.24066138 0.23939733 0.23875862 0.2369654 0.23584145 0.23325919 0.22851538 0.22611633 0.22236614 0.21932298 0.21648602 0.21218425 0.20452153 0.2011545 0.1970409 0.19314507 0.18874347 0.1854273 0.18128619 0.17733597 0.17375507 0.16982011 0.1677899 0.16457065 0.1608497 0.15786897 0.15513716 0.15228485 0.1495928 0.14717781 0.14461166 0.14298472 0.1408669 0.13891039 0.1370383 0.13540612 0.13390518 0.13377848 0.13255726 0.13147377 0.13122462 0.13263815 0.13225077 0.13229106 0.13265395 0.13349857 0.13498083 0.13762491 0.1395959 0.141366 0.1429836 0.1444485 0.1457608 0.1495453 0.1511018 0.1527803 0.1544894 0.1561985 0.157755 0.1591284 0.16078179 0.16340709 0.16451723 0.16764646 0.17234749 0.17467418 0.1771909 0.18278028 0.18537382 0.18807617 0.19056525 0.19411415 0.1992504 0.20236112 0.20775388 0.20993065 0.21305358 0.21619366 0.21889779 0.22153771 0.22414901 0.22674278 0.23055822 0.2336863 0.23760329 0.24099365 0.24444085 0.24734097 0.25111455 0.25398886 0.25726096 0.26122043 0.26456772 0.26802119 0.27074095 0.27328723 0.27624744 0.27838488 0.28085028 0.28417483 0.28713183 0.29089073 0.29452299 0.2969132 0.2995342 0.30221964 0.30448244 0.30787782 0.31140936 0.31537457 0.31788703 0.32154435 0.32482865 0.32754219 0.33071404 0.33323158 0.3352546 0.33635571 0.33734523 0.33945596 0.34264727 0.34294224 0.34497699 0.34694905 0.3495865 0.35234021 0.35593289 0.3595569 0.36302763 0.36665243 0.37264952 0.37427996 0.37600038 0.37914624 0.381526 0.38341999 0.38615019 0.38793574 0.39075335 0.39315856 0.39504261 0.39673028 0.40067575 0.40302108 0.40357874 0.40814855
0.38201369 0.38293713 0.38331002 0.38453009 0.38580646 0.38779392 0.38958812 0.39223882 0.39491653 0.3975459 0.40089162 0.40392948 0.40721094 0.41050527 0.41423486 0.41712456 0.41980201 0.42348758 0.42590794 0.42849822 0.43151996 0.43592728 0.43834865 0.44176426 0.44488003 0.44910947 0.4548499 0.45801562 0.46294805 0.46715929 0.4712104 0.47222803 0.4757745 0.47883576 0.4835533 0.48631514 0.49010365 0.49214609 0.49264129 0.49372201 0.49547779 0.49918636 0.50047083 0.50378575 0.50704937 0.51051335 0.51294738 0.51558256 0.51626313 0.5171077 0.51775346 0.51911148 0.51884261 0.52239952 0.52250324 0.52336966 0.52244255 0.52177706 0.52157629 0.52325217 0.52371407 0.52507176 0.52274883 0.52100671 0.51840741 0.51365462 0.50812609 0.5037683 0.50097751 0.49696704 0.49314826 0.48930773 0.48415582 0.47815653 0.47196428 0.46523507 0.45811762 0.45079839 0.4435526 0.43694957 0.42917941 0.42176143 0.41471797 0.40746375 0.40042332 0.39191152 0.38448887 0.37634597 0.36797933 0.36047622 0.35364854 0.3469142 0.34032108 0.33232282 0.324947 0.31804163 0.31201985 0.30665592 0.30132246 0.29660939 0.2923466 0.287491 0.28323506 0.27989355 0.27685731 0.27330649 0.27148401 0.26891677 0.26576478 0.26362907 0.26188021 0.25912979 0.25735734 0.25614809 0.25481356 0.25356848 0.2521692 0.2492328 0.24733155 0.24676447 0.24507692 0.24317872 0.24223055 0.24162502 0.24162204 0.2407934 0.24073819 0.2392139 0.23823051 0.2382089 0.23722324 0.23563027 0.23443336 0.23376163 0.2335399 0.23233841 0.23103462 0.22854874 0.22472471 0.22161967 0.21879467 0.21219587 0.20914416 0.20528348 0.20196082 0.19822585 0.19446323 0.19168627 0.18784258 0.18376508 0.17975726 0.17615027 0.1723389 0.16915964 0.16564733 0.1635715 0.15986761 0.15698392 0.1541279 0.1518369 0.14909509 0.14671264 0.14412831 0.14178685 0.14012324 0.13815919 0.13641316 0.13462281 0.13320396 0.13334178 0.13204647 0.13091967 0.13087533 0.13172965 0.13110358 0.13174559 0.13210778 0.13294673 0.13440072 0.13698275 0.138955 0.1407557 0.1423732 0.1438076 0.1451199 0.1489349 0.1504608 0.1521089 0.153818 0.1555271 0.1570836 0.1583959 0.16011179 0.16289291 0.16381847 0.16761396 0.17216028 0.17450268 0.17682696 0.18222987 0.18486116 0.18750072 0.19020626 0.19266038 0.19942377 0.202325 0.20779048 0.2107481 0.21410803 0.21641609 0.21901575 0.22177957 0.22459399 0.22738795 0.23023495 0.23326277 0.23744081 0.24081464 0.24402995 0.24725631 0.25075356 0.253708 0.25640579 0.25970582 0.26481359 0.26711642 0.26978051 0.2731228 0.27651505 0.2785946 0.28169427 0.28436635 0.28551824 0.28986846 0.29336793 0.29694718 0.29909347 0.30174828 0.30295646 0.30781415 0.31048253 0.31459448 0.3180945 0.3211979 0.32458797 0.32762497 0.331295 0.33323657 0.33459355 0.33660922 0.33636037 0.33995857 0.34148766 0.34118995 0.34286998 0.34688384 0.34985174 0.35340289 0.35743184 0.36191648 0.36455486 0.36728216 0.37325371 0.3737503 0.37517848 0.37870369 0.38240218 0.38507327 0.38758259 0.38894909 0.39070293 0.39477918 0.39797826 0.40127909 0.40289813 0.40368844 0.40598814 0.41071747
0.38353756 0.38373981 0.38491627 0.38566428 0.38664677 0.3883209 0.3899946 0.39241308 0.39525903 0.39793253 0.40134705 0.40447431 0.40847367 0.41147863 0.4156073 0.41816029 0.42081694 0.42415403 0.42677932 0.42929631 0.43237723 0.43716537 0.43966795 0.44288181 0.44614147 0.45030611 0.45404971 0.45869875 0.4633444 0.46828422 0.47230646 0.47400446 0.479337 0.48148671 0.48604561 0.48995606 0.4921873 0.49284052 0.49343384 0.49674611 0.49739726 0.49972036 0.50190885 0.50671245 0.51087858 0.51417716 0.51809883 0.51838393 0.51986461 0.52040769 0.51929122 0.52251508 0.52417026 0.52537203 0.5258012 0.52616006 0.52675288 0.52478247 0.52415094 0.52652216 0.52591607 0.52498093 0.52454617 0.52200289 0.51890073 0.51424785 0.50788226 0.50336657 0.49998065 0.4964354 0.4910845 0.48702768 0.4825462 0.47592265 0.46941812 0.46249569 0.45618449 0.44815351 0.43980424 0.43342764 0.42518263 0.41844858 0.41052823 0.40292038 0.39520043 0.38592702 0.37788357 0.36894054 0.36180509 0.35411993 0.34696636 0.33871541 0.3316751 0.32477312 0.31686355 0.30973113 0.30406211 0.29760458 0.29211776 0.28709734 0.28147793 0.27760971 0.27350036 0.26962298 0.2662454 0.26309552 0.2611498 0.25914194 0.25647533 0.25394521 0.25183621 0.2501358 0.24782222 0.24652313 0.24456821 0.24363751 0.24224212 0.24010876 0.23815826 0.23709289 0.23573597 0.23439528 0.23411238 0.23366068 0.23381958 0.23391938 0.23289636 0.23242341 0.23192902 0.23188115 0.23107341 0.23053661 0.22963848 0.22938682 0.22927754 0.22794752 0.22662079 0.22471531 0.21946226 0.21632732 0.21380342 0.20906069 0.20571875 0.20236436 0.19870431 0.19519524 0.19226549 0.1892611 0.18596502 0.18246592 0.17806234 0.17406987 0.17134882 0.16772457 0.1644343 0.16126592 0.15883048 0.15639741 0.1535969 0.15139771 0.14873714 0.14608761 0.14362293 0.14107462 0.1389981 0.13728611 0.13592428 0.13496316 0.13352357 0.13303841 0.13171955 0.13043072 0.1306004 0.13027197 0.13023008 0.13068568 0.13155826 0.13236668 0.13378491 0.13633802 0.1383141 0.1401453 0.1417323 0.1431362 0.1444485 0.1483245 0.1498505 0.151468 0.1531771 0.1548862 0.1564427 0.157694 0.15950471 0.16253162 0.16330122 0.16758134 0.1719688 0.1742261 0.17637133 0.18156739 0.18416101 0.18780522 0.19042282 0.19291964 0.19944978 0.20233276 0.20856705 0.21189052 0.21396702 0.21736774 0.21955421 0.22187924 0.22447136 0.22706524 0.22979367 0.23330521 0.23644981 0.23992835 0.2427817 0.24601962 0.24970614 0.25303404 0.25557872 0.2595953 0.26317162 0.26592901 0.26938658 0.27216774 0.27535462 0.27806357 0.28065163 0.28290857 0.28653614 0.28981923 0.29322837 0.2970693 0.29920694 0.30103138 0.3047866 0.3072901 0.31057414 0.31348903 0.31795813 0.31989751 0.32331225 0.3268844 0.33011202 0.33224642 0.33430461 0.33745806 0.33874164 0.33991673 0.34181821 0.34186143 0.34475558 0.34767667 0.35136884 0.35454419 0.35765923 0.36266395 0.36585309 0.36765703 0.37069197 0.37293107 0.37587824 0.37997362 0.38280728 0.38508856 0.38690007 0.3924621 0.39578676 0.39842846 0.402068 0.4046882 0.40598131 0.40705541 0.40820588 0.41167766
0.38509725 0.38499878 0.3855511 0.38599341 0.38741169 0.3888631 0.39077478 0.39323233 0.39618352 0.399009 0.4020514 0.40507111 0.40884428 0.41252363 0.41640696 0.41939022 0.42207784 0.42522174 0.42784139 0.43049021 0.43318549 0.43830757 0.44056507 0.44379118 0.44696179 0.45118222 0.45669697 0.46049643 0.46390872 0.46945984 0.47317291 0.47505504 0.48014949 0.48335491 0.48785803 0.49086414 0.49337275 0.49471871 0.49635286 0.49896312 0.50194888 0.50277084 0.50596015 0.50971433 0.5149706 0.51880513 0.52162231 0.52243948 0.52313747 0.52292048 0.52443537 0.52551084 0.52823625 0.529338 0.53009047 0.52810419 0.52928905 0.52827485 0.53068255 0.5299744 0.52865232 0.52823687 0.52492678 0.52237047 0.52016965 0.515009 0.51016053 0.50532424 0.50058414 0.49552032 0.49132985 0.48651376 0.47986329 0.47390653 0.46797216 0.46079621 0.45374808 0.44668962 0.43932422 0.43113049 0.42253472 0.41537964 0.40542891 0.3967202 0.38855616 0.3798956 0.37056857 0.36278791 0.35460972 0.34665877 0.33804272 0.33082246 0.3233871 0.31538025 0.3087308 0.30150488 0.29552376 0.28878888 0.28259297 0.27713338 0.27133547 0.26648832 0.26278668 0.25828382 0.25501032 0.25227618 0.24994841 0.24855227 0.24608866 0.24428854 0.24266214 0.24035661 0.23840929 0.23663429 0.23503121 0.23298643 0.23192137 0.23033291 0.22833024 0.22781521 0.22644537 0.22568769 0.22585823 0.22544874 0.22528289 0.22579512 0.22562094 0.22565353 0.22555741 0.22564672 0.22489368 0.22516445 0.22437083 0.2239673 0.22258413 0.22136358 0.22004052 0.21837795 0.21515069 0.21286461 0.21098318 0.20590828 0.2028305 0.19950793 0.19621146 0.19309746 0.19026266 0.18750998 0.1848257 0.18082063 0.17741679 0.17311518 0.16904724 0.16647508 0.16365617 0.16036625 0.15764036 0.1558823 0.1532427 0.15114681 0.14834226 0.14571951 0.14291007 0.1405046 0.13813088 0.13601651 0.1354873 0.13321003 0.13330589 0.13252332 0.1306702 0.12949354 0.13031117 0.12968755 0.12962013 0.12992238 0.13070525 0.13178563 0.13314217 0.13566407 0.1376427 0.1395044 0.1410914 0.1424953 0.1438076 0.1477446 0.1492095 0.1508271 0.1524751 0.1541537 0.1557712 0.157053 0.15902231 0.16220021 0.16357886 0.16748787 0.17165498 0.17381804 0.1758094 0.18085433 0.18338424 0.18604964 0.18972414 0.19240795 0.19945486 0.20389023 0.21083494 0.21287413 0.21488996 0.21706308 0.21986139 0.22211588 0.22407497 0.22699533 0.2297776 0.23246848 0.2359098 0.23893571 0.24153037 0.24510568 0.2488481 0.25205083 0.25442167 0.2589367 0.26179632 0.26544661 0.26919263 0.2719177 0.27496857 0.27748041 0.27894487 0.28180646 0.28646975 0.28975701 0.29270224 0.29501014 0.29814968 0.30203058 0.30515954 0.30776142 0.30951062 0.31298539 0.31626112 0.31940551 0.322601 0.32608489 0.33021014 0.33244708 0.33459616 0.33755505 0.33950858 0.34121598 0.34189612 0.34419293 0.34624584 0.34994303 0.35329395 0.35594505 0.3581881 0.3635091 0.36540109 0.36700353 0.36866306 0.37340502 0.37618123 0.37950633 0.38188006 0.3858631 0.38927013 0.3946487 0.39799317 0.39947661 0.40404856 0.40601319 0.41049445 0.41040132 0.40926553 0.41176015
0.38636236 0.38585156 0.38617308 0.38670047 0.38783346 0.38915443 0.39131606 0.39349331 0.39625152 0.39926094 0.40226636 0.40537193 0.40867494 0.41192735 0.41648534 0.41990657 0.42246305 0.42607832 0.42904301 0.4312313 0.43442843 0.43925958 0.44244337 0.44556379 0.44844846 0.45215652 0.4569292 0.46066421 0.46505778 0.46978005 0.47296136 0.47702211 0.48166835 0.48470458 0.48845564 0.49162991 0.49530143 0.49737546 0.49955621 0.50316003 0.50522294 0.50829535 0.51020701 0.51572825 0.51900992 0.52332339 0.52451897 0.52581482 0.52664433 0.52633379 0.52891433 0.52853427 0.5313924 0.53144925 0.53345121 0.53122893 0.53021669 0.53233224 0.53433003 0.53282472 0.53320757 0.52982368 0.52582968 0.52271944 0.52079758 0.51649118 0.51178218 0.50534124 0.49886268 0.49436065 0.49104119 0.4864233 0.47981156 0.47248172 0.46539956 0.45902145 0.45008549 0.44432999 0.43690995 0.4291607 0.42032615 0.41167342 0.40164454 0.39228679 0.38299034 0.37350479 0.36524279 0.35671386 0.34753389 0.33926549 0.33101793 0.32255174 0.31546095 0.30701616 0.29999772 0.29323738 0.28541761 0.27953093 0.27344833 0.26838467 0.26170082 0.25586899 0.25117117 0.24765738 0.24419281 0.24112337 0.23941646 0.23734427 0.23639705 0.23453808 0.23317425 0.23138961 0.22929322 0.22701782 0.2244227 0.22223345 0.22067583 0.21933107 0.21850621 0.21843295 0.21787507 0.21736449 0.21786978 0.21742385 0.21775333 0.21790118 0.21813417 0.218602 0.21822837 0.21847014 0.21903183 0.21971986 0.21920537 0.2188035 0.21738574 0.21587184 0.21525943 0.21299362 0.21091254 0.20823519 0.20621935 0.20329371 0.20036422 0.19680139 0.19358521 0.19088895 0.18866045 0.18578819 0.18243538 0.17949779 0.17629207 0.17261517 0.16931017 0.16575325 0.16281653 0.1593738 0.15717469 0.15518147 0.15258852 0.15057625 0.14782372 0.14525955 0.14252276 0.13983862 0.13738343 0.13499086 0.1349409 0.13245815 0.13319749 0.13190839 0.13017164 0.12910133 0.12868619 0.12845418 0.1289664 0.12932095 0.13006562 0.13117414 0.1324665 0.13501987 0.1370018 0.1388635 0.1404505 0.1418238 0.1431362 0.1471342 0.1485076 0.1500641 0.1516511 0.1546725 0.156229 0.1575413 0.15865851 0.16192762 0.16321327 0.16724051 0.17124462 0.17331311 0.17621863 0.18015974 0.18273509 0.1853056 0.18816748 0.19161314 0.19600181 0.20357282 0.20628334 0.20881804 0.21187853 0.21462579 0.21851732 0.22081003 0.22394213 0.2266814 0.22933971 0.2321936 0.23526481 0.23827137 0.24114661 0.24431797 0.24782787 0.25116508 0.25420676 0.25764067 0.2603663 0.26412731 0.26695623 0.27007585 0.27330429 0.27680412 0.27932914 0.28188347 0.28590178 0.28914199 0.29119858 0.2944169 0.29745623 0.30053432 0.30583257 0.30825951 0.31159968 0.31387031 0.31693619 0.31994206 0.3236146 0.32659513 0.33026898 0.33236067 0.33407336 0.3366254 0.3390605 0.34069426 0.34308652 0.34460516 0.34575098 0.34982247 0.35258629 0.35606719 0.35941197 0.36229522 0.36456751 0.3677926 0.37106138 0.37526883 0.37724812 0.38116739 0.38515866 0.38823142 0.39278434 0.39609789 0.40107374 0.40209323 0.40570422 0.40661392 0.40947608 0.41166396 0.41091637 0.41306327
0.38747908 0.38686194 0.38669451 0.38743035 0.38876843 0.39043777 0.39185068 0.39372724 0.39695087 0.39948919 0.40206584 0.40538754 0.4086863 0.41207577 0.41632218 0.41944606 0.42342874 0.42694562 0.43043419 0.43337912 0.43581611 0.44126218 0.44402957 0.44647553 0.44960263 0.45309875 0.45558495 0.46195295 0.46628205 0.4696309 0.47441702 0.47848108 0.48315117 0.48534714 0.48966412 0.49444202 0.49749347 0.50099221 0.50443282 0.50696596 0.50954786 0.51262893 0.51779103 0.51946127 0.52429535 0.52743594 0.5307115 0.53070847 0.53013461 0.52970357 0.53011102 0.53352369 0.53393763 0.53423071 0.53435062 0.53484587 0.5328919 0.53422919 0.53442331 0.53489313 0.53512968 0.53221693 0.52800698 0.52566581 0.52120787 0.51661228 0.51121762 0.50495881 0.50039451 0.49465923 0.49127489 0.48472652 0.4784676 0.47059764 0.46236729 0.45542568 0.44759112 0.4419906 0.43361388 0.4252001 0.41608892 0.40793675 0.39806977 0.38765675 0.37749724 0.36725682 0.35801065 0.3495751 0.33986907 0.33092236 0.32325732 0.31440946 0.30681971 0.29864986 0.29081842 0.28343628 0.27618939 0.27008242 0.26452402 0.25764266 0.25257852 0.24626476 0.24143062 0.23745316 0.23352106 0.23085448 0.22844824 0.22748389 0.2265985 0.22481699 0.22367365 0.22101484 0.21964892 0.21687304 0.21399102 0.21189196 0.21040225 0.20955101 0.2088549 0.20927783 0.2098106 0.20942092 0.20918041 0.20962154 0.20941703 0.21035209 0.21039219 0.2113863 0.2117674 0.21278202 0.21292973 0.21337786 0.2144024 0.2137945 0.21262173 0.21066194 0.20905066 0.20778817 0.20615396 0.20449063 0.20245884 0.20031688 0.19776079 0.19452444 0.19181315 0.18952747 0.18705212 0.18425566 0.18076765 0.17732349 0.17511355 0.17202627 0.16871737 0.16510205 0.16205342 0.15907719 0.15623109 0.15480745 0.15218147 0.14989835 0.14725993 0.14465858 0.14195242 0.13926453 0.13678281 0.13464862 0.13484108 0.13231113 0.13263346 0.13065463 0.12942821 0.12864934 0.12808971 0.12779183 0.12791415 0.12868184 0.12945618 0.13053138 0.1318219 0.1343743 0.1363303 0.1382225 0.1398096 0.1411524 0.1424648 0.1464933 0.1477751 0.1503998 0.1519258 0.1549777 0.1565342 0.1578771 0.1583253 0.1616576 0.1629415 0.16687305 0.17071276 0.17268121 0.17497862 0.17944439 0.18198782 0.18462844 0.18756084 0.19023249 0.19567415 0.20219249 0.2052276 0.20805918 0.21078879 0.21399258 0.21716074 0.22051172 0.22330227 0.22551614 0.22877959 0.23176758 0.23506013 0.2374976 0.24053509 0.24378658 0.24725886 0.25050368 0.25316732 0.25607703 0.2596413 0.26284072 0.26603515 0.2691608 0.27218564 0.27510485 0.27976447 0.28228306 0.28462342 0.28722928 0.28998445 0.29276215 0.29709003 0.30060618 0.30559777 0.30699264 0.31079955 0.31493002 0.31849266 0.32111447 0.32307152 0.32593667 0.32817545 0.33150243 0.33418761 0.33754959 0.33962073 0.34069949 0.34250487 0.34442902 0.34578896 0.35000535 0.35243975 0.35622784 0.3588042 0.36197144 0.36709956 0.37027834 0.37411175 0.37715008 0.37886627 0.38316164 0.38543399 0.39043133 0.39541503 0.39931898 0.40391135 0.40539658 0.40648859 0.41015775 0.41183414 0.41483317 0.41456221 0.41490065
0.38757453 0.38719279 0.38704586 0.38789301 0.3891091 0.39095746 0.39244995 0.39375834 0.39706292 0.39969234 0.40270804 0.40527121 0.40859729 0.4120068 0.41607341 0.41994435 0.42392432 0.42729018 0.43095667 0.43370646 0.43613717 0.44283423 0.44671565 0.44932463 0.45097727 0.45402978 0.45601047 0.46363057 0.46815433 0.47060832 0.47450474 0.47997086 0.48286824 0.48658443 0.49095474 0.49667115 0.49987194 0.50322471 0.50634388 0.51041462 0.51429166 0.51763114 0.5224658 0.52415026 0.52899174 0.53115803 0.53511329 0.53391608 0.53337581 0.5341757 0.53330406 0.53472749 0.53732024 0.53746145 0.53779525 0.5371549 0.53620978 0.53693439 0.53581669 0.53622009 0.53664408 0.53516268 0.53183739 0.52816795 0.52327255 0.51600464 0.50895782 0.50556765 0.50202966 0.4947817 0.4887862 0.48219955 0.47497312 0.46879108 0.46082279 0.45393407 0.44477837 0.438556 0.4307727 0.42103978 0.41179403 0.40369254 0.39539002 0.38272948 0.37092683 0.36102892 0.35214311 0.3423317 0.33314558 0.32347685 0.31430057 0.30636112 0.2977898 0.28924116 0.28152776 0.27386235 0.26733313 0.26135737 0.25494288 0.2476466 0.24225211 0.23639487 0.2307869 0.22672492 0.22310122 0.22033543 0.21903829 0.2171654 0.21587764 0.21443235 0.21330657 0.21159055 0.20954449 0.20724338 0.20464911 0.20248271 0.20134162 0.20062146 0.19998951 0.20010553 0.2007891 0.20115348 0.20174169 0.20176195 0.20296447 0.20303135 0.20399347 0.20496508 0.2057881 0.20609039 0.20721341 0.2075005 0.20792417 0.20777055 0.20721253 0.20568335 0.20440878 0.20316038 0.20199229 0.2006735 0.1991095 0.1965425 0.19447594 0.19206894 0.18967998 0.1876733 0.18503309 0.18241358 0.17983378 0.17651209 0.17319114 0.17096842 0.16807996 0.16503323 0.16150396 0.15840616 0.15577043 0.15395648 0.151256 0.14925265 0.1463992 0.14412834 0.14123414 0.13866392 0.1359635 0.13461491 0.13477727 0.13225899 0.13191745 0.13003094 0.12891318 0.1279967 0.12742591 0.12717887 0.12724006 0.12804597 0.12875448 0.12979759 0.13112082 0.1337038 0.1356589 0.1375511 0.1391381 0.1405115 0.1417323 0.1459135 0.1479277 0.1482634 0.150644 0.1551914 0.1568089 0.1581517 0.16010072 0.1613852 0.16257867 0.16638145 0.1700666 0.17307391 0.17541627 0.17873886 0.18128103 0.18391892 0.18701683 0.18967669 0.19529896 0.19970666 0.20360498 0.2070426 0.2099344 0.21307254 0.21627676 0.21875787 0.22256178 0.22489287 0.2278375 0.23139423 0.23437306 0.23686306 0.23947562 0.2433041 0.24652665 0.24974569 0.25206377 0.25491845 0.25842415 0.26182325 0.26515189 0.26794927 0.27195118 0.27479363 0.27805642 0.28089606 0.2839405 0.2865016 0.28919335 0.29172413 0.29609896 0.29961625 0.30233916 0.30636344 0.30995348 0.31413232 0.31706085 0.32011865 0.3226066 0.32560573 0.3288494 0.33128908 0.3336732 0.33777745 0.34121219 0.34179003 0.34278207 0.34401057 0.34755433 0.34998257 0.35239775 0.35648717 0.36104545 0.36418917 0.36791143 0.37095719 0.37383306 0.37770748 0.38198787 0.38530964 0.38783017 0.39252495 0.39844205 0.40149011 0.40618775 0.40743374 0.40875509 0.4116163 0.41563275 0.41600937 0.41563642 0.41603931
0.38753993 0.38780164 0.38755797 0.38839524 0.38922948 0.39048277 0.39236313 0.39377783 0.39702345 0.39968201 0.40292786 0.40542285 0.40825447 0.41212112 0.41642209 0.420174 0.42451136 0.42792169 0.43185986 0.43510495 0.43795891 0.44154767 0.44785337 0.45070464 0.45297763 0.45608755 0.45841743 0.46444874 0.46873187 0.47239153 0.47679934 0.48057151 0.48404416 0.48772405 0.49434222 0.49906074 0.50283054 0.50697492 0.50985477 0.51541479 0.51925421 0.52154254 0.52542033 0.52898895 0.53454118 0.53695386 0.53815634 0.53807927 0.54070462 0.54019019 0.53853966 0.53853998 0.54087598 0.54111982 0.5402035 0.53790667 0.53877035 0.53827724 0.53762841 0.53957261 0.53705633 0.53507629 0.5324972 0.52955981 0.52192414 0.51692644 0.51217352 0.50771221 0.50234683 0.49651134 0.49014477 0.4816178 0.47531718 0.46794098 0.4606108 0.45249249 0.44386245 0.43516928 0.42661641 0.41653841 0.40828288 0.39786714 0.38783042 0.37714441 0.36571331 0.35611636 0.34626164 0.33547553 0.32552775 0.31497055 0.30616606 0.29714694 0.28893418 0.28065103 0.27270333 0.2652389 0.25812749 0.25182238 0.24460556 0.23711732 0.23191811 0.22572206 0.22126222 0.21709851 0.21340516 0.21088468 0.20835164 0.2076556 0.20625375 0.20461317 0.20325198 0.20153869 0.19891467 0.19731431 0.1951537 0.19345969 0.19176564 0.19130159 0.19127525 0.19143283 0.19227831 0.19279242 0.19388957 0.19440536 0.19564481 0.19586656 0.19738157 0.19798082 0.1994768 0.20028719 0.20090785 0.20171849 0.20211831 0.20230664 0.20232132 0.20148945 0.2004307 0.1995964 0.1983316 0.19774111 0.19552869 0.19379066 0.19224903 0.19033922 0.18786736 0.18602945 0.18296098 0.18061118 0.17841461 0.17557736 0.17245869 0.17075928 0.16750744 0.16480928 0.16168821 0.15883803 0.15559791 0.15352606 0.15056729 0.14868702 0.145506 0.14343461 0.14059057 0.1378985 0.13543765 0.13455449 0.13473902 0.13217575 0.13051612 0.1290797 0.12822183 0.12741939 0.12682877 0.12655043 0.12655663 0.12737126 0.1280218 0.13019603 0.13154871 0.13300402 0.1349265 0.1368186 0.1384057 0.1398401 0.1410914 0.1453946 0.1465238 0.1485686 0.1508576 0.1553439 0.157053 0.1575413 0.15988638 0.16102185 0.16212315 0.16582929 0.16938093 0.17153246 0.17461345 0.17803242 0.18047984 0.18314541 0.18640877 0.18924101 0.19490184 0.19918366 0.20230544 0.20546356 0.20884633 0.21213781 0.21544985 0.21841761 0.22212292 0.22448179 0.227706 0.23036133 0.23373927 0.23614319 0.23916174 0.24233869 0.24504899 0.24872793 0.25150585 0.25443535 0.25729131 0.26078068 0.2637754 0.26744973 0.27034277 0.27365857 0.27639702 0.27955498 0.28313002 0.28590315 0.28678063 0.29161739 0.29543602 0.29766337 0.29964473 0.30444124 0.30723822 0.31268087 0.31818726 0.32036272 0.32317047 0.32600418 0.32969101 0.33228581 0.33547963 0.33811466 0.34097903 0.34155678 0.342574 0.34529475 0.34742469 0.34901677 0.35224052 0.3564083 0.36109146 0.36483554 0.36914711 0.37164881 0.37333552 0.37826037 0.38274142 0.38664056 0.39073674 0.39607875 0.40132518 0.40567919 0.40855512 0.40937085 0.41141004 0.41534124 0.41828197 0.41842129 0.41954179 0.41829967
0.38764871 0.38783478 0.38792462 0.3884718 0.38916157 0.39063814 0.39271012 0.39373765 0.39762612 0.39998516 0.40269773 0.40520882 0.40798087 0.41208942 0.41632283 0.41990203 0.42429484 0.42775374 0.4311122 0.43553407 0.4389951 0.4443364 0.44963533 0.45247355 0.45519383 0.45920037 0.46168017 0.4680559 0.47113101 0.4753287 0.4795602 0.48339072 0.48689656 0.49218514 0.497556 0.50150077 0.50494443 0.50868529 0.513817 0.51895266 0.52345916 0.52753863 0.52990446 0.53535919 0.53768202 0.53869581 0.54102365 0.54528826 0.54690698 0.54356448 0.54246804 0.54198245 0.54403748 0.54416467 0.54071899 0.54168484 0.54229272 0.54396975 0.54347446 0.542006 0.53978211 0.53642829 0.53444331 0.52958766 0.52332857 0.5184922 0.5150853 0.50846043 0.50205499 0.49700997 0.48896912 0.48347271 0.47683235 0.46792539 0.45885187 0.45094649 0.44208504 0.43237607 0.42314271 0.41272921 0.4037953 0.39300299 0.38203269 0.37184421 0.35982313 0.35015467 0.33995679 0.32890274 0.31778159 0.30714768 0.29692882 0.28827719 0.27989292 0.2711909 0.26316916 0.25571927 0.24867483 0.24199085 0.23479181 0.22700344 0.22093082 0.21487437 0.21020681 0.20606379 0.20293592 0.20029974 0.19868427 0.19780246 0.1962158 0.1947416 0.19308599 0.19157674 0.1890681 0.18742411 0.18541303 0.18411675 0.18290644 0.18223986 0.18223271 0.18302181 0.18368662 0.18444252 0.18577873 0.18671525 0.18824011 0.18878936 0.19053924 0.19254001 0.1940249 0.19493754 0.19557965 0.19619337 0.19666362 0.19715019 0.19750865 0.19704815 0.1959578 0.19558311 0.19484634 0.19382549 0.19207736 0.19096457 0.18956932 0.18793041 0.18633808 0.18419765 0.18204348 0.17920128 0.17674836 0.17388815 0.17152786 0.16862144 0.16696795 0.16422506 0.16146821 0.15840539 0.15583515 0.15281267 0.15013326 0.14823405 0.14493766 0.14305386 0.14002529 0.13739519 0.13513682 0.13430895 0.13249801 0.13148889 0.12989562 0.12846945 0.12738282 0.12672996 0.12623352 0.1259427 0.1258869 0.12669674 0.12722756 0.12879238 0.13054495 0.13230265 0.1353232 0.1360557 0.1388024 0.1401758 0.1421596 0.1450284 0.1468901 0.1476836 0.1493011 0.1516511 0.1559543 0.1580907 0.15952213 0.16056579 0.16252012 0.16527872 0.16876945 0.17193628 0.17498299 0.17739524 0.17970467 0.18223259 0.18593869 0.18886698 0.19438382 0.19779127 0.20078976 0.20418085 0.20721014 0.2107548 0.21388838 0.21741126 0.22061937 0.22349723 0.22701422 0.2295978 0.23245927 0.23545462 0.23846391 0.24200342 0.24499611 0.24799926 0.25069261 0.25348498 0.25661554 0.25991765 0.26292433 0.26600465 0.27008019 0.27286261 0.27644568 0.27974543 0.28170079 0.28507266 0.28759157 0.29057069 0.29416077 0.29688237 0.2991725 0.30302254 0.30742844 0.31229781 0.31681788 0.31937712 0.32279968 0.32667935 0.33020709 0.33342342 0.33652885 0.33809898 0.33966908 0.34225616 0.34366273 0.34526968 0.34606922 0.34846917 0.35229357 0.35791579 0.3630686 0.36698409 0.37021977 0.3701227 0.37517911 0.37804875 0.38155359 0.38560894 0.39202613 0.39757196 0.4009399 0.40575907 0.40793712 0.41115888 0.41254472 0.41605442 0.41655475 0.41989186 0.42108124 0.42150096
0.38826832 0.38836731 0.38884898 0.38914826 0.38991903 0.39067145 0.3923598 0.39406332 0.39746264 0.40002675 0.40220131 0.40494618 0.40835688 0.41127583 0.41604283 0.41943407 0.42286707 0.42755828 0.43136472 0.4357336 0.43947038 0.44389096 0.45020862 0.45343618 0.45692653 0.46076924 0.46441405 0.46823953 0.47315486 0.47731526 0.48231838 0.48553476 0.49022372 0.49564862 0.50109442 0.50568577 0.50856133 0.51277515 0.51890539 0.52253618 0.52909982 0.53247659 0.53704062 0.53906536 0.54114909 0.54286818 0.5478902 0.54863594 0.55031901 0.54795929 0.54898573 0.54859415 0.54822472 0.54663225 0.54711143 0.54630879 0.54717941 0.54914405 0.54861219 0.54534543 0.54321655 0.53940461 0.5357345 0.53085551 0.52697675 0.52145926 0.51844901 0.51216426 0.50331603 0.49768904 0.49172836 0.48375212 0.47718222 0.46789419 0.45829373 0.4483211 0.438029 0.4288689 0.42021957 0.40912648 0.3985615 0.38769094 0.37673357 0.36658263 0.35556757 0.34399309 0.33319731 0.32147529 0.31126993 0.2995941 0.28982562 0.28071341 0.27209791 0.26285254 0.25431642 0.24651531 0.23941663 0.23203331 0.22504657 0.21590863 0.20965723 0.20443258 0.19976548 0.19602005 0.19345607 0.19079766 0.18919706 0.1879647 0.18577475 0.18493993 0.18344871 0.18242456 0.17987412 0.17852737 0.17615737 0.1751079 0.17391855 0.17365973 0.17382973 0.17449562 0.17572299 0.17662895 0.1781634 0.17949124 0.18087936 0.18219243 0.18434507 0.1860198 0.18783423 0.18892339 0.19096212 0.19087411 0.1913539 0.19222153 0.19324829 0.1927031 0.19288438 0.19213008 0.19247718 0.19068663 0.18896785 0.18815525 0.18697674 0.18623769 0.18529494 0.18293508 0.18086583 0.17811431 0.17484945 0.17270614 0.17025308 0.16775952 0.16585856 0.16367431 0.16114119 0.15830409 0.15504893 0.15202017 0.14932438 0.14763646 0.14477029 0.14262441 0.13953511 0.13707712 0.1347316 0.13392387 0.13193916 0.13104134 0.12919624 0.12789473 0.12677015 0.12602524 0.12560157 0.12534544 0.1252574 0.12602816 0.12756021 0.12827576 0.12941977 0.13114496 0.1333394 0.1362693 0.138955 0.1395349 0.1419459 0.1445706 0.1471342 0.1481414 0.1509492 0.1524141 0.156229 0.1584569 0.1590056 0.16099488 0.16194183 0.16479145 0.16809326 0.16995455 0.17514708 0.17686964 0.17897558 0.18133668 0.18559413 0.18853003 0.19226802 0.19601075 0.19939252 0.20245329 0.2058278 0.20876285 0.21214205 0.21590546 0.21984557 0.2226756 0.22593324 0.22858347 0.23181579 0.2345984 0.23785503 0.24139318 0.24474072 0.24772554 0.25063614 0.25314489 0.25567253 0.25875155 0.26220724 0.26515977 0.26937723 0.27279775 0.27568192 0.27853574 0.28179343 0.28531667 0.28818068 0.2904022 0.29306195 0.29630786 0.29767928 0.30236013 0.30627499 0.31021176 0.31510634 0.31861033 0.32237449 0.32659172 0.33095315 0.33194414 0.33578992 0.33792184 0.34116748 0.34217137 0.34429145 0.34437935 0.34465505 0.34875508 0.35157903 0.35797831 0.36377222 0.36599528 0.36824691 0.37106732 0.37573309 0.37832909 0.38127801 0.38612281 0.39297953 0.39636706 0.40180553 0.40599738 0.40964637 0.41087481 0.4152115 0.41683297 0.41821382 0.41949795 0.42126093 0.42341869
0.3875771 0.38876838 0.38839539 0.38935812 0.39007217 0.39132221 0.39199731 0.39472357 0.39778323 0.40032104 0.4026953 0.40479427 0.40766241 0.41177106 0.41613838 0.41952448 0.42302458 0.42751305 0.43047579 0.43517921 0.43916601 0.44405555 0.44961516 0.45287051 0.45678662 0.46097193 0.46569582 0.46927777 0.47420168 0.47921935 0.48297569 0.48963886 0.494496 0.50013434 0.50367403 0.50776603 0.51181886 0.51596257 0.52392383 0.52740195 0.5344411 0.53782371 0.54141953 0.54133578 0.54415988 0.54634518 0.55313773 0.55192124 0.55230939 0.5523769 0.55287967 0.55145109 0.55230999 0.552114 0.55024525 0.55124312 0.55253629 0.55318367 0.55356865 0.54853906 0.54416432 0.54171245 0.538501 0.53237008 0.53099752 0.52544404 0.52096582 0.51309009 0.50438046 0.49791128 0.49268553 0.48464004 0.4763091 0.4657738 0.4562621 0.44539685 0.43555547 0.42623807 0.41569755 0.40413409 0.39457646 0.38285552 0.37162958 0.36022092 0.34995215 0.33787766 0.32641987 0.31565449 0.30456783 0.29267856 0.28258184 0.27262184 0.2634201 0.25428959 0.24491039 0.23687327 0.22955106 0.22224767 0.21458199 0.20638177 0.20007972 0.1947317 0.19025577 0.18640769 0.1833252 0.18085654 0.17936894 0.17785877 0.17610196 0.17511639 0.17373108 0.17291081 0.17092502 0.16956615 0.16787987 0.16619818 0.1653381 0.16556595 0.16569719 0.16668173 0.16792501 0.16935054 0.17108807 0.1724743 0.17453258 0.17613686 0.17844662 0.18031469 0.1817291 0.18327749 0.18405548 0.18530439 0.18673102 0.18806516 0.18863188 0.18913867 0.18868344 0.18891099 0.18907041 0.18823571 0.18676235 0.18621188 0.18511586 0.1841264 0.18322277 0.18179703 0.17982636 0.17612202 0.17415155 0.17143521 0.16887902 0.16752682 0.16468077 0.16343584 0.16096323 0.15822073 0.15525349 0.15235084 0.14962183 0.14733379 0.14430303 0.14239446 0.13923134 0.13668071 0.13442561 0.1335201 0.13123365 0.13046719 0.12866878 0.12720115 0.12614505 0.12542819 0.12505077 0.12474963 0.12464271 0.1254451 0.12612616 0.12766636 0.12874724 0.1303218 0.1321492 0.1349875 0.1367271 0.1392602 0.1417018 0.1442349 0.146005 0.147592 0.1505219 0.1518647 0.1529634 0.1586401 0.15922168 0.16124382 0.16231001 0.16436274 0.1675422 0.17019733 0.17191922 0.17642398 0.17832106 0.180486 0.18524109 0.18813851 0.19100386 0.1938054 0.19740461 0.20095078 0.20391961 0.20735166 0.21142313 0.21451476 0.21840525 0.2212127 0.22514277 0.22827366 0.23116283 0.23384691 0.23706311 0.24073389 0.24446322 0.24666437 0.24959593 0.25303634 0.2558752 0.25774745 0.26088838 0.2646659 0.26827652 0.27209664 0.27465134 0.27778974 0.28067181 0.28449414 0.28781009 0.28972629 0.29368064 0.29560652 0.29892691 0.30175085 0.30566118 0.30936156 0.3119505 0.31625585 0.3198742 0.324335 0.32731096 0.33089175 0.33474325 0.3378517 0.3395923 0.34075594 0.343261 0.34512266 0.34592457 0.35004391 0.3523616 0.3572637 0.3630423 0.36682868 0.36881022 0.3720504 0.37764313 0.38111746 0.38377622 0.38758273 0.39342821 0.39612367 0.4000888 0.40657513 0.40954002 0.41218226 0.41522867 0.41670516 0.41945026 0.42210686 0.42304876 0.42580275
0.38661731 0.38691634 0.38871057 0.38987418 0.39105788 0.39094302 0.39333097 0.39485802 0.39795877 0.40030709 0.40283536 0.40575781 0.40807495 0.41167275 0.41587025 0.41946735 0.4230528 0.42688237 0.43096201 0.43565707 0.43931538 0.44362979 0.44920802 0.45272749 0.4568478 0.46021291 0.46411634 0.46840145 0.47456648 0.47914199 0.48414242 0.49136857 0.49656679 0.50187814 0.50620944 0.5104898 0.5156341 0.5206677 0.52639405 0.53075916 0.53628683 0.54144851 0.54371507 0.54512461 0.54787867 0.55020008 0.55378771 0.55497526 0.55383591 0.55507158 0.55638449 0.55637948 0.55719165 0.55525784 0.55660907 0.55611358 0.55568811 0.55689496 0.55392333 0.55104424 0.54729742 0.54418467 0.53938653 0.53367899 0.53002768 0.52695312 0.52078807 0.51212919 0.50750237 0.5003929 0.49365016 0.48324218 0.47408101 0.46619924 0.45556456 0.4452605 0.43438559 0.42412952 0.41196179 0.40150674 0.38932084 0.37877811 0.36550544 0.3534664 0.34304402 0.33192007 0.3205919 0.30883127 0.29722314 0.28583091 0.27554429 0.26522427 0.25489747 0.24548215 0.23678868 0.22807959 0.22051682 0.21250443 0.20387036 0.1967872 0.1907238 0.18536937 0.18049364 0.17649071 0.17393025 0.17137062 0.16910944 0.16826126 0.16673274 0.16576739 0.16462758 0.16391134 0.16242701 0.1609601 0.15961679 0.15832169 0.15760706 0.15775365 0.15816251 0.15934267 0.16116369 0.1628226 0.16461935 0.16609623 0.16839611 0.16982881 0.17250774 0.17433254 0.17534167 0.1779488 0.17884741 0.18075056 0.18217757 0.18331236 0.18416528 0.18531148 0.18507825 0.18535113 0.18533191 0.18495743 0.18407233 0.18414386 0.18293759 0.18224016 0.18113122 0.18001981 0.17818716 0.17573533 0.17342376 0.17103328 0.16889575 0.16657352 0.16375948 0.1623559 0.16067159 0.1579443 0.15489029 0.15176617 0.14910166 0.14660069 0.1446637 0.14191379 0.13906646 0.13651526 0.13422974 0.13295226 0.13069846 0.12993923 0.12813017 0.12668478 0.12641148 0.12483664 0.12442318 0.12415123 0.12406272 0.12498521 0.12551632 0.12671964 0.12902707 0.12968269 0.1315998 0.1345602 0.1370018 0.1385888 0.1413966 0.1438381 0.1455167 0.146707 0.1499725 0.1513764 0.1533297 0.1561985 0.15931737 0.16139917 0.16258524 0.16393636 0.16690817 0.16886746 0.17140263 0.17336044 0.17771245 0.17969928 0.18359173 0.18659334 0.18960254 0.19248412 0.19525129 0.19898749 0.20261328 0.2064137 0.21085696 0.21386891 0.21699942 0.2202577 0.22398187 0.22739115 0.23077649 0.23362107 0.2361814 0.23980015 0.24282773 0.24638031 0.24867956 0.25221657 0.2554083 0.25706001 0.25923282 0.2635411 0.26803199 0.2713755 0.27337241 0.27704197 0.28006487 0.28415528 0.28700395 0.28995317 0.29177278 0.29524716 0.29740977 0.30033614 0.30537068 0.30856767 0.31061455 0.31493605 0.31861077 0.32210884 0.32533732 0.32969775 0.33179701 0.33502831 0.33722386 0.34149311 0.34421516 0.34506141 0.34681815 0.34919257 0.35246131 0.35756043 0.36426624 0.36684041 0.36948725 0.37395807 0.3776174 0.38099055 0.38654215 0.3894685 0.39522714 0.39643009 0.39954305 0.40336137 0.40966339 0.41172622 0.41447903 0.41585641 0.41749444 0.42175586 0.42656484 0.42965354
0.38688393 0.38655096 0.38840039 0.38933831 0.3901085 0.39149442 0.39286264 0.39461449 0.39658966 0.39968372 0.40256866 0.40515298 0.4085751 0.41180482 0.41522381 0.41883031 0.42259009 0.42680033 0.43174661 0.43604599 0.44100427 0.44380578 0.44802689 0.45197695 0.45572364 0.45867509 0.46272031 0.46886678 0.47425724 0.48179672 0.48622888 0.49340811 0.50094947 0.50685998 0.50975889 0.51398241 0.51951116 0.52195067 0.52653582 0.5344014 0.53921221 0.5424782 0.54448041 0.54917635 0.5543928 0.55251333 0.55416278 0.55714178 0.55804439 0.55859254 0.56017503 0.56040376 0.55872833 0.55897566 0.55811973 0.55915565 0.55958367 0.5576131 0.55586127 0.55213661 0.55254477 0.54653393 0.5399544 0.53636579 0.52987549 0.52636419 0.51919957 0.51355437 0.50904653 0.5013387 0.49323606 0.4825322 0.47250362 0.46363395 0.45673964 0.44507307 0.43358538 0.4216989 0.41050261 0.3982703 0.3863921 0.37240354 0.36018807 0.34870177 0.33645588 0.32506804 0.3141786 0.30207835 0.29078681 0.27860536 0.26814452 0.25750734 0.24751486 0.23783124 0.22919699 0.22016572 0.21142698 0.20344639 0.19494823 0.18817352 0.18194889 0.17631693 0.17139149 0.16752668 0.1645999 0.16216031 0.16032242 0.15909162 0.15788093 0.15705064 0.15614248 0.15501362 0.15405228 0.15296854 0.15145873 0.15056206 0.15007151 0.14949085 0.15052176 0.15222024 0.15409328 0.15572011 0.15786546 0.16059891 0.16260417 0.16452279 0.1663849 0.16833906 0.17062683 0.17315104 0.1739258 0.1759855 0.17774222 0.17951697 0.18069599 0.18160011 0.18166175 0.18220226 0.18237334 0.18219104 0.18237026 0.18188875 0.1812521 0.18090565 0.17998658 0.17828872 0.17584688 0.1740253 0.17155589 0.16988637 0.16833242 0.16620138 0.16409103 0.16197698 0.15853657 0.15699902 0.15424537 0.15130334 0.14878889 0.14594593 0.14374768 0.14153754 0.13940023 0.1361706 0.13375837 0.13263957 0.13034491 0.1295195 0.12771696 0.12610155 0.1250089 0.12402517 0.12384273 0.12440573 0.12438109 0.12442864 0.12487523 0.12607974 0.12746862 0.12882765 0.13102 0.1340719 0.1355979 0.1382836 0.1409998 0.1433193 0.1449368 0.1472258 0.1493316 0.1507355 0.1520173 0.1558323 0.15656495 0.15956365 0.16191172 0.16344909 0.16632214 0.16818481 0.17101778 0.17270578 0.17474814 0.17953397 0.18207626 0.1851345 0.18816243 0.19118421 0.19408016 0.19797891 0.20151816 0.20485771 0.20881929 0.2127293 0.21534549 0.21942296 0.22288766 0.22620418 0.22904465 0.23285541 0.23599653 0.23883002 0.24191978 0.24505927 0.24862653 0.25144476 0.25418992 0.25679396 0.26039157 0.26393286 0.2667585 0.27061751 0.2728909 0.27641838 0.27996452 0.28258041 0.28587261 0.28796182 0.29105851 0.29385917 0.29575313 0.29940509 0.30475268 0.30740121 0.31038481 0.31325928 0.31766491 0.32037863 0.3240714 0.32627477 0.32839565 0.33237279 0.33687779 0.33920274 0.34128531 0.34352301 0.34354316 0.34720089 0.3519217 0.35669505 0.36050254 0.36440544 0.36812163 0.37312944 0.37460253 0.37910634 0.38488181 0.38819752 0.39139439 0.39409443 0.39906269 0.40362502 0.40822199 0.41123087 0.41480384 0.41625235 0.42037995 0.42476142 0.42809817 0.4290693
0.38673191 0.38632513 0.38693594 0.38831685 0.38950791 0.39037007 0.39182265 0.39382362 0.39570708 0.39889152 0.40150673 0.40521756 0.40821364 0.41207336 0.41485291 0.41850117 0.42328068 0.42719738 0.4313058 0.43636328 0.4397534 0.44358577 0.44782531 0.4519401 0.45551918 0.45956374 0.46214515 0.46831066 0.47560531 0.48281828 0.48949486 0.49682121 0.5022075 0.50841975 0.51373274 0.51871861 0.52170718 0.52409177 0.53009739 0.53533352 0.53978212 0.54641293 0.55079796 0.55363686 0.55383512 0.55699517 0.55862027 0.5599293 0.56310997 0.56523471 0.56529943 0.56233313 0.56188031 0.56027977 0.56013752 0.55962413 0.55836675 0.55866917 0.5578133 0.55527584 0.55170988 0.54624807 0.54144127 0.53642578 0.53061917 0.52694287 0.52099785 0.51278791 0.50781391 0.50166211 0.49394712 0.48368223 0.47169365 0.46338131 0.45546627 0.44442717 0.43107934 0.41844573 0.40793433 0.39523786 0.38252217 0.36838454 0.35555693 0.34399881 0.33078084 0.32003229 0.30820218 0.29611906 0.28458616 0.27218098 0.26198178 0.25115581 0.24085883 0.23087956 0.22202584 0.21250372 0.20348542 0.19521859 0.18682796 0.17975282 0.17306565 0.16756452 0.16246515 0.15868975 0.15580846 0.15341608 0.15162424 0.15053221 0.14919749 0.14881546 0.14776426 0.14733455 0.14678094 0.14560879 0.14384753 0.14334366 0.14279051 0.14275945 0.14401106 0.14510552 0.14704914 0.14948658 0.15209161 0.15460128 0.15725334 0.1587123 0.16108532 0.16343059 0.16585707 0.16792742 0.16969467 0.17202251 0.17422988 0.17549453 0.17708365 0.17824588 0.17902463 0.17961169 0.17974783 0.1804283 0.18013423 0.18016831 0.18014132 0.17955042 0.17873636 0.17690062 0.1741277 0.17200488 0.16988864 0.16860745 0.16748572 0.16633432 0.1641848 0.16139324 0.15877726 0.15651257 0.15332765 0.15103434 0.14798466 0.14545444 0.14314508 0.14091151 0.13813677 0.13629934 0.13362032 0.13226435 0.12984969 0.12906611 0.12716752 0.12558118 0.12442859 0.12338299 0.12329375 0.12315819 0.12356482 0.12387903 0.12429315 0.12559204 0.1268263 0.12815619 0.1304706 0.1336752 0.1352011 0.1379174 0.1404505 0.1426479 0.1441738 0.1458524 0.1486297 0.1501251 0.1514069 0.1554966 0.15616669 0.1582804 0.16099582 0.16271549 0.16568328 0.16751167 0.17074415 0.1722176 0.1741776 0.17815587 0.18092069 0.18344839 0.18655115 0.18950064 0.19244138 0.19636204 0.19923171 0.20383067 0.20761931 0.21120343 0.21426629 0.21784526 0.22171364 0.22533358 0.22819462 0.23162819 0.23590668 0.23853946 0.24215953 0.24507588 0.24738615 0.25110531 0.25404832 0.25701861 0.26092128 0.26414742 0.26641425 0.26981885 0.27318479 0.27504001 0.27842989 0.28087828 0.28472984 0.28751399 0.28864111 0.29140509 0.29445274 0.29817066 0.30235859 0.30692119 0.30910463 0.31303046 0.31560203 0.31955679 0.3218272 0.32524425 0.3277172 0.33050096 0.33541699 0.33719298 0.33937169 0.34190185 0.34225965 0.34532224 0.34967994 0.35296044 0.3573045 0.36317311 0.36922546 0.37066303 0.37419007 0.3763648 0.3812257 0.38680369 0.38906406 0.39271348 0.39802106 0.40427425 0.40937181 0.41269099 0.41509276 0.41703409 0.4206101 0.42536004 0.42896398 0.43190995
0.38577134 0.3855167 0.38608559 0.38640194 0.38737556 0.38958621 0.39079224 0.39263018 0.39460522 0.39739929 0.40127302 0.40460108 0.40791857 0.41131923 0.41501607 0.41920536 0.42310723 0.42727691 0.43327395 0.43697262 0.44068638 0.44474473 0.44782602 0.45205932 0.45635895 0.45981778 0.46148737 0.46850059 0.47674477 0.48356848 0.49202045 0.49742722 0.50307707 0.51083377 0.51794001 0.51976235 0.52357233 0.5270499 0.53029257 0.53719461 0.54340944 0.54813443 0.55375513 0.55581578 0.55520265 0.5568914 0.55818848 0.56018343 0.56342909 0.56647048 0.57264364 0.56457742 0.5617668 0.56021453 0.55908315 0.55969897 0.55891451 0.55962754 0.55918531 0.55861993 0.55474986 0.54941543 0.54045596 0.53723338 0.53290779 0.52633765 0.51912538 0.51397551 0.50561356 0.50041975 0.49258254 0.48105117 0.4711779 0.46279719 0.45557786 0.44263274 0.42928117 0.41710085 0.40451292 0.39155802 0.37788839 0.36550137 0.35205393 0.34031013 0.32691397 0.31562724 0.30332331 0.2905037 0.2786783 0.26719162 0.25538942 0.24481065 0.23378404 0.22477913 0.21525715 0.2057418 0.19618407 0.18694757 0.17899314 0.17156606 0.16533073 0.15933292 0.15477652 0.15075586 0.1477033 0.1448793 0.14367843 0.14307263 0.14200728 0.1415341 0.14119696 0.1405821 0.13975113 0.13861663 0.1372655 0.13659456 0.13544103 0.13610859 0.13751265 0.13914532 0.141158 0.14362615 0.14617474 0.14905027 0.15215096 0.15483412 0.15672629 0.15888959 0.16171497 0.16358606 0.16607082 0.16851479 0.17008235 0.17211056 0.17371878 0.17477439 0.1755408 0.17638764 0.17743094 0.1777258 0.1780027 0.17850202 0.17797049 0.17747194 0.17662158 0.17539836 0.17356809 0.17126988 0.16951806 0.16806733 0.16663556 0.16584094 0.16365825 0.16121805 0.15828366 0.15595489 0.15279353 0.15065929 0.14795445 0.14519228 0.14277019 0.14019093 0.13747035 0.13512125 0.13370829 0.13157726 0.13023404 0.12860369 0.12658213 0.125039 0.12372147 0.1227453 0.12292917 0.12274925 0.12275836 0.12312044 0.12371489 0.12501134 0.12615401 0.12748081 0.1299213 0.1332479 0.1348044 0.137429 0.1398096 0.1418849 0.1446621 0.1463712 0.1478972 0.1493927 0.150766 0.1550388 0.15567868 0.15781852 0.1604747 0.16174176 0.16377126 0.16582163 0.16878465 0.17162684 0.17407913 0.17681683 0.17944503 0.18218222 0.18481353 0.18781474 0.19069762 0.1938013 0.19661433 0.20162306 0.20604625 0.20918029 0.21321255 0.21649079 0.21984969 0.2237252 0.22731574 0.23071417 0.23417745 0.23797008 0.24169095 0.24407512 0.24706654 0.25083152 0.25331123 0.25630575 0.25983649 0.26320353 0.26561426 0.26781488 0.27070058 0.27347369 0.27665452 0.2795343 0.28292191 0.28637308 0.2885643 0.29043984 0.2937642 0.29777023 0.30186447 0.30643306 0.30911542 0.31195284 0.31604459 0.31968186 0.32175096 0.32485848 0.32731252 0.32995036 0.3310082 0.3337853 0.33726334 0.33930428 0.34116972 0.34352587 0.34971837 0.35323079 0.3559379 0.36139269 0.36625356 0.36831203 0.37229472 0.37586743 0.38192201 0.38563699 0.3902673 0.39404881 0.39904031 0.4046574 0.40760003 0.41066213 0.41434625 0.41768982 0.42106049 0.42396917 0.42896007 0.43190488
0.38459201 0.38449917 0.38418862 0.38506313 0.38700577 0.38868553 0.39109352 0.39258628 0.39448952 0.39695512 0.40068072 0.4040197 0.40782018 0.41104615 0.41472731 0.41854772 0.42293248 0.42750084 0.43190356 0.43659401 0.44082545 0.44430309 0.44748941 0.45243575 0.45592697 0.46021002 0.4650585 0.46993919 0.47825277 0.48530029 0.49162979 0.49807409 0.50444021 0.51281989 0.51696621 0.5216965 0.52494403 0.52863117 0.53201357 0.53896095 0.5423664 0.54824511 0.5537578 0.55423096 0.55672698 0.55900147 0.56101884 0.56145367 0.56340388 0.56610233 0.56805551 0.5680246 0.56364968 0.56290143 0.55894141 0.55968469 0.56109146 0.55904236 0.55751857 0.55817091 0.55490544 0.54903424 0.54394873 0.53811578 0.53408884 0.52574148 0.51834745 0.51287749 0.50492902 0.49799828 0.48916105 0.48041689 0.47179978 0.46336908 0.45476764 0.44236404 0.43033802 0.41618181 0.40402145 0.39099562 0.37690068 0.36417894 0.35160747 0.33760472 0.32375085 0.31044268 0.29871128 0.28627227 0.2742948 0.2620538 0.25029033 0.23955123 0.22792759 0.21812945 0.20823485 0.19840537 0.18912101 0.18006851 0.17206564 0.16433054 0.15799088 0.15218665 0.14735047 0.14304669 0.13978918 0.13737991 0.13622922 0.13595262 0.13529741 0.13477155 0.13444007 0.13400511 0.13322949 0.13200911 0.13098992 0.13064955 0.13022691 0.1304241 0.1315237 0.13354071 0.13563127 0.13822846 0.14101489 0.14404077 0.14718073 0.15046606 0.15276135 0.15568796 0.15713507 0.16018829 0.1627996 0.1651334 0.1668254 0.16937465 0.17050251 0.17178199 0.17255685 0.17405061 0.17509193 0.17586271 0.17674043 0.17699421 0.17674674 0.17564574 0.17505043 0.1736935 0.17206619 0.17038006 0.16897331 0.1670917 0.16578691 0.1644728 0.16291405 0.16048458 0.15774343 0.15535473 0.15217541 0.15006096 0.14733107 0.14471164 0.1421881 0.13968849 0.13670987 0.13454037 0.13212594 0.13090643 0.13040791 0.12791656 0.12596643 0.12440521 0.12307948 0.12320278 0.12250381 0.12228416 0.12217442 0.12244883 0.12301571 0.12439755 0.12550989 0.12683745 0.1294024 0.1327901 0.1343466 0.1368492 0.1390771 0.1410609 0.1430446 0.1453641 0.1471342 0.1486297 0.1500336 0.1545199 0.15515452 0.15744901 0.16001512 0.16119242 0.16286356 0.16403154 0.16619973 0.1675668 0.17269951 0.175276 0.17790101 0.18066743 0.18346093 0.18591733 0.18913098 0.19232263 0.19548484 0.19892156 0.20375714 0.20822216 0.2112208 0.21551661 0.21838354 0.221989 0.22635579 0.23031193 0.23401381 0.2369701 0.23971982 0.24392466 0.24761135 0.25014161 0.25243038 0.25602823 0.25959807 0.26066776 0.26313921 0.2647876 0.26898259 0.27084768 0.2747398 0.27833352 0.28256908 0.28507312 0.28753564 0.28986188 0.29392808 0.29708426 0.30144393 0.30637391 0.30937797 0.31268718 0.31541229 0.31901805 0.32358716 0.32518617 0.32630058 0.32722395 0.32683101 0.33052798 0.33340823 0.33687208 0.33959694 0.34211885 0.34848298 0.3519644 0.35466684 0.35821086 0.36389161 0.36696097 0.36809376 0.376135 0.38161142 0.38517589 0.38956617 0.39311023 0.39919783 0.40204317 0.40752898 0.41219587 0.41355989 0.41659138 0.42085785 0.4242131 0.42830586 0.4323595
