0.15710838 0.15629383 0.15544463 0.1562108 0.15563004 0.15598579 0.15642003 0.15649622 0.15775115 0.15812996 0.15953874 0.16094226 0.16139354 0.1624861 0.16349404 0.16528666 0.16574701 0.16741125 0.16741015 0.16773145 0.16901033 0.16923116 0.17062087 0.17127166 0.1746468 0.17655034 0.17835006 0.17869201 0.18130245 0.18540579 0.18614568 0.18832821 0.18943836 0.19170943 0.19400344 0.19499061 0.19688819 0.19853721 0.19791672 0.19505318 0.19804622 0.1991758 0.20020071 0.19960571 0.20033721 0.20034665 0.20168451 0.20474563 0.20814487 0.2085498 0.20994472 0.21276302 0.21818227 0.22236353 0.22634855 0.22721964 0.23363739 0.24069136 0.24312944 0.24607395 0.24651212 0.25146773 0.25022927 0.24891816 0.25101821 0.2541553 0.2619289 0.26384247 0.2705881 0.27564509 0.27684342 0.27742415 0.28022946 0.27582691 0.27600309 0.27518843 0.2780455 0.27620345 0.27606868 0.2773607 0.2769639 0.2769944 0.2741867 0.2722029 0.2774217 0.2784289 0.2769639 0.2784289 0.2829457 0.2852042 0.2867912 0.28560046 0.28390338 0.28552738 0.28540485 0.28592346 0.28902111 0.28971067 0.29620422 0.30025359 0.30192 0.30445449 0.30870153 0.30954971 0.31070554 0.31171033 0.31225796 0.31265838 0.3085859 0.30427554 0.30422245 0.30109906 0.29968212 0.3017249 0.29864158 0.29702195 0.2936155 0.28949091 0.28178707 0.27545489 0.27559272 0.27443392 0.27030491 0.26816351 0.26385152 0.25816119 0.25428417 0.2484188 0.24601717 0.23952755 0.23537626 0.2327595 0.2300685 0.22684623 0.22322495 0.21891938 0.21355211 0.20812605 0.20318543 0.19813686 0.19280757 0.18770997 0.18337943 0.1794328 0.17630657 0.17409108 0.17269031 0.17047273 0.16902935 0.16834128 0.16642279 0.16471994 0.16261847 0.16052761 0.15859558 0.15660613 0.15435002 0.15300368 0.15134537 0.14990527 0.14774984 0.14646163 0.14526779 0.14349726 0.14204305 0.14043833 0.13879582 0.13699111 0.13547947 0.13385232 0.13248387 0.13116635 0.13004313 0.12921806 0.12855156 0.12817762 0.12806295 0.12793086 0.12851745 0.12933736 0.13010286 0.1332784 0.1342855 0.1361777 0.1372154 0.1388329 0.139779 0.1406641 0.1415492 0.1432583 0.1456693 0.146829 0.1479888 0.14849267 0.14912973 0.15071069 0.15151483 0.15458327 0.15615824 0.15740451 0.16168206 0.16337273 0.16518533 0.16749888 0.16978303 0.17310879 0.17623243 0.17906537 0.18193566 0.18485673 0.18784061 0.19070508 0.19398897 0.1969138 0.19984823 0.20317019 0.20674719 0.21022314 0.21361525 0.21746205 0.22117684 0.22480368 0.22822464 0.23152907 0.23465958 0.23803424 0.24190484 0.2474021 0.25269237 0.25687621 0.26056668 0.26459374 0.26856491 0.27139405 0.27325684 0.27485302 0.27679954 0.27880881 0.28174054 0.28280174 0.28408784 0.28575226 0.28699271 0.28885621 0.29165581 0.29468759 0.29734283 0.30093732 0.30343853 0.30670476 0.3101256 0.3143017 0.31879768 0.32341713 0.32736019 0.33172944 0.33509766 0.33836165 0.34115539 0.34345054 0.34649115 0.34929108 0.35184901 0.35465637 0.35820512 0.36097593 0.36368553 0.36732503 0.37209395 0.37705046 0.38012547 0.38346577 0.38788702 0.39007618 0.39235382 0.39443484 0.39750547 0.4002671 0.40359057 0.40557833 0.40600012
0.15712388 0.15653829 0.15558563 0.15641388 0.15620631 0.15656919 0.157296 0.15780803 0.15870565 0.15912698 0.16024492 0.16168256 0.16336957 0.163457 0.16466313 0.16647281 0.16676381 0.16772379 0.16918084 0.16863954 0.17021597 0.17175088 0.1729625 0.17336766 0.17588983 0.17853649 0.1788457 0.18061698 0.1820065 0.18531048 0.18652661 0.18840729 0.18941866 0.19191569 0.19411278 0.19537127 0.19829215 0.1990545 0.1982447 0.19796982 0.19947728 0.1990123 0.20011298 0.20093496 0.20018802 0.20193712 0.20228272 0.20231196 0.20423844 0.20593416 0.20969371 0.21169947 0.21728465 0.21966784 0.22426518 0.22827793 0.2315481 0.23555816 0.24163049 0.24385523 0.24639155 0.24911827 0.25115499 0.25178129 0.2533974 0.25683329 0.2622179 0.26693968 0.26994934 0.27406811 0.27917147 0.28017051 0.28141817 0.2788343 0.27719312 0.27765931 0.27599751 0.27626248 0.2765866 0.2787035 0.2768113 0.2773912 0.2772691 0.2743087 0.2776048 0.2796496 0.2773607 0.2784289 0.2806568 0.2844717 0.2859672 0.28504967 0.28329113 0.28586257 0.28613757 0.28811582 0.29038687 0.29156276 0.29639731 0.30016624 0.30599683 0.31008876 0.31038192 0.31018918 0.31171274 0.31365607 0.313721 0.31407207 0.31134115 0.30835289 0.3083033 0.30368441 0.30342427 0.30300304 0.29819841 0.29543242 0.29250835 0.28694838 0.28127388 0.2761425 0.27454042 0.27452928 0.27180329 0.26793497 0.26395414 0.26068415 0.25517751 0.25252081 0.24803372 0.24308439 0.23716199 0.23281513 0.22980249 0.22448536 0.22080884 0.21575021 0.21082593 0.20682704 0.20163832 0.19614204 0.19063033 0.18698586 0.18282486 0.17879697 0.17589263 0.17376537 0.1723767 0.17115974 0.16941328 0.16794554 0.16629451 0.16426886 0.16242925 0.16021137 0.15817134 0.15646152 0.15458317 0.15234888 0.15070443 0.14934553 0.14784593 0.14677888 0.14497253 0.14369178 0.14186492 0.14012542 0.13833326 0.1370253 0.13554343 0.13405907 0.13258977 0.1313077 0.13040078 0.12922736 0.12860335 0.12825466 0.12817391 0.12817328 0.12921917 0.12961629 0.13138452 0.1335226 0.1345602 0.1364524 0.1375816 0.1390466 0.1401148 0.1410303 0.1418238 0.1435024 0.1458524 0.1470427 0.1481719 0.14874103 0.14937877 0.15022429 0.15126858 0.15451203 0.15607286 0.15730489 0.16145281 0.16308176 0.16496822 0.16738588 0.16977896 0.17310639 0.17618041 0.17887172 0.18161122 0.1844935 0.1872548 0.1901306 0.19361909 0.19652531 0.19969274 0.20315326 0.20692455 0.21038343 0.2136335 0.21716532 0.22072931 0.22420381 0.22757557 0.23049638 0.23364046 0.23704205 0.24118942 0.2474809 0.25279567 0.25697681 0.26040336 0.26408441 0.26741552 0.27046257 0.27247089 0.27409147 0.27618013 0.27832761 0.28068125 0.2819517 0.28364274 0.28606661 0.28858906 0.29106628 0.29337536 0.29577229 0.29771907 0.3000796 0.30285316 0.30605939 0.30930653 0.31411225 0.31937383 0.32413405 0.32814983 0.3324288 0.33626252 0.33971519 0.34303758 0.34573634 0.3497742 0.35273142 0.35487135 0.35723117 0.36008155 0.36278109 0.36573657 0.36959322 0.37461576 0.37951515 0.38219178 0.38539732 0.38942669 0.39092021 0.39253537 0.39514378 0.39810033 0.40016977 0.40331291 0.40426639 0.40429033
0.15664203 0.15662595 0.15675963 0.15628871 0.15682569 0.15711414 0.15793922 0.15835553 0.15928319 0.15984491 0.16074039 0.16222718 0.16459943 0.16585754 0.16615492 0.1678347 0.16839097 0.17002381 0.16930284 0.17102637 0.1719835 0.1719593 0.17432157 0.17547651 0.17769547 0.17881973 0.17945908 0.18099231 0.18290188 0.18435394 0.1859404 0.18748321 0.18964241 0.19120826 0.19478474 0.19537644 0.19800952 0.20047624 0.20092527 0.20149828 0.20066877 0.20123873 0.20169141 0.200791 0.19999223 0.20063449 0.20122485 0.19873095 0.20311865 0.20469124 0.20747592 0.21253759 0.21766349 0.2189376 0.22338161 0.22500472 0.23028589 0.23489617 0.24122129 0.24151601 0.24800761 0.25194026 0.25221042 0.25168812 0.25687249 0.26021823 0.26546545 0.271453 0.27476891 0.27509421 0.28053775 0.28256423 0.28408367 0.28372479 0.28233771 0.279429 0.2783488 0.27436642 0.27527166 0.2787646 0.2759873 0.2770555 0.2764756 0.2765366 0.2798328 0.279436 0.2808094 0.2796191 0.2805347 0.2834646 0.2855399 0.28385738 0.28255686 0.28476264 0.2845216 0.28835868 0.2904527 0.29543243 0.29916992 0.30312095 0.30886289 0.31236448 0.31237188 0.31558883 0.31470267 0.3129566 0.31397508 0.31263332 0.31150459 0.31271605 0.30913505 0.30837725 0.30481913 0.30230771 0.30074852 0.29632226 0.29152101 0.28698104 0.28441125 0.27887932 0.27473132 0.2744203 0.27232433 0.26907476 0.26348389 0.26041614 0.25728745 0.25484456 0.24990521 0.24457603 0.23982376 0.2333767 0.22816909 0.22364721 0.21984499 0.21326475 0.2088789 0.20343319 0.19937178 0.19340246 0.18901542 0.18502945 0.18129987 0.17629739 0.17509772 0.17304573 0.17236774 0.17070328 0.16992459 0.16827715 0.16658413 0.16461973 0.16162686 0.15956319 0.15786182 0.1558081 0.15446361 0.15257892 0.15102443 0.14914573 0.14808975 0.14598461 0.1441252 0.14291909 0.14140816 0.13984926 0.13878452 0.13737136 0.13560781 0.13408768 0.13269761 0.13143522 0.13042939 0.12933991 0.12853373 0.12798444 0.128269 0.12948579 0.12940252 0.13111054 0.13166007 0.1338277 0.1349265 0.1367271 0.1379479 0.1387414 0.1403589 0.141305 0.1422816 0.1448453 0.146005 0.1472258 0.1483855 0.14892927 0.14916866 0.14998103 0.15142021 0.15441611 0.15597052 0.15909094 0.16114433 0.16280315 0.16505244 0.16725342 0.16989847 0.173002 0.17610654 0.17872825 0.18133281 0.1840035 0.18680824 0.19017631 0.19315675 0.19616182 0.19959788 0.20323241 0.20675602 0.2103294 0.21336043 0.2166559 0.22013102 0.22328763 0.2266058 0.22936218 0.23267016 0.23658236 0.24080015 0.24674128 0.25270367 0.25700542 0.2603313 0.26327022 0.2654152 0.26778019 0.27011107 0.27239929 0.27477639 0.2770517 0.27868594 0.28016305 0.2824359 0.28584463 0.28935908 0.29249739 0.29468468 0.29693051 0.29764612 0.30039072 0.30355548 0.30762967 0.31138302 0.31582529 0.32048994 0.3247358 0.32883693 0.33265624 0.33649617 0.34000634 0.34392039 0.34709053 0.35129484 0.3544521 0.35650091 0.35837251 0.36084658 0.36411343 0.3675235 0.37147643 0.37663602 0.38160385 0.38528242 0.38815833 0.39001991 0.39090088 0.39177238 0.39417153 0.39754984 0.40052961 0.40355576 0.40399088 0.4044742
0.15649082 0.15647805 0.15680549 0.15704398 0.15751019 0.15765933 0.15834286 0.15911967 0.15993953 0.16023388 0.16163723 0.16305409 0.16508758 0.16607768 0.16765896 0.16945961 0.16961323 0.17077606 0.17173713 0.17259778 0.17379838 0.1746628 0.17531765 0.17651641 0.17830366 0.17979822 0.18062014 0.18191158 0.18376285 0.1846172 0.18614214 0.18879191 0.19025133 0.19356732 0.19616779 0.19901413 0.19994652 0.20131888 0.20299694 0.20301831 0.20382147 0.20370487 0.20183782 0.2018874 0.20021588 0.20025381 0.19802255 0.19670113 0.1996544 0.20543891 0.2083878 0.21167098 0.21678696 0.21914968 0.22312094 0.22749318 0.2314693 0.23558474 0.24087653 0.24516406 0.24634479 0.24945554 0.25060899 0.25421058 0.2574148 0.26092882 0.26671532 0.27090937 0.27565012 0.27495827 0.27905388 0.28062301 0.28460911 0.28348724 0.28240365 0.28070996 0.27850085 0.27696226 0.27743938 0.2758347 0.2756821 0.2786425 0.2796802 0.2796496 0.2799243 0.2813282 0.2837698 0.2854789 0.2849295 0.286425 0.2830373 0.28336786 0.28371691 0.2853425 0.28546747 0.28830117 0.29167394 0.29366599 0.29970967 0.30626587 0.30853071 0.31061209 0.31199952 0.31571762 0.31589303 0.3167658 0.31737763 0.3153866 0.31527121 0.31333129 0.31341237 0.31290209 0.30920743 0.30463075 0.30250946 0.29690605 0.29121744 0.28908892 0.28463161 0.28112058 0.27650835 0.27415431 0.26908948 0.26671887 0.26467156 0.26034178 0.25869321 0.25521076 0.24968055 0.24510515 0.23967198 0.23417871 0.22878506 0.2234691 0.21756322 0.21111809 0.20666646 0.20224564 0.19781701 0.19327093 0.18893311 0.18355874 0.17905495 0.17460008 0.17334711 0.1719571 0.17128987 0.17003763 0.16909622 0.16765591 0.16557254 0.16393915 0.16199995 0.15944136 0.15761023 0.1563001 0.15488313 0.15284324 0.15039988 0.14907094 0.14785712 0.14587252 0.14466198 0.14308429 0.14145634 0.14008017 0.13878396 0.13702995 0.13553155 0.13422071 0.13287775 0.13157191 0.13056191 0.12951128 0.1287707 0.12822664 0.12844177 0.12945236 0.12961767 0.13102142 0.13190167 0.1341024 0.1352622 0.1360251 0.1383751 0.1392297 0.1410609 0.142007 0.1438076 0.1446927 0.1456388 0.1466154 0.1476836 0.14850624 0.14954143 0.15022853 0.15083761 0.15431113 0.15585391 0.15899152 0.16061693 0.16240016 0.16509636 0.16729023 0.16968001 0.17225193 0.17589597 0.17838899 0.1810768 0.18388754 0.18657324 0.18996456 0.19290519 0.19602946 0.19954016 0.2033375 0.20698449 0.21002655 0.21304506 0.21609911 0.21922131 0.22229756 0.22542222 0.22818866 0.23190007 0.23638342 0.24122111 0.24721751 0.25251689 0.25711414 0.26031269 0.26276167 0.26456328 0.26646495 0.2685363 0.27112282 0.27365274 0.27622492 0.27777034 0.27966403 0.28194877 0.28576815 0.28995885 0.29366032 0.29558155 0.29788694 0.29848592 0.30087084 0.30484498 0.30929853 0.31410518 0.31835644 0.32208996 0.3255591 0.32892414 0.33285845 0.33713809 0.34116604 0.34565633 0.34920811 0.35274949 0.35568252 0.3579411 0.36008948 0.36206118 0.36468787 0.36822998 0.37259675 0.37838047 0.3834563 0.38707498 0.38932409 0.39000609 0.3903357 0.39105801 0.39376865 0.39757291 0.40091967 0.40391693 0.40447874 0.4061854
0.1569966 0.15706076 0.15718855 0.15781175 0.15788186 0.15814314 0.15879816 0.15954706 0.16082667 0.16244936 0.16220938 0.16407412 0.16540823 0.16697744 0.16842566 0.17043316 0.17071722 0.1714328 0.17224808 0.17402351 0.17453985 0.17616946 0.17679328 0.17760062 0.17920599 0.18180821 0.18249016 0.18409193 0.18501365 0.18593169 0.18813618 0.18929678 0.19303221 0.19375859 0.1981994 0.20123305 0.20111148 0.20297171 0.203995 0.20497038 0.20607156 0.20606532 0.20361555 0.20422648 0.20025416 0.19749934 0.19782112 0.19278002 0.19877249 0.20341053 0.2070565 0.21075598 0.2153422 0.22094536 0.22537791 0.2286533 0.23427888 0.23652329 0.24285922 0.24573417 0.24693594 0.24934132 0.251822 0.2559098 0.26072358 0.26451372 0.26961373 0.27647609 0.27780957 0.27709115 0.2803123 0.28195635 0.28171693 0.28498028 0.28277139 0.2838832 0.27978274 0.27714413 0.27673548 0.272325 0.2771165 0.2795581 0.2816944 0.2816639 0.2804736 0.2828542 0.287371 0.2899347 0.2891107 0.2891717 0.2851737 0.28345773 0.28698586 0.2863494 0.28851787 0.28517062 0.29058471 0.29315808 0.30007761 0.30720663 0.30821424 0.31011241 0.3135591 0.31626931 0.3160726 0.31828425 0.31694418 0.31932231 0.3152382 0.31488476 0.31642459 0.31884129 0.31244599 0.30740324 0.30371563 0.29885867 0.29191781 0.28760824 0.28393522 0.27993996 0.27673726 0.27197063 0.27003629 0.26522596 0.26274001 0.25989793 0.25886766 0.25823177 0.25185802 0.2456359 0.23958125 0.23534923 0.22958882 0.22228723 0.21702662 0.20873509 0.20690072 0.20186958 0.19681036 0.19119129 0.18751723 0.18333614 0.17804844 0.17202383 0.1728765 0.1722837 0.17128653 0.1695025 0.16852314 0.16684184 0.16474286 0.16352592 0.16184003 0.15927475 0.15830059 0.15653244 0.15459128 0.15259053 0.15050382 0.1489692 0.14794994 0.14633454 0.14472931 0.14288563 0.14163723 0.1401133 0.13876698 0.13689948 0.13559882 0.13429751 0.13299596 0.13193553 0.13075094 0.12970412 0.12902788 0.12838597 0.12990218 0.12963524 0.13096078 0.1314487 0.13229853 0.1343161 0.1355368 0.1363609 0.1388024 0.1396875 0.1408472 0.1417933 0.143594 0.144357 0.1453031 0.1462492 0.1480498 0.14881587 0.14939445 0.15011046 0.1522671 0.15420479 0.15573866 0.15886883 0.16036717 0.16217434 0.16512414 0.16729884 0.16964782 0.1722167 0.1756011 0.17803025 0.18090181 0.18363536 0.18643788 0.19006081 0.19303678 0.19622226 0.19980094 0.20353775 0.20683599 0.20999518 0.21281313 0.21571815 0.21865702 0.22170632 0.22481903 0.22780935 0.23169867 0.23662787 0.24240557 0.24789405 0.25252144 0.25638502 0.25922029 0.26145821 0.2635227 0.26551291 0.26753117 0.26980192 0.27225058 0.27526312 0.27730897 0.27940539 0.28179495 0.28577333 0.29029007 0.29439543 0.29619224 0.29836305 0.29989267 0.30287881 0.30710598 0.31203806 0.31721463 0.32162081 0.32482171 0.32728987 0.33005449 0.33379459 0.3385176 0.34332848 0.34838295 0.35191621 0.35474441 0.35734919 0.35993685 0.36236832 0.36437471 0.36693211 0.37050759 0.37564366 0.38169577 0.38671987 0.38936071 0.39035722 0.39054698 0.39106082 0.39225057 0.39453271 0.39864874 0.40194399 0.40552822 0.40707019 0.40933166
0.15683248 0.1572692 0.1574631 0.15802292 0.15813506 0.15823914 0.15905774 0.15995027 0.16166201 0.16319176 0.16291959 0.16395643 0.16614006 0.16688289 0.1686923 0.17052675 0.17095642 0.17192639 0.17259081 0.17364541 0.1751327 0.177048 0.17732799 0.17840861 0.18059032 0.18137383 0.18359672 0.18499461 0.18683994 0.18723175 0.18876999 0.19104369 0.19465262 0.19659554 0.19927322 0.20094913 0.20230945 0.20354956 0.20489074 0.20423474 0.20621261 0.20522706 0.20464271 0.20384344 0.20157368 0.2000498 0.19960553 0.1977794 0.20128504 0.20667501 0.20916163 0.21443628 0.21858449 0.22102098 0.22586074 0.23144711 0.236407 0.23988619 0.24232819 0.24529804 0.24774548 0.25109492 0.25447161 0.26014653 0.26308486 0.26592789 0.27048446 0.27554757 0.2773563 0.27732331 0.27853272 0.28104587 0.28275077 0.28276985 0.28328956 0.28263341 0.27996527 0.27757073 0.27856766 0.276323 0.2795275 0.2795275 0.2821217 0.2818775 0.2827931 0.2832509 0.2872795 0.2879204 0.2890496 0.289721 0.2869438 0.2869394 0.28875671 0.2900446 0.28992119 0.29183554 0.29444069 0.29663758 0.29792148 0.30290677 0.30564881 0.30829999 0.31402167 0.3142559 0.31768545 0.31883355 0.31738399 0.31690011 0.31646725 0.31653773 0.31596356 0.31498653 0.31078352 0.30667464 0.30443822 0.30070952 0.29378151 0.2887501 0.28634605 0.2801843 0.27784328 0.27375383 0.26975232 0.26672757 0.26457552 0.26231714 0.25843485 0.25545929 0.25154554 0.24557577 0.24022697 0.23491195 0.22930186 0.22261028 0.21775001 0.21290147 0.20728247 0.20265696 0.1983972 0.19302207 0.18899885 0.184253 0.17942151 0.17558756 0.17476869 0.17303668 0.17218154 0.17149493 0.16900616 0.16730329 0.16498391 0.16354101 0.16220964 0.16046583 0.15885418 0.15642324 0.15460627 0.1531652 0.15134711 0.1491522 0.14775574 0.14689159 0.14503108 0.14343982 0.14174386 0.14090358 0.13923887 0.13759386 0.13598833 0.13479395 0.13330699 0.13195359 0.13099184 0.12995518 0.12951261 0.12920142 0.1299047 0.13021526 0.13083952 0.13126688 0.13211936 0.1344992 0.1357505 0.136605 0.1398706 0.1403894 0.1412745 0.1426479 0.1432583 0.1446927 0.1456693 0.1466154 0.1484466 0.14909534 0.14970528 0.15054083 0.152173 0.15407335 0.15563141 0.15718636 0.15997664 0.16189217 0.16514539 0.16733045 0.16967763 0.17218396 0.17463099 0.17783072 0.18075919 0.18367588 0.18723036 0.19020198 0.19328725 0.19658509 0.20018419 0.20410311 0.20710456 0.21005229 0.21258717 0.21562867 0.21835242 0.22127503 0.22428434 0.22750479 0.23169163 0.23716507 0.24359556 0.24840129 0.25205458 0.25480661 0.25759274 0.26014409 0.26264415 0.2649224 0.26728425 0.26942558 0.27187904 0.27471071 0.27698297 0.27937422 0.28208513 0.28576142 0.2895286 0.29256112 0.29466884 0.297772 0.30075821 0.30443991 0.30873275 0.3136524 0.31880042 0.32306891 0.32601382 0.32818993 0.33135002 0.33610094 0.34064537 0.34529281 0.3504021 0.354685 0.35787653 0.36036649 0.36242407 0.36468264 0.3666176 0.3695724 0.3737284 0.37834228 0.38357715 0.38748174 0.39007126 0.39033933 0.39073538 0.39125045 0.39351659 0.39579635 0.40008522 0.40391105 0.40750375 0.40944832 0.41168402
0.15712387 0.15749757 0.15784238 0.15873592 0.15912231 0.15948263 0.1599928 0.16073411 0.16192721 0.16382426 0.16465549 0.16454001 0.16687305 0.16804491 0.1694702 0.17032873 0.17104329 0.17203904 0.17227704 0.17329466 0.17540095 0.17708403 0.17783315 0.17850781 0.18100898 0.18287787 0.1840239 0.18612551 0.18875065 0.18988443 0.19175011 0.19394765 0.19544077 0.19834731 0.19891881 0.20214315 0.2025776 0.20352855 0.20462357 0.20526299 0.20519702 0.20564729 0.20540999 0.20628179 0.2041794 0.20108192 0.20071233 0.20181417 0.20614501 0.20985558 0.21364827 0.21478871 0.21752793 0.22295167 0.22700482 0.23307451 0.23629785 0.24119 0.24415053 0.24800593 0.24965373 0.25295903 0.25759904 0.26374335 0.26601261 0.26932827 0.27423222 0.27710338 0.27588152 0.28076653 0.27954882 0.27731385 0.28244319 0.28310809 0.28454086 0.2832436 0.28130845 0.28203133 0.28119426 0.2798938 0.2784594 0.2794055 0.2789477 0.2823048 0.2845633 0.2842276 0.2859367 0.2882866 0.28731 0.2901483 0.2897821 0.28608304 0.28845004 0.29202953 0.29388638 0.29539707 0.29726662 0.29628118 0.29937118 0.30100806 0.30563686 0.31050488 0.31208297 0.31310613 0.31785307 0.31788017 0.31724195 0.31701715 0.31925986 0.31834972 0.31505691 0.31393979 0.30964611 0.30829079 0.30399015 0.30206342 0.29791378 0.29169242 0.28800642 0.28158411 0.27964328 0.27394816 0.271797 0.26950263 0.26578223 0.26199488 0.25753475 0.25472105 0.25068145 0.2442768 0.23869053 0.23524917 0.22928246 0.22438582 0.21948151 0.2139679 0.20694705 0.20171501 0.19853965 0.19510288 0.19108548 0.18640827 0.18200092 0.17896269 0.17654835 0.17451571 0.17340011 0.17247472 0.1696723 0.16675353 0.16519502 0.16398334 0.16294629 0.16084702 0.15914153 0.15695868 0.15529861 0.1530624 0.15164549 0.14980969 0.14848543 0.1470902 0.14520922 0.14368402 0.14273668 0.14128482 0.14019328 0.1384907 0.1366187 0.13504192 0.13341255 0.13211512 0.13121137 0.13012264 0.12978425 0.12954579 0.12972079 0.13000271 0.13059414 0.13166281 0.13257709 0.1337057 0.1360557 0.1373375 0.1400537 0.1406946 0.1416407 0.1423732 0.143594 0.1442044 0.1458829 0.1468596 0.1487823 0.14888533 0.15004451 0.15090886 0.15201949 0.15391562 0.15543684 0.15692345 0.15976922 0.16195172 0.16517855 0.16737535 0.16972819 0.17233987 0.17481496 0.17778995 0.18043953 0.18433418 0.18726263 0.19028061 0.19350776 0.19696984 0.20069618 0.20433196 0.20724742 0.2097832 0.21234942 0.2152845 0.21827791 0.22124799 0.22431494 0.22786475 0.23238883 0.23796891 0.24403293 0.24789181 0.25091355 0.25327585 0.25629743 0.25910996 0.26173687 0.26430902 0.26684429 0.26938738 0.27214984 0.27490324 0.27728186 0.27975968 0.28282673 0.28618356 0.28977658 0.29174353 0.29394344 0.2977031 0.30199756 0.30643868 0.3106859 0.31511965 0.31944967 0.32340194 0.32599574 0.32858633 0.3325684 0.33791742 0.34253118 0.34718323 0.35228755 0.35759634 0.36032957 0.3622602 0.36362342 0.36612705 0.36872543 0.37259503 0.3771526 0.38129976 0.38596873 0.38925088 0.39133884 0.39085476 0.39159197 0.39257782 0.39470476 0.39653329 0.39971149 0.40408832 0.40819963 0.41085088 0.4139755
0.15735018 0.15762014 0.15800734 0.15915081 0.16006939 0.1606351 0.16014958 0.1616205 0.16262564 0.16413116 0.1650604 0.16693073 0.16699098 0.16854122 0.16995253 0.17080537 0.17189586 0.17264854 0.17342906 0.17393 0.17551813 0.17711361 0.17900593 0.1798484 0.1811051 0.18402903 0.18527857 0.18673467 0.18941428 0.1916202 0.19204864 0.1945643 0.19548199 0.19774081 0.19868097 0.20054132 0.20302387 0.2018848 0.20153383 0.20192747 0.20235652 0.20389485 0.20369564 0.20609497 0.20559263 0.20364291 0.2039713 0.20599404 0.20706374 0.21216707 0.21567346 0.21726379 0.2195811 0.22273645 0.22890331 0.23374616 0.23657177 0.24099104 0.24406228 0.24783382 0.25214371 0.25427068 0.2589827 0.26352045 0.26596019 0.26731141 0.27326746 0.27486425 0.27523951 0.27787072 0.27866467 0.27714335 0.27967193 0.28254613 0.28320246 0.28422037 0.2808188 0.27989021 0.28052062 0.2781542 0.2803821 0.2806263 0.2780626 0.2784289 0.2814198 0.280962 0.2842581 0.2837698 0.2866996 0.2880425 0.2894464 0.28782406 0.28985521 0.29447224 0.29538133 0.29576607 0.29517683 0.2942349 0.2976977 0.30027304 0.30460954 0.30946163 0.31098636 0.31428878 0.31886691 0.3183987 0.31984612 0.32044717 0.31856444 0.318234 0.31571054 0.31373327 0.31086887 0.30758802 0.30498746 0.30216668 0.2989835 0.29396339 0.28734377 0.28351872 0.27958246 0.27704927 0.27459054 0.26942919 0.26636457 0.26395578 0.25776393 0.25307636 0.24855473 0.24325581 0.2387704 0.23345675 0.22883143 0.22384905 0.2194662 0.21408234 0.20846711 0.20444221 0.20089679 0.19653611 0.19245116 0.18883061 0.18432407 0.18172503 0.17944578 0.1765992 0.17473755 0.17276336 0.17039449 0.16867037 0.16637288 0.16456359 0.16289557 0.1612978 0.15860681 0.15762534 0.15593418 0.1544452 0.15262323 0.15058313 0.14906877 0.14750566 0.14605044 0.14483388 0.14301475 0.14200344 0.14049774 0.13882491 0.13693758 0.13524122 0.13365457 0.13225148 0.131396 0.13025048 0.13057091 0.12999267 0.13008195 0.13039765 0.13095996 0.13208574 0.13303225 0.1341635 0.1363303 0.1371544 0.1402063 0.1409693 0.1419154 0.1426784 0.1438686 0.1445096 0.146005 0.1469816 0.1492706 0.14931713 0.15029224 0.15121518 0.15238513 0.15367196 0.15519183 0.15781885 0.15962539 0.16173827 0.16425333 0.16748534 0.16964623 0.17244194 0.17490503 0.17805989 0.18156364 0.18450452 0.18741921 0.19053425 0.19385738 0.19724239 0.20096462 0.20421532 0.20670473 0.20925993 0.21218222 0.21514241 0.21833569 0.22123921 0.2246969 0.22856922 0.233421 0.23870394 0.24403499 0.24713321 0.24991736 0.25262873 0.25557166 0.258339 0.26105691 0.2640588 0.26700523 0.27023022 0.27327271 0.27600946 0.27862122 0.28118987 0.28420036 0.28694259 0.28973155 0.29159602 0.29456702 0.29812963 0.3029804 0.30783625 0.31196256 0.31607121 0.31987166 0.32402835 0.32701225 0.32986729 0.33395005 0.33940915 0.34432433 0.34985697 0.35482011 0.35968971 0.36170783 0.36350592 0.36477726 0.36756853 0.3707724 0.37466589 0.37884004 0.38274355 0.38744305 0.39039868 0.3918553 0.39110969 0.39189945 0.39285596 0.39441819 0.39657995 0.39921874 0.40368653 0.40819756 0.41197877 0.41644997
0.15785588 0.15822059 0.15815039 0.15948316 0.1604613 0.16056553 0.16190988 0.1618154 0.16346053 0.16493997 0.16588963 0.16729171 0.16764325 0.16903048 0.170497 0.171701 0.17267901 0.17415538 0.17494789 0.17524169 0.17635623 0.17802237 0.17915138 0.1798833 0.18287383 0.18528791 0.18636551 0.18919111 0.19029588 0.19211457 0.19411316 0.19558016 0.19644403 0.19682126 0.19836102 0.20060531 0.20071267 0.20146819 0.19956272 0.19885714 0.20071002 0.20299621 0.2045416 0.20402558 0.2045379 0.20760517 0.2072979 0.20816277 0.20910479 0.21167912 0.21575258 0.22024234 0.22118595 0.22493699 0.2273827 0.23109407 0.23624955 0.24101491 0.24397395 0.24883586 0.25241665 0.2541853 0.26091509 0.26660677 0.2668771 0.26573558 0.27088071 0.27418043 0.27525799 0.27628653 0.27476457 0.27486859 0.27819762 0.27991204 0.2823574 0.28263582 0.28210076 0.28233395 0.28220014 0.2792834 0.2800159 0.2774217 0.2791308 0.2794665 0.2829152 0.2815113 0.2830373 0.2832814 0.2877678 0.2916438 0.2905146 0.29151994 0.29559909 0.29639593 0.29769982 0.29439824 0.29335818 0.29421093 0.29860852 0.30120965 0.3053679 0.30811611 0.31191219 0.31754588 0.31740972 0.32085149 0.32070287 0.32457128 0.32115095 0.31669332 0.3141909 0.31276635 0.31295667 0.30869662 0.30498221 0.30311283 0.29916072 0.29355402 0.2890215 0.28753812 0.2832049 0.27944223 0.27518755 0.27264889 0.2677953 0.2645922 0.2585246 0.2521636 0.24829167 0.24231597 0.23808083 0.23261273 0.22830142 0.22500132 0.22095415 0.21603211 0.21030225 0.20472987 0.20254201 0.19859315 0.19482453 0.19031831 0.18627081 0.18429818 0.18038565 0.17732847 0.17655724 0.17344286 0.17215685 0.16997981 0.16744669 0.1647767 0.16285176 0.16108237 0.15933827 0.15750362 0.15623697 0.15579611 0.1534171 0.15170122 0.14983112 0.14813558 0.14659307 0.14517122 0.14388797 0.14260513 0.14075547 0.13907167 0.13740255 0.13577363 0.13427985 0.13273592 0.1315003 0.13043262 0.13092731 0.13033292 0.13038742 0.1308243 0.13132724 0.1324814 0.13345908 0.1346212 0.1367576 0.138192 0.1386498 0.141244 0.1421901 0.1429225 0.1440823 0.1447842 0.1455777 0.1471342 0.1493621 0.14953317 0.15056934 0.15158256 0.15268972 0.15403879 0.15595564 0.15766922 0.15937782 0.16150568 0.16401963 0.16647629 0.16979118 0.17231509 0.1756339 0.1784829 0.18182671 0.18466747 0.18753954 0.19061613 0.19402839 0.19753257 0.20080736 0.20386301 0.20641147 0.20888052 0.2121024 0.21534015 0.21849916 0.22150164 0.22546848 0.22973344 0.2345302 0.2392212 0.24328432 0.24638562 0.24958989 0.25284336 0.25568617 0.25844255 0.26129933 0.26445251 0.26756488 0.27105782 0.27424687 0.27722636 0.27997002 0.28237958 0.28530312 0.28807382 0.2905733 0.29296612 0.29670352 0.3000731 0.30410867 0.30845124 0.31239749 0.31669602 0.32074143 0.3251188 0.3279932 0.33114846 0.335267 0.34083979 0.34622803 0.35183421 0.35625158 0.36049932 0.36220871 0.36458756 0.36652573 0.36897738 0.37220557 0.37593603 0.38025581 0.38449225 0.38862802 0.39117067 0.39231843 0.3922077 0.39344476 0.39444994 0.39571541 0.39773897 0.39963267 0.40331659 0.40798172 0.41335064 0.41932139
0.15790525 0.15892584 0.15875716 0.15950432 0.16089369 0.16185051 0.16233623 0.1638199 0.16493674 0.16597757 0.1669068 0.16819527 0.16955703 0.16958707 0.17094237 0.17208489 0.17305732 0.17406093 0.17514503 0.17623575 0.17771776 0.17862774 0.1796847 0.18069838 0.18298543 0.18536712 0.18717855 0.18939893 0.19157477 0.19188123 0.19437757 0.19494476 0.19596505 0.19789118 0.19867508 0.19908273 0.20099358 0.20019229 0.2001235 0.20194621 0.20326643 0.20423519 0.20502466 0.20493838 0.20617312 0.20765372 0.20931621 0.21210969 0.21249735 0.21404382 0.21546417 0.21861011 0.22180588 0.22380191 0.22778176 0.23268695 0.2386198 0.23993373 0.24434434 0.25019558 0.25330658 0.2571 0.25987068 0.26137623 0.26381802 0.26484946 0.26770848 0.27262343 0.27253611 0.27194547 0.27341585 0.27312673 0.27633156 0.27812553 0.2790432 0.28153824 0.28155043 0.28156877 0.28222993 0.2816029 0.2805957 0.2813587 0.2815724 0.2820607 0.2823659 0.2836172 0.2877373 0.2897516 0.2917048 0.2916438 0.292834 0.29362774 0.29706499 0.29636478 0.29739527 0.29522116 0.29500364 0.29841689 0.29880248 0.30412199 0.30463583 0.310463 0.31515901 0.31615335 0.31775723 0.32057763 0.3232174 0.32351888 0.32036644 0.31699689 0.31533336 0.31319999 0.31271919 0.30726526 0.30584212 0.30151867 0.29882074 0.29401921 0.29120805 0.28869412 0.28460043 0.28107155 0.27923643 0.27387034 0.26886746 0.26426428 0.2602169 0.25385125 0.25046782 0.24393711 0.24037944 0.23556193 0.23033 0.22653775 0.22264219 0.21638081 0.21155272 0.20778594 0.20399525 0.20002477 0.19637628 0.19225929 0.1888579 0.18671293 0.1832812 0.18024281 0.17809495 0.1758511 0.17334779 0.17148389 0.16819726 0.16590659 0.16439152 0.16234418 0.16118113 0.15926165 0.1576358 0.15668488 0.15468009 0.1529123 0.15068627 0.14867786 0.14704598 0.14538372 0.14395186 0.14250942 0.14075109 0.13923663 0.13761092 0.13587089 0.13436206 0.13295803 0.13172399 0.13200721 0.13133183 0.13122875 0.13103318 0.13122369 0.13169411 0.13288037 0.13391465 0.1351096 0.1371239 0.1379479 0.138955 0.1414881 0.1424342 0.1431972 0.144357 0.145242 0.1457914 0.1463712 0.1479888 0.1497181 0.15078599 0.15137013 0.15293262 0.15431053 0.15573931 0.15738977 0.15966554 0.16199669 0.16426099 0.16674744 0.16995282 0.17268471 0.17554409 0.17839214 0.18139462 0.18478706 0.18787989 0.19096484 0.19428347 0.19744229 0.20077025 0.2036633 0.20643283 0.2092532 0.21228387 0.21556957 0.21908256 0.22202459 0.226263 0.23066393 0.23516599 0.2393342 0.24272929 0.24618964 0.24963587 0.25335312 0.25654936 0.25959749 0.26263169 0.26579285 0.26863577 0.27174429 0.27446652 0.27765742 0.28044262 0.28327701 0.28548289 0.28916102 0.29170031 0.29450467 0.29812373 0.30158537 0.30510529 0.3087783 0.31269935 0.31735229 0.3219348 0.3262892 0.3291766 0.33246741 0.33701456 0.34287468 0.34851467 0.35372626 0.35733793 0.36060645 0.36277534 0.36570399 0.36818754 0.37075803 0.37389583 0.37715498 0.38151893 0.38593663 0.38966049 0.39168304 0.39281053 0.39329348 0.39492182 0.39628872 0.3982516 0.40082209 0.40264447 0.40585882 0.41032264 0.41588132 0.42228424
0.15819585 0.15899454 0.16004683 0.15962613 0.16106173 0.16275618 0.16434403 0.16463888 0.16553152 0.16676443 0.16778528 0.16905055 0.17027488 0.17117267 0.17111721 0.17172472 0.1737162 0.17401311 0.17547249 0.17630608 0.17833551 0.17939695 0.18036503 0.18190366 0.18318086 0.18481389 0.18772017 0.18981868 0.19108528 0.19281755 0.19458889 0.19484329 0.19644971 0.19850037 0.19825466 0.19848206 0.19928907 0.19924738 0.20082022 0.20220496 0.2044047 0.20496 0.20463176 0.2050104 0.20809578 0.20916911 0.21045008 0.21313134 0.21427745 0.21399081 0.21638869 0.21999438 0.22261309 0.22574075 0.22954322 0.2363801 0.23875269 0.24086744 0.245939 0.24873372 0.25027976 0.2554797 0.25762869 0.26027302 0.26424224 0.26575654 0.26909855 0.26964753 0.27178119 0.27291444 0.27507892 0.27532587 0.27860412 0.27849464 0.27724924 0.27754365 0.28167189 0.28239277 0.28213731 0.2811146 0.2800464 0.2808094 0.2828542 0.2852652 0.2865165 0.2868522 0.2906061 0.2940548 0.2928646 0.2934139 0.2973204 0.30028696 0.30115915 0.29694461 0.29837172 0.29863253 0.29737459 0.29951797 0.30087397 0.30527433 0.30911143 0.31023986 0.31395103 0.31887105 0.31830156 0.31833472 0.32059592 0.32417746 0.32285097 0.31864186 0.31832662 0.31612477 0.31209245 0.307568 0.30710921 0.30417483 0.29880154 0.29509676 0.29111268 0.28973848 0.28745267 0.2831568 0.2797549 0.27602216 0.27186262 0.266163 0.26287211 0.2569075 0.25073834 0.24633218 0.24139054 0.23591295 0.23265154 0.22928756 0.22355017 0.21705635 0.21251228 0.20922779 0.20575099 0.20205563 0.19840715 0.1951085 0.19035271 0.18780149 0.18418102 0.18283276 0.17984865 0.17793164 0.17490867 0.17223502 0.16940678 0.1676018 0.16599901 0.1633015 0.16216309 0.16062724 0.15935483 0.15703016 0.15570567 0.15356606 0.15132651 0.14912587 0.14759045 0.1459343 0.14404298 0.14221675 0.14095462 0.13944471 0.13774921 0.13612512 0.13453383 0.13316554 0.13187647 0.13241722 0.1322101 0.13153614 0.13145481 0.13165093 0.13212206 0.13324981 0.13434337 0.1358115 0.1374901 0.1383141 0.1392602 0.1417018 0.1426784 0.1434414 0.1446011 0.1450894 0.146005 0.1477141 0.1482024 0.14981037 0.15093921 0.1515536 0.15311526 0.15454969 0.15600273 0.15761793 0.15989497 0.16177528 0.16450785 0.16711398 0.169453 0.17247198 0.17533192 0.17864417 0.18161184 0.18496251 0.18799976 0.1913474 0.1941992 0.19787147 0.2009349 0.2038843 0.20659678 0.20925559 0.21239735 0.21598948 0.21957348 0.22336233 0.226958 0.23138963 0.2356178 0.23937066 0.24255909 0.24593327 0.24951423 0.25349618 0.25709151 0.26056428 0.2635799 0.26651073 0.26909121 0.27158415 0.27388981 0.27690616 0.2794222 0.28266806 0.28565329 0.28918525 0.29231615 0.29548398 0.29916001 0.30299526 0.30614918 0.30917461 0.31324472 0.31818374 0.32276534 0.32703871 0.33059288 0.3349381 0.33960387 0.34473256 0.34956915 0.35393557 0.3573911 0.36011815 0.36258068 0.36544747 0.36842055 0.37172071 0.3747313 0.37781982 0.38234743 0.38659396 0.38955835 0.39123198 0.39266611 0.39407049 0.39648517 0.39888973 0.40140897 0.40389912 0.40634728 0.40979411 0.41424678 0.41899172 0.42381185
0.15867133 0.15931165 0.16030626 0.16108077 0.16145726 0.16290608 0.16467269 0.16636837 0.16654197 0.16709481 0.16835408 0.1693328 0.17050101 0.17144213 0.17228908 0.17234453 0.1735687 0.17532158 0.17660219 0.17820702 0.17863802 0.18012094 0.18148673 0.18281151 0.18442309 0.18564511 0.18752795 0.18989292 0.19004688 0.1926871 0.19368838 0.19633248 0.19737061 0.20041662 0.20108084 0.19993715 0.20062821 0.20076817 0.20049957 0.20189113 0.20501754 0.2066566 0.2067891 0.20700328 0.20832277 0.20951542 0.21231118 0.21430185 0.21446558 0.21579862 0.21812589 0.22039108 0.22378653 0.22805693 0.23194183 0.2377997 0.23859632 0.23941866 0.24443686 0.24647749 0.24988116 0.2544152 0.25874237 0.26244188 0.26327395 0.26577508 0.26859501 0.2702484 0.27119997 0.2743472 0.27805285 0.27971704 0.28109128 0.28192561 0.28047715 0.2787948 0.27965545 0.28196368 0.28387701 0.2844717 0.2823048 0.2818775 0.2855399 0.2853262 0.2871269 0.2904535 0.29201 0.2953061 0.297473 0.2968321 0.3007691 0.30480802 0.30311395 0.30241095 0.30130011 0.30231607 0.30314472 0.30333822 0.30452507 0.30632937 0.31076055 0.31273925 0.31614277 0.31659733 0.3184251 0.31923623 0.32184145 0.32292967 0.32236813 0.31807932 0.31893496 0.31709112 0.31218684 0.30860125 0.30602972 0.30326461 0.30124941 0.29801182 0.29313557 0.29116329 0.28875698 0.2840232 0.28030271 0.27586617 0.2716895 0.26607584 0.26312126 0.25937723 0.25356236 0.24702001 0.24250305 0.23860197 0.23413992 0.23009393 0.22355775 0.2188634 0.21492115 0.21066505 0.20744195 0.20253323 0.1990511 0.19561312 0.1916149 0.18849646 0.18557207 0.18397197 0.18056893 0.17935521 0.17653554 0.17354068 0.17039154 0.16779978 0.16662379 0.16435382 0.1629746 0.16136884 0.15971244 0.15868185 0.15624844 0.1539456 0.15199827 0.1504203 0.14817316 0.14633426 0.14486684 0.14280534 0.14124358 0.13973449 0.13808347 0.13673433 0.13521899 0.1342591 0.13302856 0.13328215 0.13256531 0.13195215 0.13194761 0.13214026 0.13248676 0.13358531 0.13516774 0.1361472 0.1378258 0.1386193 0.1395349 0.1419154 0.1429225 0.1436855 0.1448147 0.1453336 0.1465849 0.147592 0.1480498 0.14825174 0.15099918 0.15167529 0.15326776 0.15469699 0.15613695 0.15779588 0.16006643 0.16193973 0.16460978 0.16685012 0.16957729 0.17301468 0.17607235 0.17901242 0.18210914 0.18526198 0.18824712 0.19146801 0.194585 0.19789246 0.20102846 0.20384713 0.20678529 0.20953655 0.21280106 0.21658088 0.2202945 0.22408815 0.22804146 0.23178761 0.23564797 0.23918133 0.24235436 0.24570731 0.24940221 0.25349668 0.25709866 0.26036996 0.2632975 0.26632994 0.26893389 0.27132354 0.27315372 0.27552473 0.27820642 0.28152495 0.28532768 0.28957447 0.29274736 0.29636657 0.29998929 0.30406211 0.30720166 0.31035256 0.31487769 0.31927577 0.32401971 0.32834991 0.33204909 0.33689792 0.34180015 0.34676718 0.3513455 0.35507969 0.35810886 0.36046996 0.36296643 0.36573263 0.36884683 0.37254492 0.37604076 0.3793704 0.38399973 0.38795837 0.39037628 0.39213665 0.39399183 0.39579559 0.39873107 0.40177781 0.40478137 0.40732054 0.41050432 0.41442667 0.41840713 0.4216735 0.42509656
0.1587991 0.15961734 0.16066291 0.16158494 0.16262116 0.16332813 0.16489779 0.16704882 0.16772591 0.16809678 0.16894219 0.16983531 0.17160699 0.17158727 0.17327786 0.17372408 0.17451857 0.17637349 0.1778073 0.17925407 0.18009073 0.18042707 0.18242029 0.18416991 0.18532633 0.18769752 0.18838267 0.18977696 0.18984237 0.19146272 0.19432092 0.19622951 0.19857062 0.2008357 0.20164035 0.20201577 0.20083033 0.20084941 0.2010192 0.20086668 0.20462999 0.20794965 0.20835988 0.21154387 0.20906305 0.20967058 0.21224387 0.21444032 0.21718989 0.21784325 0.22071265 0.22403876 0.22436427 0.22917759 0.23404156 0.23818627 0.23739735 0.23868419 0.24443546 0.24463725 0.25096395 0.2561447 0.26042566 0.26195768 0.26386868 0.26758805 0.2674805 0.27167047 0.27168244 0.27475981 0.27785587 0.28384601 0.28170227 0.28135426 0.28005426 0.27873424 0.27904399 0.2819627 0.28234854 0.2837392 0.283434 0.2846853 0.2844107 0.2851431 0.2881646 0.2921016 0.2943905 0.2998535 0.3006775 0.3034853 0.3054996 0.31140693 0.30879757 0.30696099 0.30526545 0.30475336 0.30579119 0.30963186 0.31054773 0.30813447 0.31151969 0.31184082 0.31364205 0.31772178 0.31701343 0.31890921 0.3232479 0.3251344 0.32214385 0.31807918 0.31985821 0.31808871 0.31367191 0.31221209 0.30669107 0.30377323 0.30136344 0.29659853 0.29598799 0.29565856 0.28896291 0.28453888 0.28211667 0.27752198 0.27359406 0.26846397 0.26402643 0.26332664 0.25424451 0.24933312 0.24475566 0.24205863 0.23503803 0.23112792 0.22604698 0.22064404 0.21563043 0.212737 0.2089613 0.2032693 0.1998018 0.19580785 0.19267907 0.1890997 0.18613137 0.18433141 0.18176478 0.1801488 0.17717302 0.1748788 0.17128715 0.16828787 0.16706003 0.16514785 0.16407758 0.16231988 0.16128904 0.15945392 0.15721713 0.15504654 0.15322438 0.15160457 0.14946301 0.14723298 0.14563377 0.14349023 0.14177031 0.13986436 0.1383925 0.13679076 0.13567776 0.13442674 0.13327029 0.13369415 0.1330145 0.1324382 0.13248729 0.13262653 0.13291306 0.13483337 0.13541137 0.1364524 0.1381005 0.1388635 0.1398096 0.1420985 0.1431362 0.1438992 0.1450589 0.1457914 0.1464323 0.1474394 0.1478972 0.14806949 0.14977769 0.15173694 0.15332789 0.15478255 0.15630549 0.15795175 0.16020609 0.16209044 0.16466884 0.16688889 0.1695754 0.17297185 0.1764668 0.17945044 0.18242402 0.18589205 0.18836875 0.19157085 0.19488309 0.19827665 0.20130932 0.2039838 0.206923 0.20980576 0.21324177 0.21710613 0.22109124 0.22457464 0.22844594 0.23246215 0.23621029 0.23969485 0.2428947 0.24633878 0.24997619 0.25365785 0.25704482 0.25996157 0.262554 0.26551364 0.26808206 0.27114938 0.27325971 0.27527116 0.27766389 0.28144789 0.28598899 0.29050913 0.29371797 0.29727582 0.30087009 0.3045071 0.30836279 0.31199248 0.31656771 0.3206184 0.32517721 0.32934948 0.33307928 0.33811792 0.34337906 0.34863563 0.35336905 0.35691717 0.35997074 0.36231817 0.36462589 0.36692294 0.36956339 0.37323291 0.37699363 0.38102768 0.38535672 0.38878433 0.39106401 0.39355997 0.39592842 0.39793249 0.40127243 0.40466744 0.40784418 0.41084669 0.4144542 0.418274 0.42117345 0.4226488 0.42430312
0.15929435 0.16003031 0.16082347 0.1621861 0.16302109 0.16399636 0.16513958 0.16665815 0.16779692 0.16852541 0.16985836 0.17091609 0.17158402 0.1731188 0.17464309 0.17513944 0.1751658 0.17598839 0.17743962 0.17907277 0.18092928 0.181802 0.18388379 0.18566923 0.18744395 0.18812052 0.18942494 0.19046865 0.19123927 0.19378268 0.19572405 0.19826991 0.19952123 0.20004763 0.20112123 0.2011565 0.20291622 0.20350664 0.20247127 0.20278773 0.20458396 0.20671558 0.20748152 0.20997601 0.20913525 0.20990986 0.21174689 0.21326322 0.2163428 0.21801122 0.22075246 0.22415349 0.22644169 0.2280437 0.23304758 0.23423585 0.23792551 0.24184635 0.24355465 0.24954542 0.25261372 0.25560439 0.26021735 0.26250581 0.26343522 0.26524064 0.2694233 0.27083545 0.27574202 0.27548612 0.27891279 0.27979237 0.28327828 0.28266237 0.28109097 0.28358412 0.28347197 0.28477214 0.28289683 0.2811451 0.2819386 0.2832814 0.2851126 0.2854789 0.2900873 0.29201 0.2971067 0.3038821 0.306171 0.3090704 0.3111762 0.31598919 0.31680286 0.31493159 0.3136532 0.31114699 0.31110461 0.31437979 0.31440297 0.31478279 0.31551729 0.31537436 0.31477294 0.31542175 0.31742203 0.32009279 0.32142695 0.32191841 0.32106499 0.32029136 0.31735368 0.3171898 0.31428707 0.31196734 0.30743386 0.30413952 0.29834487 0.29562093 0.29498283 0.29299753 0.28952726 0.28648151 0.28219597 0.27797665 0.27252443 0.26670283 0.26409292 0.26072627 0.25452658 0.24926424 0.24496117 0.23926273 0.23551804 0.22975928 0.22607976 0.22129055 0.2164608 0.21335728 0.20844267 0.20482493 0.20190283 0.19772785 0.19414172 0.19151976 0.18824865 0.18635476 0.18329817 0.18014665 0.1777196 0.17502989 0.17224824 0.17080046 0.16863223 0.16721254 0.16553839 0.16367673 0.16180083 0.15978006 0.15796892 0.15614707 0.1537207 0.15237902 0.14999727 0.1486019 0.1463238 0.14435175 0.14227448 0.14061759 0.13902436 0.13746554 0.13616135 0.13479927 0.13350025 0.13406522 0.133523 0.13294615 0.13291729 0.13305186 0.1334344 0.13471586 0.13562919 0.1366966 0.1383141 0.1391686 0.1410914 0.1422511 0.1432888 0.1441128 0.145242 0.1455777 0.1461576 0.1472258 0.1476836 0.14795131 0.14962972 0.1516476 0.15338723 0.15407724 0.15638508 0.15808534 0.16035237 0.1622447 0.16443584 0.16689618 0.17031923 0.17288841 0.17690667 0.17974258 0.18350308 0.18594549 0.18868323 0.19182951 0.19519334 0.19859053 0.20140473 0.20435001 0.20728421 0.21049671 0.21375364 0.21735764 0.22128144 0.22499074 0.22859042 0.2323992 0.23606327 0.23965993 0.24307384 0.24659458 0.25035878 0.25369743 0.25675415 0.25948437 0.2622136 0.26523907 0.26774245 0.27103631 0.27362518 0.27609794 0.27887513 0.282926 0.28705492 0.2911746 0.2942369 0.29805395 0.30145561 0.30507892 0.30865895 0.31267026 0.31730006 0.32200469 0.32665524 0.3311795 0.33491467 0.34013134 0.34533503 0.35075181 0.35531274 0.35863845 0.36127467 0.36375354 0.36621253 0.3686785 0.37149421 0.37488239 0.37837533 0.38198158 0.38598939 0.38919208 0.39190041 0.39541748 0.39871006 0.40147577 0.40476024 0.40803464 0.41105484 0.41417391 0.41713515 0.41932637 0.42068218 0.42060441 0.4218302
0.15950626 0.16049144 0.16132332 0.16250678 0.16350881 0.16476641 0.16525282 0.16674387 0.16741722 0.16913496 0.16989857 0.1711459 0.17246861 0.17390777 0.17546539 0.17681569 0.1765947 0.17780238 0.17987194 0.18089144 0.18138085 0.18373127 0.18566578 0.18854254 0.18782708 0.18870466 0.19113935 0.19267741 0.1938719 0.19426792 0.19603991 0.19906712 0.2007167 0.20167428 0.20187633 0.20257283 0.20395398 0.20380867 0.2031854 0.20214243 0.20502485 0.20757472 0.20798267 0.20800672 0.20873092 0.21146626 0.21241333 0.21308685 0.21824125 0.22018536 0.22354695 0.22639025 0.2283538 0.22824448 0.23024177 0.23303436 0.23787299 0.24266756 0.2451549 0.25116497 0.25211706 0.25553049 0.25734467 0.2612458 0.26223812 0.26266243 0.26600505 0.27270569 0.27652287 0.27906648 0.27901023 0.27874546 0.27908242 0.28257761 0.28453131 0.28446873 0.28282987 0.28544309 0.28469834 0.2821217 0.2827931 0.2830068 0.2842581 0.2863029 0.2917048 0.295886 0.3007081 0.3059879 0.3075444 0.3127632 0.3164866 0.32133523 0.32312787 0.32168077 0.3180759 0.31662629 0.31856937 0.31970188 0.31723702 0.31730377 0.32016893 0.31833315 0.3181976 0.31701837 0.31967424 0.32230063 0.32299988 0.32471013 0.32230368 0.32174361 0.31819806 0.31458924 0.31234848 0.30865658 0.30742831 0.30246857 0.30010311 0.2956599 0.2928975 0.28875339 0.28748341 0.28487332 0.28010622 0.27771318 0.27114916 0.26681983 0.26342327 0.26082879 0.25434757 0.24789097 0.24340969 0.23810365 0.2352445 0.22997548 0.22651926 0.22254376 0.21774227 0.21369298 0.2103231 0.20655738 0.2040664 0.20040813 0.19774957 0.19402945 0.19083899 0.18713684 0.18449626 0.181241 0.17840412 0.17556623 0.17334638 0.17181589 0.16947289 0.16800014 0.16680257 0.1649245 0.16292431 0.16040476 0.15868361 0.15779255 0.1553295 0.15381419 0.15122078 0.14908611 0.14729156 0.14521299 0.14298824 0.14109505 0.13966132 0.13825427 0.13667135 0.13520148 0.13417081 0.13455517 0.13391465 0.13330023 0.13331175 0.13348036 0.13398459 0.13456343 0.13590691 0.1372154 0.1389855 0.1401758 0.1409998 0.1423427 0.1433803 0.1442349 0.1447537 0.1457914 0.1469511 0.1474089 0.1480498 0.14825979 0.14951089 0.15158828 0.15234852 0.15413276 0.15643717 0.15816793 0.16048759 0.1624106 0.16421218 0.16656763 0.17016216 0.17293472 0.17693053 0.18099219 0.18357414 0.18637284 0.18916912 0.19216503 0.19549586 0.19924319 0.20195498 0.2051229 0.20778291 0.21086999 0.21402832 0.21754915 0.22146507 0.22526688 0.22885685 0.23296908 0.23680528 0.23989254 0.24315427 0.246342 0.24989329 0.25334121 0.25666962 0.25956516 0.26254072 0.26556025 0.26795168 0.27111128 0.27420949 0.27772097 0.28098357 0.28467583 0.28790842 0.29134585 0.29450168 0.29847097 0.30141801 0.30438469 0.30796271 0.31190319 0.31669913 0.32235775 0.32770971 0.33287401 0.33706163 0.34196874 0.34732149 0.35245301 0.35667657 0.35990191 0.36269441 0.36517421 0.36788133 0.37049068 0.37329203 0.37658221 0.37997237 0.38337965 0.38742057 0.39074731 0.39386079 0.39794487 0.40205205 0.40559021 0.40847279 0.411217 0.41351496 0.41600085 0.41860886 0.41880593 0.41824554 0.41731004 0.41834975
0.16006232 0.1611314 0.16182873 0.16268353 0.16357217 0.16444376 0.16564008 0.16628068 0.1674977 0.16897111 0.16998551 0.170959 0.17230325 0.17353802 0.17531585 0.17672303 0.17703927 0.17765244 0.17957318 0.18002249 0.18131715 0.18278261 0.18536245 0.18802198 0.18852946 0.19061454 0.19136733 0.19393205 0.19599522 0.19632784 0.19873629 0.20072886 0.2007222 0.20187214 0.20308571 0.20284888 0.20486709 0.20505958 0.20238564 0.2032149 0.20498822 0.20639815 0.20803945 0.20788734 0.20931637 0.2094898 0.21303029 0.2155366 0.21861685 0.21968254 0.22400845 0.22578458 0.22718154 0.22829219 0.23086623 0.23161917 0.23669327 0.24088056 0.2465062 0.24852467 0.25060205 0.25346139 0.25607895 0.2555382 0.25844431 0.26122363 0.26564257 0.27195511 0.27358665 0.27409621 0.27783699 0.27641492 0.27752126 0.27954708 0.2836821 0.28562834 0.28545627 0.28559573 0.28463704 0.2834646 0.284136 0.2830373 0.2856314 0.2901788 0.2944821 0.2983581 0.3013795 0.3074529 0.3110847 0.315632 0.3192334 0.32182343 0.32514402 0.32583402 0.32588388 0.32271446 0.32451914 0.32269803 0.32130238 0.32260575 0.32238182 0.32257583 0.32093576 0.32070933 0.32025237 0.32450838 0.32459304 0.32413845 0.32180712 0.31833925 0.31856878 0.31489995 0.31034118 0.31056848 0.30900084 0.3059653 0.30190048 0.29589771 0.29154551 0.28902633 0.28432616 0.28162026 0.27895469 0.27465167 0.26858381 0.26480462 0.26034306 0.25810636 0.25195419 0.24638003 0.24311649 0.23873468 0.23512797 0.23195202 0.2271992 0.22322078 0.21893066 0.21402567 0.21016296 0.20779204 0.20463643 0.20158719 0.19881615 0.19602735 0.19267492 0.18914703 0.1854036 0.18242245 0.18013258 0.17654212 0.17441454 0.17231179 0.17032406 0.16916809 0.16780869 0.16548246 0.16380683 0.16130842 0.15967827 0.15823401 0.15643892 0.15414399 0.15249373 0.14987867 0.14799526 0.14579884 0.14377102 0.14185207 0.14008617 0.13839544 0.13704291 0.13561025 0.13586248 0.13499463 0.13423232 0.13412332 0.13417434 0.13403084 0.13438303 0.13505751 0.13575657 0.1370628 0.138894 0.1400842 0.1408777 0.1417628 0.1426784 0.1436245 0.1444485 0.1459135 0.146829 0.1472868 0.1479888 0.14813932 0.14942121 0.15149752 0.15219479 0.15349015 0.15525105 0.1575401 0.16059256 0.1622841 0.16456103 0.16742311 0.17005198 0.17278831 0.1756635 0.17956302 0.18364736 0.18646973 0.18934507 0.19247327 0.1959501 0.19907967 0.20204705 0.20501205 0.20800625 0.21127524 0.21437848 0.21777332 0.22154404 0.22534736 0.22919213 0.23283143 0.23663405 0.23961724 0.24295508 0.24616551 0.24982816 0.25288199 0.25646655 0.25975485 0.26320309 0.26620569 0.26869729 0.27162242 0.2749083 0.2787103 0.28225739 0.28561299 0.28833711 0.29163005 0.29499464 0.29860593 0.30115 0.30371728 0.30695273 0.31131331 0.31651716 0.32309213 0.32861277 0.33386837 0.33913692 0.34392092 0.34874402 0.35332312 0.35737422 0.36049037 0.36328224 0.36644195 0.37011587 0.37248223 0.37497959 0.37787046 0.38143293 0.3853363 0.3894466 0.39274012 0.39618625 0.40094579 0.40541253 0.40877922 0.41074626 0.41273761 0.41442071 0.41660092 0.41880652 0.41704202 0.41523051 0.41392371 0.41505175
0.16090738 0.16206656 0.16240357 0.16304694 0.16405021 0.16499225 0.1661742 0.16713444 0.16827179 0.16913147 0.17015204 0.17183252 0.17295536 0.17370714 0.1749602 0.17673345 0.17652169 0.17793047 0.17860992 0.17930615 0.18079296 0.18314753 0.18602793 0.1881984 0.18968468 0.18960172 0.19243593 0.19512321 0.19734403 0.19936651 0.20057737 0.20154011 0.20156756 0.2031189 0.20420043 0.20448105 0.20470534 0.20500169 0.20196048 0.20158214 0.20474909 0.20769869 0.20731506 0.20771975 0.20932038 0.20914469 0.21318666 0.21766097 0.21876198 0.22168164 0.2237539 0.22421483 0.22648489 0.22588611 0.22861385 0.23166938 0.23474064 0.23949373 0.24488673 0.24874903 0.25024529 0.250554 0.25308451 0.25280234 0.25707418 0.26318582 0.26380713 0.26973317 0.27002768 0.27197225 0.27588203 0.27772505 0.27650446 0.27852194 0.2843257 0.28498863 0.28725756 0.287947 0.28711069 0.2819386 0.2836477 0.2856314 0.28966 0.2918269 0.2954282 0.2980834 0.3023256 0.3089788 0.3152658 0.3174327 0.3226515 0.32603906 0.3287188 0.3296207 0.33033703 0.32904565 0.32986225 0.32809429 0.3263235 0.32656374 0.32590659 0.32688438 0.32570391 0.32108411 0.32074404 0.32388875 0.32324564 0.32034285 0.3181791 0.31755835 0.31873206 0.31375069 0.31304461 0.3099711 0.30718836 0.30820583 0.30048175 0.29484855 0.29072297 0.28647822 0.28351032 0.27919434 0.27701274 0.27126899 0.26654317 0.26273946 0.25886947 0.25515879 0.25096327 0.24561919 0.2419012 0.2403043 0.23530123 0.23230807 0.22629328 0.22133838 0.21904083 0.21540712 0.21170271 0.20761729 0.20542757 0.20333268 0.19969145 0.19729185 0.1935514 0.19104009 0.18733596 0.18440649 0.18144027 0.17799375 0.17558305 0.17274581 0.17113369 0.17044339 0.16876544 0.16692454 0.16466037 0.16225231 0.16008111 0.15811527 0.15703354 0.15507598 0.1528228 0.15093229 0.14856315 0.14636554 0.14463319 0.14279208 0.14119291 0.13941973 0.13792164 0.13755043 0.13639836 0.13540992 0.1351302 0.13496591 0.13469305 0.13491528 0.13490022 0.13542821 0.13609515 0.1369102 0.1387719 0.1399622 0.1407251 0.1415492 0.1424648 0.1429531 0.1437771 0.1466154 0.1467375 0.1471953 0.1478972 0.14801647 0.1492976 0.15134408 0.15204276 0.15333997 0.1550776 0.1570204 0.15918587 0.16249129 0.16441546 0.16725426 0.16980112 0.17258089 0.1754991 0.17932368 0.18223123 0.18665567 0.18959937 0.19305149 0.19608224 0.19928403 0.2024123 0.20546963 0.2085908 0.21197325 0.21483474 0.21815006 0.22180525 0.22550177 0.22928362 0.23286564 0.23638918 0.23928586 0.24236097 0.24562325 0.24914445 0.25250718 0.25600012 0.25983816 0.26354947 0.26688539 0.26959735 0.27259241 0.27566504 0.27934094 0.28343496 0.28685833 0.28963572 0.29239974 0.29548529 0.2981215 0.30116022 0.30422767 0.30764467 0.31246395 0.31853069 0.32542485 0.33096773 0.33572177 0.34097612 0.34559104 0.35004136 0.35420649 0.35780038 0.36103426 0.36419006 0.36728779 0.37110613 0.37384137 0.37672172 0.37987041 0.38370624 0.3877515 0.3914086 0.39502981 0.3991443 0.4035687 0.40744843 0.41034525 0.41245867 0.41480314 0.41631052 0.41779522 0.41903547 0.41637034 0.41391875 0.41322158 0.41489968
0.1612545 0.16217194 0.16303401 0.1635011 0.16416039 0.16560743 0.16649573 0.16694655 0.16849127 0.16947213 0.17002866 0.17163303 0.17258645 0.1736918 0.17511547 0.17581865 0.17624999 0.17740329 0.1786781 0.17985051 0.18150642 0.18404822 0.18605787 0.18774599 0.19043398 0.1916832 0.19383371 0.19527733 0.19766215 0.19896686 0.2014184 0.20216326 0.20348852 0.20443649 0.20410651 0.20364064 0.20373205 0.20386009 0.20275024 0.20186403 0.20392733 0.20640718 0.20595264 0.20888806 0.21026486 0.21043219 0.21426168 0.21487786 0.21819958 0.21986711 0.22222044 0.22397589 0.22409616 0.22579783 0.22637476 0.23258 0.23509449 0.2396578 0.24386581 0.24567551 0.2473164 0.2509443 0.25260174 0.25389752 0.25621707 0.25862488 0.26362775 0.26717384 0.26830686 0.26892848 0.2724553 0.27521227 0.27721111 0.28110722 0.28280744 0.28685004 0.28774503 0.2898103 0.28793554 0.2882256 0.2872795 0.2882866 0.2910639 0.2940853 0.2972899 0.2999145 0.3063541 0.3097113 0.3159067 0.3184398 0.3223158 0.32426618 0.32624178 0.32763495 0.33174047 0.33342993 0.33159858 0.33402202 0.33189401 0.3324118 0.33101329 0.32951754 0.32818883 0.32605514 0.32429379 0.32193425 0.32280094 0.31901589 0.31880564 0.31992638 0.31821358 0.31383295 0.31135545 0.309402 0.30769695 0.30425909 0.30135925 0.29476234 0.28928647 0.28556664 0.27983453 0.27589957 0.27394118 0.26923545 0.26607143 0.2607997 0.25801721 0.25411545 0.24872595 0.2440101 0.24183716 0.23775714 0.23427979 0.23131855 0.22686709 0.22231479 0.21874227 0.21595735 0.21271608 0.20985863 0.20625992 0.20315043 0.20041038 0.19728027 0.1943697 0.19069165 0.18790977 0.18462405 0.18215743 0.17883982 0.17672973 0.17476232 0.17251161 0.17158583 0.16954831 0.16773781 0.16533504 0.1634359 0.16095522 0.15948615 0.1580536 0.15627698 0.15407813 0.15136764 0.14920802 0.14712237 0.14554749 0.1433923 0.1417752 0.14056373 0.13917231 0.13773785 0.13688523 0.13634585 0.13605124 0.13556718 0.13555089 0.13537269 0.13523604 0.13569722 0.13636813 0.137307 0.1385888 0.1398096 0.1405115 0.1413355 0.1422511 0.1427089 0.1433193 0.1446316 0.1466154 0.1470427 0.1477446 0.14786161 0.14914266 0.15036578 0.15161702 0.15310135 0.15484733 0.15676749 0.15879245 0.16189608 0.16470131 0.1669604 0.17013931 0.17287179 0.17589267 0.17916324 0.18233085 0.18535372 0.1899831 0.19306437 0.19606651 0.19930587 0.20252536 0.20577207 0.20887998 0.21213988 0.21538463 0.21863004 0.22191059 0.22537211 0.22894729 0.23213256 0.23555235 0.23855337 0.24163133 0.24504151 0.24872769 0.25250858 0.25643531 0.260416 0.26397627 0.26750487 0.2705351 0.27370231 0.27656367 0.27980505 0.28380887 0.28718961 0.29023992 0.29249727 0.29534034 0.29787558 0.30141056 0.30514579 0.30870758 0.3147543 0.3217322 0.32839242 0.33378539 0.33813489 0.34304331 0.34707751 0.3513835 0.35510798 0.3586212 0.36165532 0.36499931 0.36821458 0.37206559 0.3752521 0.37841004 0.38185054 0.38571294 0.38943743 0.39281671 0.39651143 0.40042983 0.40444415 0.40835876 0.41244917 0.41541273 0.41831752 0.41964862 0.41979136 0.41933206 0.4161785 0.41443108 0.4145324 0.41685501
0.16299579 0.16364313 0.16418095 0.16531215 0.16510014 0.16584307 0.16685618 0.16778163 0.16882007 0.17044062 0.16995058 0.17112922 0.17254761 0.17379756 0.17517041 0.1754891 0.17694848 0.17790183 0.17942562 0.18016444 0.18195459 0.18419896 0.18607624 0.18855234 0.1904404 0.19332693 0.19527942 0.19566844 0.19704927 0.19961383 0.20269703 0.20443025 0.20371679 0.20464433 0.20435698 0.20515613 0.20357274 0.20256756 0.2035633 0.20425481 0.20256579 0.20403368 0.20654301 0.20767323 0.20914521 0.21083151 0.21348037 0.21468035 0.21593497 0.217976 0.22048923 0.22040447 0.2201804 0.22139797 0.22581124 0.2329157 0.23568843 0.2392982 0.24245527 0.24306516 0.24728906 0.25127935 0.25270104 0.25300058 0.25682328 0.25722869 0.25776888 0.26003581 0.26297064 0.26700885 0.269535 0.27326062 0.2773649 0.28023358 0.28427045 0.28624085 0.28707256 0.28886156 0.28704864 0.2890801 0.2896295 0.2901483 0.2921931 0.2948788 0.3008912 0.3041262 0.3067814 0.3121834 0.3177989 0.3205457 0.3225905 0.32805292 0.32795211 0.32852012 0.33488242 0.3376609 0.33660644 0.33852784 0.33858156 0.33742544 0.33280651 0.33331993 0.329536 0.32946377 0.32694762 0.32202156 0.32343382 0.31997712 0.3201758 0.32133358 0.3213911 0.31742196 0.31434889 0.30994197 0.30625642 0.30358904 0.29917703 0.2938921 0.28786485 0.28391276 0.27930113 0.27528106 0.27261778 0.26690453 0.26289672 0.25927047 0.25307613 0.24994093 0.2472588 0.24175147 0.23922044 0.23669113 0.23282111 0.22935715 0.22536071 0.22200193 0.21811038 0.21457881 0.21243388 0.20970684 0.2072883 0.20389272 0.20113468 0.19941846 0.1950864 0.19098723 0.18808124 0.18601869 0.18253957 0.17930435 0.17743982 0.17613674 0.17347813 0.17138977 0.16939148 0.1676558 0.16579429 0.16422253 0.16279257 0.16083592 0.15937037 0.15701339 0.15461899 0.15217723 0.14988633 0.14816416 0.14635425 0.14411341 0.1425104 0.14104448 0.1398726 0.13870791 0.13737068 0.13722641 0.13656746 0.13588356 0.1357759 0.1358326 0.13605957 0.13648929 0.1367351 0.1375511 0.1383446 0.1395959 0.1402979 0.1410914 0.142007 0.1430141 0.1431972 0.1444485 0.1464628 0.1468901 0.1475615 0.14807287 0.14892631 0.1500593 0.15131329 0.15283061 0.15451654 0.15634049 0.15842625 0.16149463 0.16392327 0.16718699 0.17041103 0.17326191 0.17601693 0.17877689 0.18190776 0.18648155 0.18950732 0.19291682 0.19599601 0.19930736 0.20257778 0.20597118 0.20925052 0.21237221 0.21559023 0.2187626 0.22181348 0.22518137 0.22871772 0.23194256 0.23497615 0.23804327 0.24133403 0.24473954 0.24847485 0.25260538 0.25675596 0.26083957 0.26445171 0.26804197 0.27083512 0.2741015 0.27720142 0.28031517 0.28384141 0.28697443 0.2902718 0.29229513 0.29509164 0.29869112 0.30276645 0.30687587 0.31118112 0.31808743 0.3253947 0.33196334 0.33741592 0.34128189 0.34499462 0.34844208 0.35210255 0.35572488 0.35888314 0.36256169 0.36628522 0.36948723 0.37297039 0.37614484 0.37949745 0.38285912 0.38634778 0.38999064 0.39415091 0.39859222 0.40253656 0.40626249 0.41025198 0.41430779 0.41720375 0.42003772 0.42188436 0.4211274 0.41967063 0.41725991 0.41652934 0.41721537 0.41990989
0.16334918 0.16398312 0.16437641 0.16533415 0.1658474 0.16641232 0.16733438 0.1680104 0.16936408 0.17057364 0.17197265 0.17286911 0.17440717 0.17352319 0.17485753 0.17584262 0.17658176 0.17836645 0.17878338 0.18057674 0.18230368 0.1854662 0.18766 0.18891915 0.19109537 0.19307803 0.1955766 0.19690766 0.19818679 0.20088044 0.20260152 0.20419398 0.20503661 0.20533384 0.2047476 0.20296654 0.20268358 0.20192941 0.20235837 0.20252923 0.20218466 0.20326973 0.2040943 0.20695757 0.20832082 0.20866038 0.21014227 0.21236919 0.21354264 0.21538338 0.21641594 0.21888809 0.22042156 0.2236141 0.22566561 0.23049774 0.23406905 0.24012698 0.24282931 0.24553746 0.24752349 0.24886769 0.24863869 0.25131426 0.25450873 0.25736565 0.25661196 0.25804684 0.26179231 0.26807627 0.26879821 0.27056996 0.27692195 0.28041969 0.28494077 0.28889472 0.28771348 0.28754708 0.28808631 0.2909418 0.2921626 0.2924678 0.2946347 0.2986327 0.3011964 0.3090399 0.3120002 0.3185009 0.3193859 0.3201795 0.3225294 0.3273803 0.32966297 0.33135972 0.33491312 0.33854591 0.33958405 0.34046767 0.3399772 0.33719073 0.33641205 0.3331829 0.33159729 0.33113093 0.32555658 0.32213274 0.32178933 0.32344777 0.32159472 0.32396655 0.32185744 0.31983035 0.31598654 0.31263674 0.30758958 0.30230701 0.29903688 0.29330915 0.28566419 0.27902636 0.27705139 0.27512782 0.27048184 0.26600761 0.26018221 0.25554352 0.24958774 0.24607498 0.24424031 0.24126239 0.23871492 0.23459425 0.23103868 0.22716051 0.22487845 0.2226711 0.21887561 0.2158528 0.21244526 0.2097401 0.20662381 0.20382911 0.20087277 0.19903628 0.19543263 0.19203311 0.18819607 0.18545518 0.18333121 0.18032453 0.1790156 0.1768926 0.17432421 0.17157733 0.17006196 0.16809708 0.16675349 0.16533105 0.16371897 0.16238027 0.15984261 0.15747896 0.15530657 0.15306669 0.15054799 0.14915425 0.14703181 0.14467267 0.14314457 0.1416966 0.14027184 0.13903434 0.13842573 0.13771279 0.13681047 0.13655532 0.13598915 0.13570947 0.13630401 0.13642804 0.13703851 0.13807 0.1393213 0.1398706 0.1400842 0.1409083 0.1418238 0.1424648 0.1429836 0.1442959 0.1463102 0.1466764 0.1472868 0.14782654 0.14861823 0.14969172 0.1509784 0.15246279 0.1540796 0.15661153 0.15884939 0.16105001 0.1633403 0.16730986 0.17057823 0.17309168 0.17579658 0.1789071 0.1818891 0.18634096 0.18920992 0.1923019 0.19569964 0.19903248 0.20239897 0.20601071 0.20931127 0.21256229 0.21587777 0.21884681 0.22175687 0.22497435 0.22827435 0.23157812 0.23475718 0.23764955 0.24121884 0.24473954 0.24874545 0.25311994 0.25721051 0.26124343 0.26476759 0.26836162 0.27132387 0.2748986 0.27811147 0.28133449 0.28463427 0.28725144 0.290193 0.29259994 0.29608594 0.30023658 0.30477221 0.30924556 0.31428556 0.32174797 0.32891801 0.33483688 0.33951645 0.34291871 0.34606337 0.3490211 0.35269419 0.35633974 0.35954711 0.36256694 0.36669398 0.36999794 0.3730407 0.37614542 0.37946733 0.38292067 0.38622745 0.38972818 0.39452694 0.3991689 0.40352678 0.40718891 0.41113705 0.41476817 0.41832108 0.42107999 0.4233223 0.42231258 0.4208745 0.41962149 0.41932437 0.42026449 0.42314813
0.16408396 0.16487732 0.16495478 0.16573598 0.16647315 0.16666376 0.16795657 0.1681203 0.16967929 0.1711488 0.17198237 0.17245353 0.17402224 0.17537965 0.17442852 0.17513311 0.17703484 0.1786927 0.1798366 0.18025095 0.18308754 0.1857851 0.18784405 0.19010891 0.19203149 0.19432932 0.1947886 0.19662499 0.19874987 0.2004564 0.20325871 0.20617373 0.20563796 0.20423783 0.20323214 0.20266394 0.20208421 0.20202648 0.20144493 0.20086167 0.20245688 0.20274598 0.20438519 0.20419844 0.2066169 0.20769242 0.20861915 0.20770513 0.209242 0.21079281 0.21402253 0.21383345 0.2191251 0.22153791 0.2234882 0.22698951 0.23324563 0.23904057 0.24371357 0.24617339 0.24852111 0.2468098 0.24973966 0.24671698 0.25390784 0.25473487 0.25784277 0.25997262 0.2645427 0.26726883 0.26797921 0.26733033 0.27671845 0.2839722 0.28731561 0.28984058 0.29217176 0.29008281 0.29221074 0.2876457 0.2934139 0.2949399 0.2968931 0.3009522 0.3048892 0.3122749 0.3181652 0.3247574 0.3203321 0.3212171 0.3242996 0.32710445 0.33128162 0.33142031 0.33768923 0.34393567 0.34025745 0.34038627 0.34004863 0.33842102 0.33597168 0.33584569 0.33380205 0.33242464 0.32667582 0.3219336 0.32256035 0.32419033 0.32484754 0.32595377 0.32425301 0.32644805 0.31777336 0.3142449 0.30852528 0.30294641 0.29688613 0.29064144 0.2813104 0.273555 0.27251377 0.27309745 0.26824584 0.26592725 0.25825865 0.25292517 0.24731333 0.24079462 0.2407835 0.24065537 0.2377511 0.23483612 0.23164593 0.22737805 0.22518749 0.22354097 0.21912556 0.21700774 0.21231433 0.20827402 0.20699076 0.2033224 0.20098822 0.19967045 0.19639303 0.19164272 0.18917675 0.18508084 0.18301764 0.18110476 0.1796752 0.17660172 0.17463777 0.17227837 0.17040393 0.16849329 0.16690688 0.16614966 0.16476024 0.1633839 0.16110062 0.15868447 0.15563563 0.15320603 0.15153764 0.14959406 0.14765014 0.14549487 0.14377351 0.14212976 0.1404888 0.13977569 0.1386207 0.13782462 0.13752584 0.13679686 0.13633169 0.13674799 0.1367295 0.13682595 0.13734232 0.1379784 0.1392297 0.1397485 0.1402368 0.1407557 0.1417323 0.1423122 0.1428615 0.1442044 0.1459135 0.1462186 0.1470732 0.14752026 0.14828229 0.14929552 0.15055003 0.152031 0.15427645 0.1559125 0.15848728 0.16058389 0.16345382 0.16553091 0.17066526 0.17323188 0.17596114 0.17902332 0.18241504 0.18627996 0.18906085 0.19208034 0.19544951 0.19880153 0.20241043 0.20583374 0.20935667 0.21273915 0.21589173 0.21904142 0.22196347 0.22505514 0.22813656 0.23124244 0.23471245 0.23813692 0.24162973 0.24561918 0.24973387 0.25397446 0.25777566 0.26136058 0.26480242 0.26812435 0.27115223 0.27474478 0.2783273 0.2818726 0.28564373 0.28852055 0.29162525 0.29464596 0.29857284 0.30283316 0.30796521 0.31314432 0.31852344 0.32543452 0.33184823 0.33693149 0.34070416 0.34348705 0.34607031 0.34878443 0.35279266 0.35644596 0.35979434 0.36277788 0.3667997 0.37028351 0.37312072 0.3762094 0.37971993 0.38287506 0.38634959 0.38994244 0.39477332 0.40007043 0.40507357 0.40870036 0.41194779 0.41509225 0.41895487 0.42187651 0.42383719 0.4231332 0.42216551 0.42243977 0.42279027 0.42389299 0.42641688
0.16470012 0.16501513 0.16534867 0.16626765 0.16695568 0.16745934 0.16837191 0.16929397 0.17025671 0.17118619 0.17190234 0.1733379 0.17457694 0.17573033 0.17747938 0.17883973 0.17826351 0.18013224 0.18007243 0.18233009 0.18405815 0.18659444 0.1888533 0.19127764 0.19284001 0.19413904 0.19550236 0.19610189 0.19854834 0.20106065 0.20260115 0.20372033 0.20515231 0.20404308 0.20284013 0.20189549 0.20111719 0.20104946 0.20180582 0.20192809 0.20173325 0.20388222 0.20434845 0.20557314 0.20552782 0.20649944 0.20655639 0.20906188 0.20978015 0.2128992 0.21409897 0.21788589 0.21818649 0.22121295 0.22455169 0.22949333 0.2346454 0.23763368 0.24243213 0.24412151 0.24692087 0.24988814 0.24971951 0.25075616 0.25316882 0.25712764 0.2593721 0.26174779 0.26660278 0.26753004 0.26943521 0.27311879 0.27717774 0.28497794 0.28981229 0.29078597 0.29394312 0.29338195 0.29657927 0.2968626 0.299823 0.3007081 0.3005249 0.3052554 0.3087041 0.3130379 0.3167918 0.3208814 0.32256 0.3227736 0.3231398 0.3249345 0.32996678 0.33157236 0.33531073 0.33836847 0.33792602 0.337402 0.33910331 0.33883325 0.33763791 0.33742719 0.33381019 0.32831403 0.32488462 0.32285032 0.32140886 0.32253046 0.32372601 0.32252528 0.32291229 0.32181639 0.31787492 0.3127316 0.30494698 0.29993409 0.29560707 0.28889985 0.28156836 0.27480577 0.27124027 0.27015389 0.26647949 0.2630467 0.25751927 0.25466018 0.24938916 0.24526094 0.24106536 0.23960664 0.23590127 0.23395026 0.22919877 0.22696976 0.22381087 0.22116772 0.21963364 0.21619525 0.21270315 0.21038536 0.20667038 0.20416005 0.20140568 0.19959501 0.19663235 0.19344288 0.18994086 0.18627176 0.18407555 0.18180145 0.18045067 0.17829678 0.17559747 0.17324786 0.17139435 0.16965432 0.16768372 0.16688493 0.16539048 0.16365069 0.16222982 0.15845599 0.15595823 0.1545859 0.15223818 0.14987893 0.14790282 0.14579732 0.14413162 0.14232002 0.14120982 0.13974439 0.13884484 0.13774355 0.13764675 0.13711091 0.13733483 0.1371439 0.13703548 0.13707149 0.13752613 0.1383141 0.1391381 0.1396264 0.1401148 0.1406336 0.1416102 0.1421596 0.1427394 0.1440823 0.1454557 0.1457914 0.146768 0.14718648 0.14788951 0.1488711 0.15079074 0.15220412 0.15371533 0.15555749 0.15811943 0.16014318 0.16266885 0.16565899 0.16840845 0.17286568 0.17608645 0.17918142 0.18255345 0.18526884 0.18869834 0.19155657 0.19512954 0.19882419 0.20236026 0.20581427 0.20941726 0.21279703 0.21594578 0.21915295 0.22243798 0.22555955 0.22809062 0.23115401 0.23454238 0.23810428 0.24189039 0.24611929 0.25057607 0.25467169 0.25838676 0.26155975 0.26467781 0.26761781 0.2707812 0.27473202 0.27894598 0.28314749 0.28746258 0.29098777 0.29410047 0.29807254 0.30245229 0.30678214 0.31166915 0.31721048 0.32309663 0.32936521 0.33482161 0.3385768 0.34159326 0.34379773 0.3465131 0.3495164 0.35372176 0.35732047 0.361033 0.36359856 0.36648591 0.36925563 0.37195635 0.37552504 0.37959541 0.38304211 0.38702135 0.39110568 0.39563212 0.40129798 0.40642438 0.41034964 0.41361683 0.41681615 0.4198732 0.42245212 0.42427066 0.42489132 0.42496103 0.42513496 0.42561778 0.42660681 0.42913567
0.16533308 0.16547394 0.16576463 0.16661893 0.16747488 0.1680522 0.16884195 0.16992186 0.17098544 0.17199434 0.17215027 0.17360071 0.17457262 0.17616062 0.17734065 0.17942388 0.17986 0.18017284 0.18137738 0.18337829 0.18522204 0.1871793 0.18955768 0.19144521 0.19242556 0.19404126 0.19549772 0.19672588 0.19763759 0.19973553 0.20150844 0.20325149 0.20347653 0.2030791 0.20433911 0.2025776 0.20126846 0.20074621 0.20243969 0.20268792 0.20304529 0.20319082 0.2050227 0.20498188 0.20713762 0.20650567 0.20654268 0.20885919 0.21034761 0.21323522 0.21577544 0.21964688 0.22120783 0.22386854 0.22680476 0.23047009 0.23564816 0.23886931 0.2411187 0.24347533 0.24581382 0.24937369 0.25175632 0.25024371 0.25627099 0.25991255 0.25994762 0.26291822 0.26736967 0.27033313 0.27003908 0.27309307 0.28023548 0.28686214 0.28993608 0.29264666 0.29430941 0.29903572 0.29926744 0.3041262 0.3041262 0.3054386 0.3076054 0.3073613 0.3114814 0.3115119 0.3178295 0.3214613 0.3199353 0.3218885 0.3231704 0.32325384 0.32672462 0.33413694 0.33339023 0.3373044 0.33647676 0.33460281 0.33557021 0.33794257 0.33675787 0.33496346 0.33248259 0.32592623 0.32271854 0.32293688 0.32167104 0.32226362 0.32194626 0.32346673 0.32205036 0.32019486 0.31583468 0.30748193 0.30135278 0.2958777 0.29257948 0.2871677 0.28147651 0.27715306 0.27134703 0.26625433 0.26484981 0.25932585 0.25652024 0.25378689 0.24892814 0.2452061 0.24083671 0.23855011 0.23658054 0.23224864 0.23051194 0.22637705 0.22221141 0.21964771 0.21826362 0.21562383 0.21246921 0.21141229 0.20791 0.20561025 0.2019716 0.19961046 0.19782218 0.19494012 0.19136161 0.18740725 0.18545491 0.18280685 0.18036228 0.17949619 0.17665798 0.17465935 0.17242169 0.17026642 0.16817431 0.16792271 0.16578337 0.16441091 0.16196268 0.15954899 0.15729263 0.15508558 0.15260542 0.15065668 0.14822957 0.146116 0.14421368 0.14261886 0.14120967 0.13989896 0.1391491 0.13794638 0.13772854 0.1385159 0.13773478 0.13760212 0.13731172 0.13756089 0.1378315 0.1385277 0.138955 0.1394433 0.1399622 0.140481 0.1414576 0.1420375 0.1425868 0.1438992 0.1447842 0.145242 0.1464628 0.1468564 0.14749905 0.14899687 0.14993383 0.15164807 0.15334066 0.15509613 0.15775888 0.16032935 0.16230487 0.16580186 0.16816833 0.17086134 0.17544612 0.18010543 0.18266558 0.18539174 0.18819223 0.1913089 0.19476249 0.19858578 0.20196868 0.20585802 0.20945734 0.21286907 0.21598219 0.21930771 0.22265774 0.22571579 0.22814401 0.2313732 0.2348003 0.23861837 0.24202551 0.24595117 0.25104934 0.25563831 0.25899099 0.26212647 0.26445902 0.26737597 0.27080818 0.27513499 0.27991708 0.2845864 0.28896959 0.29275356 0.29613945 0.30099574 0.30615701 0.31061413 0.31517479 0.32062853 0.32684243 0.33288459 0.3378855 0.34117317 0.34345054 0.34540449 0.34760429 0.35066027 0.35475531 0.35866722 0.36171902 0.36399632 0.36647812 0.36906295 0.37206021 0.37623946 0.38040197 0.38422044 0.38884965 0.39349139 0.39774946 0.40345686 0.40806912 0.41244124 0.41592447 0.41921096 0.42149853 0.42312861 0.42435396 0.4256631 0.42688423 0.42724943 0.42759321 0.42794806 0.42962482
0.16566004 0.16631804 0.16658976 0.16685369 0.16775985 0.16850716 0.1693284 0.1702032 0.17151428 0.17238862 0.17369481 0.17380061 0.17509543 0.17641965 0.17776312 0.17975968 0.18047704 0.18062056 0.18314107 0.18483518 0.18604121 0.18686095 0.18883245 0.19058318 0.19257681 0.1935282 0.19536939 0.19721698 0.19792055 0.2000416 0.20109629 0.20158383 0.2026895 0.20224382 0.2035724 0.2060552 0.20587941 0.20488454 0.20309415 0.20141755 0.20154965 0.20282575 0.2048129 0.20581821 0.20763263 0.20785497 0.20774447 0.20952725 0.21126754 0.21507356 0.21631779 0.22091904 0.22435642 0.22608942 0.23043765 0.23490768 0.23613646 0.2391344 0.2396384 0.2421056 0.24787005 0.24958126 0.25187605 0.25335515 0.25481608 0.25949674 0.26449507 0.26455271 0.26767939 0.27298559 0.27358817 0.27909305 0.28163077 0.28804833 0.2916415 0.29462955 0.29812681 0.30166354 0.30391118 0.3082769 0.3073613 0.3076665 0.3106269 0.3088873 0.3125496 0.3143808 0.3148691 0.3186229 0.3183178 0.3203321 0.3228346 0.32367955 0.32620459 0.32909728 0.33354328 0.33548237 0.33296085 0.33431246 0.33470119 0.33531798 0.33314734 0.33016195 0.32959829 0.32516991 0.32262509 0.32093145 0.32181787 0.32056804 0.3202391 0.32042377 0.32005193 0.31598706 0.31147399 0.30586009 0.29898087 0.29374356 0.29091759 0.28507984 0.28178493 0.27610151 0.27107255 0.26765259 0.26233313 0.25869366 0.25635212 0.25210345 0.24755477 0.2439634 0.24259743 0.24004786 0.23609732 0.23436005 0.23091463 0.22765037 0.2229821 0.22022277 0.21832166 0.21502345 0.2133095 0.21107458 0.20876059 0.20520531 0.20299248 0.20043612 0.1971689 0.19531457 0.19134109 0.18887695 0.18617402 0.18377319 0.18100073 0.17879485 0.17761632 0.17498473 0.17296376 0.17083681 0.16905591 0.16809493 0.16611744 0.16418945 0.16152093 0.15975527 0.1574723 0.15546234 0.15319827 0.15101838 0.14841436 0.14628312 0.14452458 0.14289545 0.14139774 0.14047225 0.13936126 0.1381121 0.13807226 0.13877201 0.13812806 0.13772594 0.13743233 0.13761986 0.13795293 0.1386803 0.1391381 0.1396264 0.1401758 0.1407251 0.1412745 0.1418238 0.1423732 0.143655 0.144357 0.1454557 0.1461881 0.14652466 0.14710652 0.14796072 0.14965777 0.15094293 0.15350912 0.15474547 0.15741135 0.15935028 0.16203062 0.16430636 0.16792373 0.17056329 0.17440948 0.17776196 0.18191636 0.18461143 0.18777679 0.19107731 0.194578 0.19839847 0.20240976 0.20590145 0.20964519 0.21300909 0.21606676 0.21920772 0.22237076 0.2253959 0.22756411 0.23136264 0.23519047 0.23844126 0.24207368 0.24622305 0.25122246 0.2556702 0.25884248 0.2612426 0.26387403 0.26698458 0.27091797 0.27567907 0.28099649 0.28627985 0.29091049 0.29494377 0.29881685 0.30391105 0.30888266 0.31307012 0.31748372 0.32297583 0.3293884 0.3354724 0.34055383 0.34350041 0.34558371 0.34759092 0.34951824 0.35209383 0.35540635 0.35799548 0.36120653 0.36407451 0.36667145 0.36984713 0.3733392 0.37802598 0.38217628 0.38638074 0.39072151 0.39490272 0.39888552 0.40443484 0.40871262 0.41287069 0.41623776 0.41888549 0.42101314 0.42271712 0.42429972 0.42597838 0.42723766 0.42778882 0.42835154 0.42938091 0.43109118
0.16623825 0.16658944 0.16717115 0.16727651 0.1681066 0.16865578 0.16949093 0.17018936 0.17154303 0.17271602 0.17388127 0.1745902 0.17610261 0.17731408 0.17784881 0.17920825 0.18113783 0.18278092 0.18275915 0.18447016 0.18517202 0.1868382 0.18928208 0.1911996 0.19244478 0.1936217 0.19634544 0.19820101 0.19812615 0.19909961 0.20026633 0.20087208 0.20229909 0.2026823 0.20452411 0.20720895 0.2062176 0.20551122 0.20452158 0.20181713 0.20210435 0.20321508 0.2041243 0.20683994 0.20881842 0.20881308 0.20754643 0.20875798 0.21276422 0.21587466 0.21803544 0.21929119 0.22571404 0.23047767 0.23169284 0.23630666 0.23755215 0.24100431 0.24267352 0.24088815 0.24751329 0.25363694 0.25460455 0.25253945 0.25666005 0.26364509 0.2658108 0.26883624 0.27331075 0.27510111 0.27645731 0.28255801 0.28490162 0.28932496 0.29495965 0.30130883 0.30231056 0.30636933 0.30794381 0.3117866 0.3100165 0.3123055 0.3120308 0.310047 0.3138619 0.3157236 0.3143502 0.3139535 0.31551 0.3204236 0.3208509 0.32190654 0.32174205 0.3233551 0.32674253 0.33122379 0.33111508 0.3300864 0.33172931 0.33194048 0.3327587 0.3297275 0.3277201 0.32232773 0.32344413 0.32159809 0.32187536 0.32342582 0.31933647 0.31756239 0.31662404 0.31712699 0.31046017 0.30576139 0.30048756 0.29305644 0.28925563 0.28352026 0.27916339 0.27706693 0.27314686 0.26878803 0.26358474 0.25719294 0.25559023 0.25154916 0.2470833 0.24416747 0.24233055 0.23904043 0.23734875 0.23479955 0.23119445 0.22648141 0.22295926 0.2195737 0.2168497 0.21537968 0.21311249 0.21339521 0.21009566 0.20626734 0.20347515 0.20127696 0.19855319 0.19496883 0.19150819 0.18889 0.18688405 0.18351036 0.18155504 0.17820665 0.17696467 0.17575736 0.17335007 0.17136482 0.16918422 0.16822594 0.16627352 0.1641192 0.16216814 0.16011306 0.15780118 0.15543862 0.15318191 0.15124292 0.14860137 0.14640731 0.14465765 0.14286942 0.14133503 0.14039923 0.13916179 0.13831624 0.13808593 0.13875843 0.13810754 0.13766639 0.13758323 0.13770598 0.13844024 0.1388329 0.1392297 0.1397485 0.1402673 0.1409388 0.1414576 0.1420375 0.1426173 0.1433498 0.1444485 0.1455777 0.1458829 0.14619387 0.14689792 0.14756542 0.14868109 0.15127477 0.15274284 0.15536598 0.15691132 0.15857303 0.16136266 0.16392687 0.16712616 0.17021708 0.17378728 0.17692864 0.18043473 0.18442342 0.18720885 0.19069485 0.19439405 0.19817282 0.20229615 0.20608655 0.20931415 0.21316005 0.21624834 0.21936669 0.22128731 0.22472692 0.22790055 0.23141938 0.23525565 0.23878633 0.24252403 0.24646513 0.25129627 0.25522002 0.25783055 0.26018797 0.26327787 0.2668274 0.2712505 0.27624593 0.28197052 0.28768867 0.29221476 0.29667759 0.30112799 0.30588889 0.31006932 0.31379532 0.31791006 0.32368805 0.3309726 0.33758098 0.34249131 0.34563805 0.34794425 0.35040973 0.353056 0.35495292 0.35739622 0.35928614 0.36168313 0.36505473 0.36816483 0.37195024 0.37543093 0.37975468 0.38353756 0.3877982 0.39134817 0.39474215 0.39898435 0.40416464 0.40759126 0.41063549 0.4143246 0.41752402 0.41963498 0.42134227 0.42341581 0.42546045 0.42672034 0.4276649 0.42831978 0.42977747 0.43121388
0.16674851 0.16719365 0.16763769 0.16828687 0.16876931 0.1694969 0.17026313 0.17112782 0.17215416 0.17351598 0.17457852 0.17524376 0.17643939 0.17791113 0.1789213 0.17936824 0.18078953 0.18244484 0.18288825 0.18359875 0.18494757 0.18652151 0.18878607 0.19077658 0.19128685 0.19311381 0.19529662 0.1961705 0.19794275 0.19766631 0.1992894 0.20059034 0.20185834 0.20356633 0.20496864 0.20639458 0.20611701 0.20417147 0.2030694 0.20356981 0.20241842 0.20331467 0.20528447 0.20862692 0.20841128 0.20849 0.20922963 0.21138628 0.21120156 0.2133812 0.21701107 0.22171455 0.22485637 0.23168878 0.23406095 0.24011838 0.24165129 0.24232949 0.24325259 0.24455604 0.25116966 0.25548103 0.25640482 0.25827492 0.25939883 0.26461648 0.27004543 0.27379177 0.27648586 0.27913076 0.28149076 0.28602861 0.29313252 0.29512286 0.29882549 0.30262063 0.30728861 0.30859924 0.31182313 0.3145028 0.3120308 0.3121223 0.3118477 0.3102911 0.3131905 0.3139535 0.3138925 0.3167002 0.317097 0.3187145 0.3193859 0.32001197 0.32262767 0.32115581 0.32402868 0.32498805 0.32538236 0.32742833 0.32935523 0.32995976 0.32890561 0.3260832 0.32352439 0.32319853 0.32161391 0.32387002 0.32472491 0.32361914 0.32012033 0.31922517 0.31656811 0.31438308 0.30917062 0.30628541 0.2982124 0.29246398 0.28864693 0.28432427 0.27931634 0.27606026 0.27073695 0.26704534 0.26071305 0.25713187 0.25293324 0.25018524 0.24728188 0.24360671 0.24223136 0.23972829 0.23654184 0.23476905 0.23111642 0.22748756 0.22352322 0.2210777 0.21679069 0.21573215 0.21295351 0.2115554 0.20952422 0.20506085 0.20289314 0.20171267 0.19913689 0.19617449 0.19303552 0.19069248 0.18810552 0.18495613 0.18146973 0.17897848 0.17758851 0.1759088 0.17377745 0.17195876 0.16940323 0.16835246 0.16640634 0.16471698 0.16193849 0.15996265 0.15758054 0.15567936 0.15327881 0.15126121 0.14889109 0.14677095 0.14475161 0.14319776 0.14209186 0.1405847 0.13933076 0.13902144 0.13808504 0.13874788 0.1380809 0.13772629 0.13779683 0.13755461 0.13847071 0.138894 0.1392602 0.1398096 0.1403284 0.1414881 0.1416102 0.142129 0.1427699 0.1430751 0.143655 0.1446927 0.146005 0.14631698 0.14662532 0.14726138 0.14807045 0.15115159 0.15249537 0.15480974 0.15637167 0.15801389 0.16073174 0.16274319 0.16526158 0.16904593 0.17280946 0.17624194 0.17948413 0.18292309 0.18656906 0.1900891 0.1938868 0.19766427 0.20161569 0.20496002 0.20824129 0.21157455 0.21491844 0.21835643 0.22130668 0.22455705 0.22800102 0.23184232 0.2354619 0.23913259 0.24304254 0.2473658 0.25142145 0.25456961 0.25692939 0.25943651 0.26289356 0.26640465 0.27124215 0.27682816 0.28268599 0.28828426 0.29355366 0.2985633 0.30337558 0.30764876 0.31186479 0.31575393 0.31954927 0.32477001 0.33128969 0.3379136 0.343404 0.34692814 0.35043808 0.35270151 0.35563759 0.35775151 0.35911293 0.36074405 0.36323741 0.36686591 0.37062151 0.37475027 0.37839197 0.38219163 0.38551541 0.38911285 0.39193457 0.39443408 0.39818078 0.40228016 0.40552118 0.40796255 0.41145429 0.4155424 0.41832613 0.42094934 0.42293048 0.42491366 0.42629215 0.42805642 0.42965657 0.43124134 0.43173304
0.16774061 0.16896245 0.169831 0.17062716 0.17010996 0.17058402 0.17126747 0.17207278 0.17302708 0.17366905 0.17441502 0.17546871 0.17710448 0.17800114 0.17913546 0.18048891 0.18012722 0.18115067 0.18238296 0.18335454 0.18522438 0.18717076 0.18808937 0.19000055 0.19186991 0.19279481 0.19408784 0.19528345 0.19623876 0.19720647 0.19868823 0.20062118 0.20065184 0.20137246 0.20397792 0.2044041 0.2051947 0.20504109 0.20457488 0.20352114 0.20281885 0.20521476 0.20483193 0.20824107 0.20873699 0.21015004 0.21039215 0.21277862 0.21137723 0.21277144 0.21676202 0.22225369 0.22610977 0.23229111 0.23649328 0.24191456 0.24440177 0.24353788 0.24626438 0.24763929 0.25275833 0.25776559 0.26038897 0.25955417 0.26327687 0.2677558 0.2737445 0.27615985 0.27885405 0.28146642 0.28581496 0.29342163 0.29522475 0.30070706 0.30540007 0.30905586 0.31284686 0.31296842 0.31610039 0.3149301 0.3147775 0.3133126 0.3149301 0.3129158 0.3131905 0.3131905 0.3136483 0.3160288 0.3180736 0.31786 0.318745 0.32141699 0.32061015 0.31880326 0.31847854 0.31893227 0.3231081 0.32395457 0.32395991 0.32476922 0.32400443 0.32456528 0.32282885 0.31987654 0.32377477 0.32457397 0.32578098 0.32378734 0.3213199 0.3188975 0.31520926 0.31458418 0.30876431 0.30565584 0.30031935 0.29300242 0.28766282 0.2840391 0.28027742 0.27732897 0.27090474 0.26503351 0.25863189 0.25405356 0.25106719 0.24873983 0.24768961 0.24402583 0.24340897 0.24082973 0.23808774 0.23324674 0.22924516 0.22628556 0.22357591 0.22126688 0.21766149 0.21454824 0.21313023 0.21114393 0.20873612 0.20467965 0.20358571 0.20173506 0.19886507 0.19604924 0.19402061 0.19184048 0.18844121 0.18598874 0.18259588 0.17947532 0.17783125 0.17642401 0.17413327 0.17192616 0.17010876 0.1690354 0.16721634 0.16492608 0.16251071 0.15998972 0.15732202 0.15587367 0.15317894 0.15146874 0.14915862 0.14700897 0.1451941 0.14392351 0.14218428 0.14081074 0.13956014 0.13899702 0.13807295 0.13864262 0.13796006 0.13812404 0.13794923 0.1378883 0.13856099 0.139016 0.1393518 0.1406031 0.1406641 0.1414881 0.1416712 0.1422511 0.142831 0.1431972 0.1434719 0.1441128 0.1448453 0.14585939 0.14641336 0.14692637 0.14770375 0.15105721 0.15240004 0.15416201 0.1557631 0.15735602 0.16008845 0.16217414 0.16480308 0.16870837 0.17178453 0.17514099 0.17869347 0.18196919 0.18552385 0.18937921 0.19343222 0.19643154 0.20009838 0.20334439 0.20698646 0.2103351 0.21413398 0.21831858 0.22136181 0.22485608 0.22845238 0.23190405 0.23532098 0.23965958 0.24353647 0.24805731 0.25157544 0.25420573 0.25622706 0.25850066 0.26221525 0.26645954 0.27166191 0.2777244 0.28356248 0.28880432 0.29408987 0.29938751 0.30426862 0.30849141 0.31288352 0.31686738 0.32076949 0.32537949 0.33117435 0.337274 0.34326072 0.34812168 0.35202285 0.3548723 0.35767486 0.3598093 0.36118259 0.36290255 0.36569549 0.36917278 0.37287792 0.37737726 0.38191231 0.3853968 0.3880112 0.390842 0.39298049 0.39515175 0.39840156 0.40152068 0.4043418 0.40710315 0.41071045 0.41492366 0.41773164 0.42068391 0.42280482 0.42499787 0.42701277 0.42954291 0.4316634 0.4331615 0.43368776
0.16827392 0.16935454 0.17017744 0.17089272 0.17105207 0.17142783 0.17198375 0.17243288 0.17309863 0.17389571 0.17503819 0.17582235 0.17705362 0.17787207 0.17915207 0.1801605 0.18057828 0.1813199 0.18210805 0.18357938 0.18501701 0.18692408 0.18817278 0.1894199 0.19160712 0.1921673 0.19344454 0.19413369 0.1950482 0.19659862 0.19814125 0.20007477 0.19994099 0.20147626 0.20307774 0.20330436 0.20400144 0.20413262 0.20455498 0.2039148 0.20469498 0.20555163 0.20613379 0.20859683 0.20837318 0.21030616 0.21085405 0.21024415 0.21173283 0.21300065 0.21811892 0.22062259 0.22607194 0.23266006 0.2396299 0.24341554 0.2439196 0.24414734 0.24748042 0.25205649 0.25447241 0.25794804 0.26320617 0.26676744 0.26831069 0.27232645 0.27434918 0.27895364 0.28299215 0.28507583 0.29026421 0.29638082 0.29815951 0.30271153 0.30856571 0.3117707 0.31437336 0.31330396 0.31735224 0.3187145 0.3181957 0.3191418 0.3172191 0.3147165 0.3147775 0.3162119 0.3176158 0.3152964 0.3165781 0.3178905 0.3178905 0.31823896 0.31758397 0.3182228 0.31942423 0.32063858 0.32059502 0.32396942 0.32372093 0.32387617 0.32234558 0.32338632 0.32214056 0.32074162 0.32373897 0.32602861 0.32530705 0.32277546 0.32055152 0.31808774 0.31730319 0.3146186 0.31051735 0.30488793 0.29805449 0.292302 0.28817896 0.28621215 0.28177172 0.27616427 0.27114111 0.26514383 0.2597004 0.25580994 0.25119531 0.24874038 0.24747871 0.24530906 0.24340507 0.24000788 0.2372142 0.23235623 0.22915004 0.22674597 0.22333859 0.22070941 0.21668159 0.21494415 0.21244126 0.21063462 0.20749034 0.20430184 0.20192171 0.20098229 0.19838724 0.19589478 0.19367874 0.19228782 0.18884643 0.18676664 0.18356323 0.18089646 0.17895847 0.17722687 0.17499426 0.17307759 0.17123053 0.16928229 0.16744578 0.16490025 0.16285564 0.16036228 0.15755149 0.15518187 0.1535379 0.15145975 0.14932325 0.14741235 0.14552455 0.14387513 0.14225886 0.140839 0.13958864 0.13898371 0.13913254 0.13853282 0.138264 0.13809502 0.13788537 0.13804103 0.13865137 0.1392297 0.1402673 0.1405725 0.1408167 0.141305 0.1417323 0.1423122 0.1424953 0.1432583 0.1437771 0.1439297 0.1446927 0.144912 0.14592444 0.14662102 0.14733705 0.15019974 0.15175186 0.15323572 0.15503296 0.15669993 0.15917906 0.16143419 0.1643425 0.16788867 0.17107747 0.17419218 0.1776504 0.1811755 0.18450015 0.1881777 0.19220904 0.1957621 0.19933363 0.20257391 0.20601599 0.20972561 0.21349734 0.21758507 0.22106512 0.22474004 0.22859079 0.23219615 0.23587781 0.23905013 0.24202911 0.24660346 0.25024901 0.25289721 0.25523417 0.25767863 0.26169946 0.26657092 0.27221004 0.27865491 0.28446951 0.28896527 0.29358346 0.29862219 0.30382988 0.30860081 0.31347646 0.31772029 0.3209731 0.32445673 0.32931115 0.33518777 0.34159893 0.3482497 0.35358028 0.35752887 0.3610083 0.36289778 0.36404114 0.36563708 0.3684726 0.37180262 0.37559374 0.38001439 0.38432373 0.38801602 0.39015386 0.39217173 0.39419198 0.39650207 0.39984296 0.40185677 0.40395517 0.40752402 0.41149059 0.4159089 0.41878558 0.42126993 0.42307062 0.42583456 0.42891171 0.43162905 0.43382364 0.43477768 0.43552166
0.16937193 0.17001784 0.17057245 0.17112785 0.17172993 0.17167335 0.17242895 0.17290176 0.17371861 0.17439594 0.17491583 0.17591685 0.17693251 0.17862153 0.17936094 0.1803458 0.18161947 0.18228054 0.18274895 0.18424215 0.1857841 0.18633294 0.18748559 0.18953807 0.19097314 0.19203325 0.19382549 0.19476607 0.19531962 0.19513627 0.19642988 0.19817693 0.19870845 0.19922543 0.20185578 0.20437952 0.20381551 0.20549723 0.20440693 0.20163555 0.20322773 0.20408835 0.20613237 0.20645859 0.20926262 0.21069542 0.21017423 0.20991405 0.21238805 0.21429732 0.21813359 0.21918546 0.22514062 0.23354936 0.24042897 0.24558341 0.2440554 0.24598993 0.24730917 0.25189354 0.25576708 0.26005524 0.26612751 0.27214668 0.27156239 0.27159477 0.27566633 0.28049773 0.28286096 0.28974329 0.29540113 0.30126062 0.3004899 0.30322934 0.31084896 0.31680302 0.31461748 0.31495393 0.31784077 0.3225294 0.3221327 0.3200574 0.3196301 0.3154184 0.3158457 0.3177684 0.3188976 0.3187145 0.3197217 0.3157236 0.3158152 0.3153053 0.31721666 0.31984129 0.31915004 0.31644477 0.31975352 0.3213469 0.32181508 0.3223612 0.32019422 0.32014003 0.32098414 0.31956754 0.3229401 0.32385407 0.32521995 0.32218819 0.32027793 0.31770858 0.31550379 0.31616233 0.30988315 0.30180502 0.29676679 0.28978117 0.28769334 0.28503038 0.28066801 0.27483627 0.27050046 0.26642808 0.25980644 0.25339765 0.25072753 0.24876203 0.24745683 0.24545696 0.24201397 0.24083098 0.23554066 0.23215476 0.23030543 0.22763124 0.22273953 0.21890606 0.21708721 0.2146123 0.21299171 0.21038928 0.20824789 0.20405382 0.20138222 0.19938522 0.19832005 0.19513462 0.19445962 0.19292333 0.18957707 0.1872573 0.18496157 0.18215718 0.18057456 0.17818286 0.17574801 0.17408552 0.17140725 0.16991558 0.16733494 0.16540317 0.16310262 0.15999987 0.15756572 0.15603982 0.15359919 0.15108808 0.14924685 0.14720331 0.14562751 0.14396622 0.14244522 0.14101634 0.14014006 0.13981972 0.13905273 0.13837276 0.13817088 0.13800362 0.13806927 0.1386456 0.13883356 0.1394433 0.1402063 0.1405115 0.1407557 0.141244 0.1417628 0.1423732 0.1425868 0.1429225 0.143594 0.1437161 0.1445706 0.14454469 0.14470044 0.14634585 0.14706163 0.14958484 0.15089181 0.15252788 0.15405853 0.15600871 0.1585207 0.1611053 0.16418036 0.16695058 0.1702196 0.17343422 0.17667859 0.18004857 0.18365159 0.1876447 0.19126789 0.19468161 0.19847876 0.20179866 0.20534058 0.20918654 0.21227606 0.21600761 0.22014591 0.22460285 0.22857676 0.23266208 0.23591367 0.23879954 0.24160587 0.24470954 0.24795732 0.25119915 0.25369586 0.25655511 0.26123046 0.26681198 0.272866 0.27932481 0.28466995 0.2891305 0.29330092 0.29787679 0.30275781 0.30752828 0.31320713 0.31799848 0.32161432 0.32479161 0.32931883 0.33459649 0.34150234 0.34913715 0.35569105 0.36048164 0.36382471 0.36529953 0.36680628 0.36854824 0.37105608 0.37443247 0.37803945 0.38216288 0.38561898 0.38957737 0.39215204 0.39366743 0.39561725 0.39834747 0.40135293 0.40304766 0.40561791 0.40978513 0.41377193 0.41768854 0.42028935 0.42246369 0.42477664 0.42766585 0.4304792 0.43250888 0.43409448 0.43541806 0.43680451
0.17123025 0.17077082 0.17134179 0.17187649 0.17237943 0.17297062 0.17319009 0.17382061 0.17410553 0.17463045 0.17507794 0.17588354 0.17667466 0.17774232 0.17889021 0.18039421 0.18171686 0.18253176 0.18348202 0.18371517 0.18542633 0.18633234 0.18810796 0.18979373 0.19110616 0.19235276 0.19264752 0.19358366 0.19484645 0.19532721 0.19594711 0.19656128 0.1986376 0.19999655 0.20243364 0.2045526 0.20409265 0.20564349 0.20428165 0.20374535 0.20394868 0.20520235 0.20671558 0.20712908 0.2101105 0.21100258 0.21005305 0.21222078 0.21287453 0.21377132 0.21851426 0.22274988 0.22639717 0.23149778 0.23775462 0.24392903 0.24527206 0.2492061 0.24993042 0.25167316 0.25722571 0.25905758 0.26405359 0.26927298 0.27114265 0.27325497 0.27586708 0.28071302 0.28373793 0.28794034 0.29567702 0.2982055 0.3017712 0.30517344 0.31170211 0.31469896 0.31754939 0.31907918 0.32263721 0.3220412 0.32256 0.321034 0.3192028 0.3201184 0.3205762 0.3210035 0.3213087 0.3212171 0.321095 0.3189282 0.3167613 0.3159155 0.31577922 0.31867959 0.31716868 0.31872892 0.31796766 0.31654955 0.31841894 0.31856886 0.3211484 0.31817891 0.31781917 0.31715599 0.3204026 0.3215869 0.32233061 0.32257454 0.31803287 0.31696798 0.31519804 0.31130589 0.30661306 0.30183554 0.29343307 0.28925291 0.28538313 0.28396014 0.27965643 0.27494749 0.26746512 0.26225571 0.25909152 0.25461692 0.25067049 0.24851732 0.24775471 0.2447273 0.24301626 0.2401509 0.23551016 0.23259353 0.22868625 0.22562796 0.2216467 0.22027189 0.21794144 0.21545452 0.21211582 0.20993712 0.20803817 0.20602237 0.20263704 0.19962607 0.19753986 0.19538422 0.19351168 0.1928152 0.19053005 0.18784653 0.18575195 0.18405915 0.18138909 0.17891439 0.17677642 0.17467301 0.17180222 0.17005183 0.16736443 0.16532155 0.16311764 0.16006572 0.15725221 0.15600533 0.1535074 0.1512217 0.14946317 0.14756383 0.14558596 0.14389062 0.14236539 0.1412149 0.14010813 0.13975818 0.13893211 0.13869172 0.13831179 0.13818448 0.1382528 0.13855689 0.13904459 0.1400537 0.1403894 0.1406031 0.1411524 0.1413966 0.1418238 0.1424037 0.1426784 0.142831 0.1433193 0.1435024 0.1441738 0.14423989 0.14457859 0.14503317 0.14666437 0.14879098 0.15025145 0.15162178 0.15337869 0.15561642 0.15777359 0.16075856 0.16338607 0.16632208 0.16926451 0.17264119 0.17592909 0.17906417 0.18244591 0.18626981 0.18962604 0.1931294 0.19752028 0.20113057 0.20455223 0.20799533 0.21168666 0.21589722 0.21990258 0.22437235 0.22887541 0.23290812 0.23567815 0.23857656 0.24110053 0.2439615 0.24693562 0.2503975 0.25314265 0.25648546 0.26159105 0.26742135 0.27391352 0.27987249 0.28527409 0.28939703 0.29366034 0.29825148 0.30308214 0.30787705 0.31329044 0.31798256 0.32221145 0.32622423 0.33072082 0.33590337 0.34328171 0.35142037 0.35813688 0.36317051 0.36611489 0.36735095 0.36857329 0.37055264 0.37275557 0.37599743 0.37944431 0.38331374 0.38655236 0.38999227 0.39283118 0.39431663 0.3966454 0.39973293 0.40304817 0.40562329 0.40924624 0.4142581 0.41876152 0.42252465 0.42472651 0.42650529 0.42832511 0.43059289 0.43268274 0.4340205 0.43558575 0.43660744 0.43738491
0.17240296 0.17243226 0.17211153 0.17278967 0.17326189 0.17362953 0.17364473 0.17433435 0.17458379 0.17497363 0.17515865 0.17576988 0.17667597 0.1778785 0.17942678 0.18071637 0.18143167 0.18231377 0.1831454 0.18457345 0.18515759 0.18727034 0.18881296 0.19036746 0.19014822 0.19034517 0.19277953 0.19246225 0.19298545 0.19581488 0.1967339 0.19760187 0.19878817 0.19873499 0.2006997 0.20399837 0.20516462 0.20605606 0.20578706 0.20426329 0.20516119 0.20467666 0.20723583 0.20953105 0.21054717 0.20964894 0.2107155 0.21333244 0.21281225 0.21488525 0.22002389 0.22217199 0.22816617 0.23427756 0.23666284 0.2409257 0.24536334 0.24965532 0.25245533 0.25143499 0.25558855 0.2609903 0.26580552 0.27015935 0.26920531 0.27308352 0.27756283 0.28286819 0.28702921 0.28818806 0.29368004 0.29794157 0.30456584 0.30892024 0.31203736 0.31893843 0.32008428 0.3212797 0.32498948 0.324147 0.3268022 0.3246353 0.325734 0.3225905 0.3245132 0.3245437 0.3235366 0.3216749 0.3196606 0.322621 0.3183788 0.31683147 0.31785645 0.31617472 0.31634571 0.31626554 0.31788134 0.3151916 0.31574391 0.31755381 0.32038659 0.31758383 0.31580915 0.31523275 0.31792963 0.31745534 0.3195362 0.32097794 0.32019218 0.31797527 0.31417705 0.30971375 0.30465025 0.29980321 0.29500037 0.28896883 0.28675054 0.2808326 0.27778561 0.27259307 0.26592452 0.26169325 0.25774831 0.25522886 0.25101063 0.24757401 0.24638911 0.24692806 0.24280287 0.23895131 0.23511164 0.22956728 0.22781345 0.22472999 0.22298827 0.21964771 0.21757245 0.21583141 0.21372405 0.21130964 0.20930607 0.2067221 0.20375319 0.20045547 0.19818553 0.19569666 0.1938225 0.1921822 0.19052224 0.18891403 0.18694291 0.18531996 0.18253082 0.18002184 0.17763638 0.17472175 0.17281773 0.17030486 0.16785454 0.16497493 0.163218 0.16054293 0.1572697 0.15619788 0.15366076 0.15149023 0.14949815 0.1476797 0.14563032 0.14416314 0.14259325 0.14136478 0.14033028 0.13962079 0.13914967 0.1385749 0.13850092 0.13867269 0.13849616 0.13876918 0.13922538 0.1399316 0.1402979 0.1410914 0.1413355 0.1418238 0.1420985 0.1423427 0.1425868 0.1429531 0.1431362 0.1436245 0.1440212 0.14405919 0.14442919 0.14491276 0.14657193 0.14824168 0.14939867 0.15095692 0.15294782 0.15490979 0.15730159 0.16055099 0.16265436 0.16558714 0.16875664 0.17174342 0.17509443 0.1783521 0.18206998 0.18561626 0.1888363 0.1923888 0.19567442 0.20061277 0.20359084 0.20756329 0.21149558 0.21534063 0.22002432 0.22458532 0.22903691 0.23311563 0.23568159 0.23837726 0.24091847 0.2437729 0.24674068 0.25015048 0.25327338 0.25725852 0.26309011 0.26927204 0.27578072 0.28075981 0.28517335 0.28870585 0.293272 0.29854604 0.30398527 0.30883231 0.31400236 0.31818294 0.32278621 0.32730582 0.33228204 0.33821651 0.3461858 0.35388409 0.36025641 0.36425952 0.36681927 0.3680368 0.36926401 0.37112456 0.37374895 0.37703068 0.38085465 0.38490737 0.38803039 0.39119499 0.39377917 0.39551006 0.39795806 0.40127026 0.40539198 0.40929431 0.41387646 0.41839849 0.4232084 0.42704533 0.42967382 0.43145597 0.43224242 0.43324089 0.43417953 0.43544398 0.43710401 0.43767409 0.43747845
